ply
format ascii 1.0
element vertex 1226
property float x
property float y
property float z
property uchar red
property uchar green
property uchar blue
end_header
-0.685944 0.210287 -0.152952 255 255 0
-0.714581 0.270789 -0.045960 255 255 0
-0.749401 0.275951 -0.054952 255 255 0
-0.737399 0.222438 -0.108952 255 255 0
-0.681606 0.224433 -0.160952 255 255 0
-0.727698 0.221178 -0.142952 255 255 0
-0.692462 0.334478 -0.102952 255 255 0
-0.739537 0.222910 -0.134952 255 255 0
-0.754272 0.245180 -0.070952 255 255 0
-0.696612 0.292814 -0.051153 255 255 0
-0.685650 0.299125 -0.067418 255 255 0
-0.738397 0.237370 -0.107849 255 255 0
-0.681130 0.277595 -0.068952 255 255 0
-0.724754 0.221777 -0.104952 255 255 0
-0.747787 0.225255 -0.112952 255 255 0
-0.697830 0.248647 -0.076952 255 255 0
-0.689382 0.302449 -0.072952 255 255 0
-0.753639 0.282196 -0.046952 255 255 0
-0.706079 0.309256 -0.051707 255 255 0
-0.648672 0.284198 -0.164952 255 255 0
-0.799124 0.234906 -0.166952 255 255 0
-0.712621 0.271188 -0.053925 255 255 0
-0.794701 0.243261 -0.176952 255 255 0
-0.664824 0.293158 -0.144952 255 255 0
-0.739032 0.310716 -0.041949 255 255 0
-0.695994 0.292940 -0.038952 255 255 0
-0.732449 0.218171 -0.151783 255 255 0
-0.776363 0.213318 -0.147573 255 255 0
-0.741125 0.290909 -0.040952 255 255 0
-0.771271 0.265378 -0.076952 255 255 0
-0.712206 0.208957 -0.152952 255 255 0
-0.666052 0.303113 -0.109732 255 255 0
-0.781375 0.251077 -0.136952 255 255 0
-0.789095 0.225740 -0.162952 255 255 0
-0.755967 0.258288 -0.088952 255 255 0
-0.709164 0.234132 -0.126952 255 255 0
-0.732186 0.257003 -0.036236 255 255 0
-0.763115 0.293571 -0.072952 255 255 0
-0.745769 0.213419 -0.173953 255 255 0
-0.725042 0.231923 -0.103671 255 255 0
-0.653563 0.321982 -0.175951 255 255 0
-0.744276 0.236174 -0.137951 255 255 0
-0.759239 0.231089 -0.118952 255 255 0
-0.685846 0.239898 -0.104354 255 255 0
-0.704613 0.221793 -0.149914 255 255 0
-0.677256 0.313080 -0.138952 255 255 0
-0.758518 0.215891 -0.172952 255 255 0
-0.677074 0.256976 -0.148952 255 255 0
-0.650855 0.304164 -0.152952 255 255 0
-0.712358 0.310020 -0.061934 255 255 0
-0.808310 0.245597 -0.148952 255 255 0
-0.706567 0.281558 -0.064952 255 255 0
-0.788421 0.237398 -0.172952 255 255 0
-0.729437 0.283617 -0.022952 255 255 0
-0.663294 0.299593 -0.151911 255 255 0
-0.766734 0.266301 -0.068035 255 255 0
-0.765206 0.278859 -0.071850 255 255 0
-0.739988 0.222759 -0.124952 255 255 0
-0.664565 0.285048 -0.142952 255 255 0
-0.725652 0.286905 -0.002952 255 255 0
-0.731138 0.221756 -0.134952 255 255 0
-0.665551 0.330746 -0.150952 255 255 0
-0.774390 0.270867 -0.090952 255 255 0
-0.641269 0.281623 -0.153025 255 255 0
-0.733148 0.256807 -0.072952 255 255 0
-0.765342 0.319650 -0.070373 255 255 0
-0.764383 0.254748 -0.074952 255 255 0
-0.743004 0.270050 -0.062952 255 255 0
-0.757263 0.276392 -0.060952 255 255 0
-0.713040 0.223086 -0.118952 255 255 0
-0.679180 0.327518 -0.132952 255 255 0
-0.745107 0.250292 -0.069002 255 255 0
-0.655990 0.283755 -0.150952 255 255 0
-0.677115 0.327396 -0.107912 255 255 0
-0.732416 0.207973 -0.146856 255 255 0
-0.723015 0.211926 -0.146863 255 255 0
-0.732877 0.200208 -0.166952 255 255 0
-0.674693 0.319724 -0.128952 255 255 0
-0.730216 0.237288 -0.094952 255 255 0
-0.746040 0.295003 -0.035389 255 255 0
-0.738689 0.268903 -0.048952 255 255 0
-0.665225 0.297159 -0.122952 255 255 0
-0.756559 0.209184 -0.174952 255 255 0
-0.690156 0.306373 -0.088952 255 255 0
-0.740255 0.206377 -0.146200 255 255 0
-0.750749 0.237896 -0.112952 255 255 0
-0.699200 0.245345 -0.103052 255 255 0
-0.684190 0.332079 -0.146215 255 255 0
-0.685481 0.248136 -0.149864 255 255 0
-0.678041 0.251690 -0.102772 255 255 0
-0.758462 0.255738 -0.068022 255 255 0
-0.771782 0.250988 -0.107806 255 255 0
-0.683224 0.277169 -0.105664 255 255 0
-0.771349 0.238830 -0.118815 255 255 0
-0.670269 0.273682 -0.102496 255 255 0
-0.743979 0.264809 -0.071860 255 255 0
-0.642270 0.301829 -0.156952 255 255 0
-0.724779 0.270756 -0.036148 255 255 0
-0.709932 0.288063 -0.036238 255 255 0
-0.689373 0.357557 -0.149674 255 255 0
-0.657678 0.261956 -0.146670 255 255 0
-0.755704 0.252218 -0.107937 255 255 0
-0.725212 0.282914 -0.039753 255 255 0
-0.674373 0.309585 -0.148952 255 255 0
-0.724428 0.228905 -0.142952 255 255 0
-0.687608 0.284441 -0.100952 255 255 0
-0.742019 0.265207 -0.036146 255 255 0
-0.672762 0.220109 -0.164952 255 255 0
-0.683049 0.340474 -0.146952 255 255 0
-0.675997 0.323541 -0.142952 255 255 0
-0.769285 0.258780 -0.106952 255 255 0
-0.718806 0.291555 -0.036952 255 255 0
-0.751089 0.279690 -0.039753 255 255 0
-0.650110 0.320644 -0.154952 255 255 0
-0.655584 0.241635 -0.172952 255 255 0
-0.753989 0.268894 -0.042952 255 255 0
-0.755440 0.291050 -0.036533 255 255 0
-0.768125 0.212954 -0.146261 255 255 0
-0.667025 0.267775 -0.110952 255 255 0
-0.699064 0.204553 -0.150093 255 255 0
-0.777662 0.249791 -0.102455 255 255 0
-0.712723 0.301782 -0.036393 255 255 0
-0.702228 0.330450 -0.102580 255 255 0
-0.715311 0.254312 -0.067801 255 255 0
-0.764969 0.207472 -0.156216 255 255 0
-0.755275 0.284961 -0.064952 255 255 0
-0.755060 0.239023 -0.128952 255 255 0
-0.722757 0.295659 -0.024952 255 255 0
-0.781081 0.216441 -0.166703 255 255 0
-0.700950 0.259276 -0.100952 255 255 0
-0.771153 0.298058 -0.073912 255 255 0
-0.704384 0.270823 -0.036387 255 255 0
-0.763339 0.244542 -0.110952 255 255 0
-0.696513 0.322422 -0.090952 255 255 0
-0.791373 0.307154 -0.106952 255 255 0
-0.658267 0.234756 -0.160952 255 255 0
-0.695145 0.205351 -0.164972 255 255 0
-0.782710 0.234477 -0.151721 255 255 0
-0.737694 0.324206 -0.038952 255 255 0
-0.703517 0.226438 -0.104952 255 255 0
-0.701096 0.300065 -0.062952 255 255 0
-0.764434 0.219827 -0.162952 255 255 0
-0.772546 0.244709 -0.151878 255 255 0
-0.776866 0.284650 -0.094952 255 255 0
-0.761067 0.263373 -0.076952 255 255 0
-0.728597 0.299555 0.001048 255 255 0
-0.678918 0.225912 -0.152952 255 255 0
-0.670531 0.234850 -0.159921 255 255 0
-0.669618 0.320641 -0.144952 255 255 0
-0.675681 0.250130 -0.115651 255 255 0
-0.703636 0.267152 -0.044952 255 255 0
-0.748068 0.315000 -0.039840 255 255 0
-0.724117 0.307628 -0.039743 255 255 0
-0.678591 0.214274 -0.152952 255 255 0
-0.734281 0.232084 -0.148952 255 255 0
-0.745159 0.240513 -0.076952 255 255 0
-0.793235 0.291525 -0.106952 255 255 0
-0.759557 0.231024 -0.151921 255 255 0
-0.668741 0.286238 -0.102958 255 255 0
-0.686299 0.262190 -0.086952 255 255 0
-0.680852 0.285576 -0.084952 255 255 0
-0.697877 0.278270 -0.048952 255 255 0
-0.775073 0.297260 -0.102027 255 255 0
-0.700218 0.260381 -0.074952 255 255 0
-0.722457 0.199150 -0.146952 255 255 0
-0.755984 0.258283 -0.074952 255 255 0
-0.676844 0.245811 -0.106394 255 255 0
-0.701924 0.238668 -0.102643 255 255 0
-0.669854 0.298258 -0.142952 255 255 0
-0.753469 0.269000 -0.066952 255 255 0
-0.762142 0.243733 -0.144952 255 255 0
-0.647845 0.253752 -0.157046 255 255 0
-0.801363 0.245908 -0.158952 255 255 0
-0.677870 0.245603 -0.126952 255 255 0
-0.781701 0.229524 -0.162952 255 255 0
-0.663028 0.273113 -0.150952 255 255 0
-0.759085 0.228706 -0.140952 255 255 0
-0.668944 0.347426 -0.146641 255 255 0
-0.808287 0.255806 -0.152952 255 255 0
-0.764307 0.244345 -0.103762 255 255 0
-0.714520 0.370809 -0.146299 255 255 0
-0.668350 0.224125 -0.160952 255 255 0
-0.787163 0.276432 -0.107865 255 255 0
-0.673628 0.340351 -0.149776 255 255 0
-0.675138 0.267521 -0.108952 255 255 0
-0.726239 0.237803 -0.072468 255 255 0
-0.787000 0.315758 -0.102952 255 255 0
-0.710458 0.210399 -0.146411 255 255 0
-0.687711 0.329321 -0.105752 255 255 0
-0.751523 0.310216 -0.034952 255 255 0
-0.670802 0.316434 -0.105629 255 255 0
-0.684183 0.211662 -0.165613 255 255 0
-0.703781 0.207676 -0.173778 255 255 0
-0.692430 0.277337 -0.082952 255 255 0
-0.705049 0.244001 -0.070952 255 255 0
-0.677794 0.335421 -0.104952 255 255 0
-0.672891 0.236411 -0.146519 255 255 0
-0.773096 0.217323 -0.174952 255 255 0
-0.687919 0.219992 -0.160952 255 255 0
-0.687366 0.287498 -0.090952 255 255 0
-0.671863 0.281521 -0.137925 255 255 0
-0.706311 0.210077 -0.162952 255 255 0
-0.776134 0.262348 -0.107941 255 255 0
-0.687839 0.249697 -0.117968 255 255 0
-0.757468 0.311047 -0.068464 255 255 0
-0.640905 0.289861 -0.166835 255 255 0
-0.742452 0.277365 -0.039777 255 255 0
-0.674086 0.225963 -0.174952 255 255 0
-0.779324 0.278027 -0.107796 255 255 0
-0.685178 0.307386 -0.080952 255 255 0
-0.740958 0.234808 -0.118952 255 255 0
-0.731355 0.242885 -0.107814 255 255 0
-0.680552 0.259344 -0.134952 255 255 0
-0.698946 0.239274 -0.134952 255 255 0
-0.705033 0.294083 -0.052952 255 255 0
-0.692489 0.232423 -0.112806 255 255 0
-0.654228 0.260617 -0.160952 255 255 0
-0.786856 0.223430 -0.148952 255 255 0
-0.677407 0.323253 -0.120952 255 255 0
-0.696607 0.290774 -0.066952 255 255 0
-0.770423 0.314534 -0.068416 255 255 0
-0.690485 0.308348 -0.104952 255 255 0
-0.680068 0.271688 -0.102338 255 255 0
-0.666849 0.307033 -0.151875 255 255 0
-0.694669 0.243140 -0.148952 255 255 0
-0.697375 0.286536 -0.040382 255 255 0
-0.741089 0.240571 -0.068952 255 255 0
-0.766948 0.257328 -0.086952 255 255 0
-0.793451 0.237115 -0.160952 255 255 0
-0.666892 0.270286 -0.126952 255 255 0
-0.673492 0.299558 -0.105621 255 255 0
-0.745256 0.240992 -0.096952 255 255 0
-0.703715 0.203607 -0.156952 255 255 0
-0.655685 0.252158 -0.175891 255 255 0
-0.735019 0.287040 -0.000952 255 255 0
-0.706810 0.292780 -0.039900 255 255 0
-0.662267 0.344703 -0.146569 255 255 0
-0.786779 0.254479 -0.146952 255 255 0
-0.654258 0.295308 -0.149730 255 255 0
-0.642672 0.298548 -0.146952 255 255 0
-0.698195 0.240411 -0.118952 255 255 0
-0.731788 0.255043 -0.049288 255 255 0
-0.656679 0.257046 -0.166952 255 255 0
-0.711290 0.224517 -0.125202 255 255 0
-0.768260 0.253745 -0.102655 255 255 0
-0.710784 0.252125 -0.106952 255 255 0
-0.738697 0.268942 -0.070952 255 255 0
-0.654708 0.257387 -0.152952 255 255 0
-0.724764 0.210486 -0.166952 255 255 0
-0.697970 0.229267 -0.131590 255 255 0
-0.711247 0.314590 -0.066952 255 255 0
-0.715092 0.223140 -0.104952 255 255 0
-0.669107 0.278000 -0.147645 255 255 0
-0.781502 0.289829 -0.102952 255 255 0
-0.743406 0.258802 -0.066952 255 255 0
-0.763815 0.266895 -0.102952 255 255 0
-0.673176 0.283295 -0.144952 255 255 0
-0.719851 0.266597 -0.062952 255 255 0
-0.649441 0.301725 -0.146952 255 255 0
-0.772304 0.213430 -0.160952 255 255 0
-0.744148 0.315798 -0.034561 255 255 0
-0.731624 0.287732 -0.034952 255 255 0
-0.680202 0.312480 -0.107919 255 255 0
-0.784703 0.244277 -0.151911 255 255 0
-0.717994 0.325201 -0.066952 255 255 0
-0.672425 0.279366 -0.126952 255 255 0
-0.708735 0.232022 -0.110952 255 255 0
-0.681482 0.330589 -0.126952 255 255 0
-0.748298 0.225151 -0.136952 255 255 0
-0.689204 0.306567 -0.067812 255 255 0
-0.809341 0.255021 -0.174952 255 255 0
-0.778324 0.257821 -0.128952 255 255 0
-0.682960 0.316001 -0.102665 255 255 0
-0.686367 0.315308 -0.068952 255 255 0
-0.677654 0.315040 -0.116952 255 255 0
-0.694306 0.231327 -0.144952 255 255 0
-0.689979 0.275794 -0.088952 255 255 0
-0.725721 0.285415 -0.016952 255 255 0
-0.673377 0.319053 -0.136952 255 255 0
-0.770093 0.262756 -0.100952 255 255 0
-0.694983 0.274776 -0.071618 255 255 0
-0.692691 0.293612 -0.071790 255 255 0
-0.669437 0.259564 -0.105860 255 255 0
-0.671326 0.298943 -0.130952 255 255 0
-0.759054 0.288747 -0.050952 255 255 0
-0.758818 0.247460 -0.078952 255 255 0
-0.737068 0.250905 -0.074952 255 255 0
-0.702038 0.269329 -0.058952 255 255 0
-0.740974 0.199875 -0.162952 255 255 0
-0.707777 0.302788 -0.054952 255 255 0
-0.787630 0.298788 -0.107931 255 255 0
-0.732027 0.246188 -0.068952 255 255 0
-0.665697 0.297063 -0.104952 255 255 0
-0.695347 0.266539 -0.100016 255 255 0
-0.768125 0.273143 -0.078952 255 255 0
-0.747926 0.213989 -0.152952 255 255 0
-0.683237 0.350642 -0.146952 255 255 0
-0.775542 0.269471 -0.102952 255 255 0
-0.650494 0.249131 -0.148952 255 255 0
-0.653561 0.334228 -0.148952 255 255 0
-0.721590 0.255076 -0.071881 255 255 0
-0.700855 0.213355 -0.158952 255 255 0
-0.765341 0.221684 -0.146952 255 255 0
-0.710449 0.260510 -0.054952 255 255 0
-0.733920 0.255492 -0.056952 255 255 0
-0.664788 0.276838 -0.131950 255 255 0
-0.680364 0.243055 -0.141910 255 255 0
-0.749609 0.202195 -0.166952 255 255 0
-0.714717 0.311581 -0.039851 255 255 0
-0.719961 0.237039 -0.107929 255 255 0
-0.667273 0.309118 -0.128952 255 255 0
-0.777157 0.245812 -0.124952 255 255 0
-0.686070 0.251036 -0.106952 255 255 0
-0.703430 0.306264 -0.036952 255 255 0
-0.667691 0.311175 -0.114952 255 255 0
-0.700396 0.251225 -0.105664 255 255 0
-0.743911 0.244412 -0.105612 255 255 0
-0.696797 0.253599 -0.068952 255 255 0
-0.792543 0.242682 -0.147531 255 255 0
-0.676378 0.223456 -0.146058 255 255 0
-0.770467 0.234490 -0.124952 255 255 0
-0.807108 0.251965 -0.166952 255 255 0
-0.721618 0.255213 -0.056952 255 255 0
-0.691149 0.255932 -0.098952 255 255 0
-0.691600 0.207992 -0.154952 255 255 0
-0.655955 0.333741 -0.171367 255 255 0
-0.716440 0.239796 -0.088556 255 255 0
-0.662692 0.236445 -0.175672 255 255 0
-0.700129 0.355369 -0.148952 255 255 0
-0.695380 0.242040 -0.108952 255 255 0
-0.685537 0.238382 -0.116952 255 255 0
-0.658679 0.327064 -0.151865 255 255 0
-0.690138 0.351279 -0.144981 255 255 0
-0.763026 0.273179 -0.038952 255 255 0
-0.703569 0.226696 -0.112952 255 255 0
-0.643105 0.300678 -0.170952 255 255 0
-0.764842 0.287096 -0.068187 255 255 0
-0.740755 0.238931 -0.102094 255 255 0
-0.775891 0.281217 -0.084952 255 255 0
-0.760527 0.205700 -0.162952 255 255 0
-0.750257 0.265572 -0.073945 255 255 0
-0.759177 0.299382 -0.058952 255 255 0
-0.732239 0.320262 -0.036952 255 255 0
-0.734248 0.287198 0.009753 255 255 0
-0.652821 0.278209 -0.150952 255 255 0
-0.751725 0.242691 -0.098952 255 255 0
-0.643201 0.281085 -0.146952 255 255 0
-0.699038 0.314771 -0.071898 255 255 0
-0.649142 0.290226 -0.158104 255 255 0
-0.713554 0.315900 -0.050065 255 255 0
-0.701829 0.328490 -0.074219 255 255 0
-0.689400 0.247339 -0.102200 255 255 0
-0.659875 0.232628 -0.154952 255 255 0
-0.752217 0.265173 -0.054049 255 255 0
-0.766483 0.234974 -0.110952 255 255 0
-0.703325 0.255590 -0.086952 255 255 0
-0.693059 0.315483 -0.088952 255 255 0
-0.775763 0.274669 -0.084952 255 255 0
-0.664862 0.301314 -0.132952 255 255 0
-0.706275 0.250028 -0.068196 255 255 0
-0.710587 0.241125 -0.082952 255 255 0
-0.767065 0.302972 -0.072952 255 255 0
-0.718298 0.208804 -0.149759 255 255 0
-0.725722 0.265359 -0.050952 255 255 0
-0.647691 0.263027 -0.174952 255 255 0
-0.771063 0.237424 -0.104952 255 255 0
-0.749358 0.231058 -0.102848 255 255 0
-0.756603 0.286731 -0.071853 255 255 0
-0.727469 0.253880 -0.073948 255 255 0
-0.671698 0.290742 -0.108952 255 255 0
-0.688705 0.274013 -0.068237 255 255 0
-0.735342 0.262484 -0.036732 255 255 0
-0.709280 0.274829 -0.042952 255 255 0
-0.694219 0.281055 -0.068213 255 255 0
-0.652765 0.318062 -0.146940 255 255 0
-0.780385 0.243115 -0.147109 255 255 0
-0.734393 0.237757 -0.080952 255 255 0
-0.665514 0.272608 -0.106952 255 255 0
-0.662610 0.326328 -0.146952 255 255 0
-0.721224 0.263315 -0.035885 255 255 0
-0.669437 0.259564 -0.149864 255 255 0
-0.718231 0.238566 -0.074952 255 255 0
-0.688832 0.234510 -0.134952 255 255 0
-0.661530 0.240763 -0.147118 255 255 0
-0.686711 0.264214 -0.105577 255 255 0
-0.752285 0.285569 -0.036283 255 255 0
-0.752866 0.226263 -0.116952 255 255 0
-0.682970 0.271098 -0.074952 255 255 0
-0.734679 0.299356 -0.035938 255 255 0
-0.753913 0.303606 -0.039717 255 255 0
-0.692853 0.224186 -0.146243 255 255 0
-0.770803 0.251187 -0.150952 255 255 0
-0.729963 0.296233 -0.039930 255 255 0
-0.672446 0.289567 -0.128952 255 255 0
-0.770838 0.251180 -0.138952 255 255 0
-0.649546 0.277898 -0.158952 255 255 0
-0.686541 0.213223 -0.146466 255 255 0
-0.741417 0.202059 -0.175743 255 255 0
-0.684250 0.232059 -0.149700 255 255 0
-0.737387 0.232406 -0.124952 255 255 0
-0.741756 0.304039 -0.036178 255 255 0
-0.703721 0.307696 -0.071708 255 255 0
-0.786054 0.235838 -0.164952 255 255 0
-0.764112 0.217852 -0.168952 255 255 0
-0.682494 0.293646 -0.105799 255 255 0
-0.704772 0.202513 -0.168952 255 255 0
-0.651170 0.310223 -0.173935 255 255 0
-0.691146 0.245886 -0.124952 255 255 0
-0.726171 0.217407 -0.151787 255 255 0
-0.688916 0.300502 -0.080952 255 255 0
-0.710229 0.259429 -0.073916 255 255 0
-0.752238 0.215119 -0.160952 255 255 0
-0.727799 0.295632 -0.016952 255 255 0
-0.748162 0.225179 -0.151808 255 255 0
-0.644701 0.311540 -0.164952 255 255 0
-0.776898 0.256069 -0.151951 255 255 0
-0.701705 0.237593 -0.128952 255 255 0
-0.710785 0.252128 -0.090952 255 255 0
-0.783609 0.268991 -0.102639 255 255 0
-0.712495 0.200342 -0.158952 255 255 0
-0.714558 0.210488 -0.174952 255 255 0
-0.722218 0.238105 -0.082952 255 255 0
-0.692557 0.252820 -0.089995 255 255 0
-0.720188 0.248189 -0.098952 255 255 0
-0.724148 0.232105 -0.128952 255 255 0
-0.675681 0.250130 -0.149574 255 255 0
-0.748794 0.238313 -0.128952 255 255 0
-0.688784 0.280120 -0.074952 255 255 0
-0.661655 0.246861 -0.170952 255 255 0
-0.647822 0.319069 -0.166952 255 255 0
-0.646818 0.298863 -0.175830 255 255 0
-0.687874 0.259895 -0.076115 255 255 0
-0.775662 0.244076 -0.134952 255 255 0
-0.646586 0.315237 -0.154952 255 255 0
-0.762280 0.224347 -0.151751 255 255 0
-0.644550 0.267654 -0.146952 255 255 0
-0.759841 0.298319 -0.068952 255 255 0
-0.675749 0.270526 -0.147970 255 255 0
-0.789157 0.286230 -0.103924 255 255 0
-0.667579 0.290557 -0.149948 255 255 0
-0.671931 0.301918 -0.147942 255 255 0
-0.703187 0.264944 -0.071848 255 255 0
-0.749594 0.208560 -0.174952 255 255 0
-0.785169 0.266632 -0.132065 255 255 0
-0.736827 0.256059 -0.042952 255 255 0
-0.703769 0.226046 -0.124952 255 255 0
-0.649853 0.324778 -0.160952 255 255 0
-0.756004 0.258280 -0.102952 255 255 0
-0.744256 0.270874 -0.046952 255 255 0
-0.687117 0.336432 -0.124952 255 255 0
-0.681987 0.297831 -0.086952 255 255 0
-0.694290 0.266753 -0.092952 255 255 0
-0.763807 0.211791 -0.173499 255 255 0
-0.689291 0.335123 -0.118952 255 255 0
-0.680748 0.298083 -0.098952 255 255 0
-0.665634 0.240873 -0.158952 255 255 0
-0.656440 0.306034 -0.150952 255 255 0
-0.690586 0.316491 -0.098952 255 255 0
-0.644685 0.288381 -0.172952 255 255 0
-0.756487 0.290837 -0.060952 255 255 0
-0.726141 0.290889 -0.008952 255 255 0
-0.700565 0.302214 -0.069088 255 255 0
-0.662274 0.284550 -0.150952 255 255 0
-0.779346 0.227975 -0.172952 255 255 0
-0.642109 0.275329 -0.164952 255 255 0
-0.752143 0.279474 -0.064952 255 255 0
-0.686709 0.300952 -0.100952 255 255 0
-0.731091 0.281717 -0.036371 255 255 0
-0.754995 0.282977 -0.052952 255 255 0
-0.651809 0.313364 -0.160952 255 255 0
-0.741850 0.214217 -0.151745 255 255 0
-0.645064 0.311466 -0.148952 255 255 0
-0.669452 0.309793 -0.144952 255 255 0
-0.706108 0.284759 -0.046952 255 255 0
-0.768814 0.220977 -0.152952 255 255 0
-0.720258 0.208405 -0.162050 255 255 0
-0.673281 0.303684 -0.126952 255 255 0
-0.644725 0.262551 -0.152952 255 255 0
-0.758634 0.241417 -0.118952 255 255 0
-0.698040 0.279771 -0.042952 255 255 0
-0.675019 0.287002 -0.102759 255 255 0
-0.724079 0.346414 -0.102952 255 255 0
-0.715512 0.274682 -0.036952 255 255 0
-0.749472 0.221584 -0.146952 255 255 0
-0.720642 0.200259 -0.164952 255 255 0
-0.781203 0.218456 -0.154952 255 255 0
-0.734697 0.249282 -0.102952 255 255 0
-0.652994 0.269032 -0.169937 255 255 0
-0.758637 0.241417 -0.134952 255 255 0
-0.712655 0.281386 -0.039828 255 255 0
-0.765689 0.246104 -0.124952 255 255 0
-0.711121 0.233716 -0.132952 255 255 0
-0.695897 0.264385 -0.072952 255 255 0
-0.671706 0.295840 -0.118952 255 255 0
-0.785040 0.221758 -0.166952 255 255 0
-0.685281 0.252258 -0.140952 255 255 0
-0.705113 0.254347 -0.075884 255 255 0
-0.706866 0.252932 -0.098952 255 255 0
-0.768495 0.208797 -0.168952 255 255 0
-0.649974 0.304343 -0.167924 255 255 0
-0.768328 0.274142 -0.067962 255 255 0
-0.663879 0.297432 -0.116952 255 255 0
-0.805250 0.254980 -0.146952 255 255 0
-0.715027 0.222823 -0.142952 255 255 0
-0.775860 0.225666 -0.160952 255 255 0
-0.745699 0.253198 -0.092952 255 255 0
-0.704429 0.236117 -0.116952 255 255 0
-0.660166 0.339007 -0.164952 255 255 0
-0.797659 0.247764 -0.149504 255 255 0
-0.710000 0.273762 -0.064952 255 255 0
-0.732315 0.232485 -0.134952 255 255 0
-0.740519 0.232856 -0.150952 255 255 0
-0.661165 0.249002 -0.157938 255 255 0
-0.782234 0.267230 -0.150952 255 255 0
-0.778057 0.255834 -0.138952 255 255 0
-0.771884 0.281582 -0.073945 255 255 0
-0.788455 0.237391 -0.152952 255 255 0
-0.704154 0.319853 -0.069347 255 255 0
-0.673619 0.280121 -0.120952 255 255 0
-0.778999 0.236299 -0.146952 255 255 0
-0.775650 0.284897 -0.100952 255 255 0
-0.733667 0.294379 0.007048 255 255 0
-0.766589 0.235499 -0.132952 255 255 0
-0.664049 0.279029 -0.108952 255 255 0
-0.662871 0.337638 -0.152952 255 255 0
-0.696565 0.342744 -0.104952 255 255 0
-0.668756 0.236157 -0.170952 255 255 0
-0.680977 0.261299 -0.146952 255 255 0
-0.757961 0.223185 -0.146162 255 255 0
-0.657533 0.327297 -0.164952 255 255 0
-0.701024 0.204154 -0.163730 255 255 0
-0.669956 0.247213 -0.148952 255 255 0
-0.677767 0.320571 -0.108952 255 255 0
-0.656078 0.237790 -0.148952 255 255 0
-0.681186 0.291871 -0.088952 255 255 0
-0.727598 0.234452 -0.120952 255 255 0
-0.674553 0.264647 -0.103288 255 255 0
-0.764621 0.252444 -0.068952 255 255 0
-0.704947 0.307446 -0.064952 255 255 0
-0.648005 0.253719 -0.170952 255 255 0
-0.736174 0.211290 -0.172952 255 255 0
-0.733979 0.291334 -0.020952 255 255 0
-0.794118 0.230362 -0.160952 255 255 0
-0.726442 0.298991 -0.035709 255 255 0
-0.733977 0.205614 -0.175687 255 255 0
-0.671464 0.279561 -0.103323 255 255 0
-0.680659 0.296060 -0.068952 255 255 0
-0.665415 0.229768 -0.171278 255 255 0
-0.717237 0.243717 -0.068481 255 255 0
-0.717885 0.231339 -0.114952 255 255 0
-0.691791 0.319276 -0.070952 255 255 0
-0.678608 0.304641 -0.102138 255 255 0
-0.716435 0.199647 -0.172952 255 255 0
-0.733080 0.287435 -0.010952 255 255 0
-0.682077 0.241438 -0.108952 255 255 0
-0.748380 0.236282 -0.118952 255 255 0
-0.712451 0.260316 -0.040952 255 255 0
-0.727637 0.254704 -0.060952 255 255 0
-0.772877 0.226273 -0.146013 255 255 0
-0.812861 0.267122 -0.150952 255 255 0
-0.722712 0.367102 -0.146952 255 255 0
-0.730057 0.266604 -0.062952 255 255 0
-0.653961 0.323942 -0.146338 255 255 0
-0.668718 0.308694 -0.102952 255 255 0
-0.762949 0.307890 -0.068700 255 255 0
-0.681883 0.326425 -0.146952 255 255 0
-0.774754 0.272834 -0.096952 255 255 0
-0.738590 0.239371 -0.088952 255 255 0
-0.789989 0.300349 -0.102549 255 255 0
-0.768091 0.247656 -0.112952 255 255 0
-0.726716 0.210055 -0.172952 255 255 0
-0.768125 0.259895 -0.074952 255 255 0
-0.658908 0.278034 -0.151877 255 255 0
-0.758268 0.204630 -0.150952 255 255 0
-0.675141 0.272691 -0.128952 255 255 0
-0.798023 0.239526 -0.149918 255 255 0
-0.669903 0.221729 -0.152952 255 255 0
-0.774488 0.270847 -0.076952 255 255 0
-0.664639 0.276868 -0.118952 255 255 0
-0.757265 0.249859 -0.068353 255 255 0
-0.704018 0.279061 -0.036427 255 255 0
-0.782778 0.254874 -0.151755 255 255 0
-0.696955 0.290703 -0.044952 255 255 0
-0.649581 0.298301 -0.162952 255 255 0
-0.673210 0.303698 -0.112952 255 255 0
-0.749383 0.275954 -0.068952 255 255 0
-0.723380 0.203688 -0.175814 255 255 0
-0.728963 0.231126 -0.151858 255 255 0
-0.756468 0.245940 -0.107863 255 255 0
-0.715973 0.257565 -0.052952 255 255 0
-0.720259 0.268600 -0.056952 255 255 0
-0.744065 0.235135 -0.130952 255 255 0
-0.691114 0.271482 -0.102952 255 255 0
-0.753278 0.230260 -0.151869 255 255 0
-0.739127 0.220894 -0.151917 255 255 0
-0.649108 0.280028 -0.171945 255 255 0
-0.693407 0.216874 -0.170952 255 255 0
-0.678547 0.229137 -0.164952 255 255 0
-0.692935 0.309890 -0.098952 255 255 0
-0.654699 0.242153 -0.158952 255 255 0
-0.682460 0.283447 -0.068289 255 255 0
-0.774737 0.255478 -0.110952 255 255 0
-0.758510 0.215847 -0.158952 255 255 0
-0.693981 0.269857 -0.080952 255 255 0
-0.642441 0.283425 -0.162952 255 255 0
-0.786695 0.262240 -0.136952 255 255 0
-0.735604 0.337946 -0.070952 255 255 0
-0.751352 0.240857 -0.107800 255 255 0
-0.773877 0.291381 -0.067915 255 255 0
-0.706867 0.252935 -0.082952 255 255 0
-0.714352 0.319819 -0.038014 255 255 0
-0.758045 0.282356 -0.042952 255 255 0
-0.693984 0.269865 -0.074952 255 255 0
-0.744607 0.217738 -0.146297 255 255 0
-0.761056 0.328686 -0.070030 255 255 0
-0.684765 0.329920 -0.136952 255 255 0
-0.785589 0.258663 -0.126952 255 255 0
-0.737792 0.234398 -0.112952 255 255 0
-0.782913 0.295665 -0.105779 255 255 0
-0.780817 0.255273 -0.102575 255 255 0
-0.673831 0.231003 -0.150952 255 255 0
-0.719163 0.233120 -0.103555 255 255 0
-0.666714 0.266241 -0.139326 255 255 0
-0.709625 0.241183 -0.106952 255 255 0
-0.720513 0.229721 -0.132952 255 255 0
-0.672279 0.254904 -0.114952 255 255 0
-0.798313 0.233344 -0.146952 255 255 0
-0.683684 0.254624 -0.128952 255 255 0
-0.681520 0.273434 -0.090952 255 255 0
-0.744675 0.238134 -0.107903 255 255 0
-0.677378 0.288563 -0.107923 255 255 0
-0.782431 0.252903 -0.142952 255 255 0
-0.752374 0.255911 -0.084952 255 255 0
-0.756570 0.276534 -0.036311 255 255 0
-0.776432 0.233714 -0.151911 255 255 0
-0.895816 0.068134 -0.034952 255 255 0
-0.861198 0.128707 -0.165951 255 255 0
-0.862507 0.135141 -0.078952 255 255 0
-0.904943 0.072864 -0.117878 255 255 0
-0.915135 0.132989 -0.034952 255 255 0
-0.845344 0.090909 -0.118952 255 255 0
-0.845243 0.100445 -0.032952 255 255 0
-0.871653 0.069432 -0.164952 255 255 0
-0.861792 0.071438 -0.074052 255 255 0
-0.869267 0.138268 -0.032952 255 255 0
-0.900819 0.072657 -0.078952 255 255 0
-0.843875 0.095493 -0.156952 255 255 0
-0.922841 0.095755 -0.038952 255 255 0
-0.843591 0.102356 -0.082952 255 255 0
-0.871075 0.066905 -0.128952 255 255 0
-0.861938 0.071408 -0.034952 255 255 0
-0.853122 0.119105 -0.134952 255 255 0
-0.903951 0.073066 -0.158952 255 255 0
-0.878667 0.074128 -0.099964 255 255 0
-0.848072 0.119131 -0.056952 255 255 0
-0.855076 0.118684 -0.104952 255 255 0
-0.856928 0.092837 -0.056952 255 255 0
-0.883177 0.066200 -0.058952 255 255 0
-0.852095 0.079534 -0.096952 255 255 0
-0.892819 0.143688 -0.040952 255 255 0
-0.860067 0.088117 -0.138952 255 255 0
-0.851817 0.122724 -0.030952 255 255 0
-0.891589 0.067417 -0.140136 255 255 0
-0.863879 0.136324 -0.054952 255 255 0
-0.921953 0.116345 -0.047912 255 255 0
-0.862435 0.089676 -0.166952 255 255 0
-0.880992 0.065490 -0.080732 255 255 0
-0.846933 0.117322 -0.154952 255 255 0
-0.863978 0.082182 -0.114952 255 255 0
-0.849481 0.121277 -0.084952 255 255 0
-0.855011 0.098294 -0.102952 255 255 0
-0.863466 0.069636 -0.146952 255 255 0
-0.908897 0.082269 -0.030952 255 255 0
-0.843458 0.101700 -0.135214 255 255 0
-0.863752 0.071039 -0.054448 255 255 0
-0.858499 0.090477 -0.076952 255 255 0
-0.901539 0.071515 -0.056952 255 255 0
-0.887000 0.066310 -0.116952 255 255 0
-0.898664 0.072100 -0.099977 255 255 0
-0.915114 0.111614 -0.030952 255 255 0
-0.845247 0.110494 -0.118952 255 255 0
-0.849260 0.084193 -0.040952 255 255 0
-0.856812 0.107148 -0.167951 255 255 0
-0.859637 0.131065 -0.148001 255 255 0
-0.878447 0.073047 -0.042952 255 255 0
-0.908209 0.074241 -0.140952 255 255 0
-0.844748 0.103479 -0.064952 255 255 0
-0.851196 0.079541 -0.156952 255 255 0
-0.887153 0.065675 -0.156952 255 255 0
-0.865314 0.068681 -0.090897 255 255 0
-0.853342 0.105813 -0.046952 255 255 0
-0.860586 0.130872 -0.094952 255 255 0
-0.856461 0.075327 -0.128952 255 255 0
-0.902211 0.130567 -0.044952 255 255 0
-0.855463 0.115586 -0.070952 255 255 0
-0.871151 0.067281 -0.112952 255 255 0
-0.854619 0.101471 -0.146952 255 255 0
-0.845125 0.109526 -0.096952 255 255 0
-0.853052 0.078638 -0.062952 255 255 0
-0.855032 0.128498 -0.044952 255 255 0
-0.910059 0.077946 -0.067965 255 255 0
-0.878460 0.073106 -0.146952 255 255 0
-0.875693 0.074733 -0.068952 255 255 0
-0.858908 0.092434 -0.032952 255 255 0
-0.907119 0.073531 -0.042952 255 255 0
-0.846675 0.087420 -0.144952 255 255 0
-0.863972 0.082151 -0.044952 255 255 0
-0.855015 0.098315 -0.126952 255 255 0
-0.846722 0.088791 -0.086952 255 255 0
-0.856600 0.129641 -0.066952 255 255 0
-0.865529 0.079768 -0.156952 255 255 0
-0.863169 0.083404 -0.088952 255 255 0
-0.889482 0.071928 -0.070952 255 255 0
-0.883376 0.137401 -0.032952 255 255 0
-0.881253 0.066775 -0.030952 255 255 0
-0.910504 0.120260 -0.040952 255 255 0
-0.887236 0.066084 -0.092952 255 255 0
-0.846407 0.088855 -0.068952 255 255 0
-0.890621 0.072690 -0.048952 255 255 0
-0.845977 0.115475 -0.040952 255 255 0
-0.884347 0.071952 -0.128952 255 255 0
-0.899267 0.135248 -0.032585 255 255 0
-0.848506 0.086387 -0.131280 255 255 0
-0.843239 0.101746 -0.108952 255 255 0
-0.872985 0.076295 -0.082952 255 255 0
-0.884547 0.072931 -0.167927 255 255 0
-0.859925 0.072293 -0.106952 255 255 0
-0.853076 0.078753 -0.080952 255 255 0
-0.845055 0.097294 -0.052952 255 255 0
-0.850808 0.081837 -0.110952 255 255 0
-0.897784 0.072279 -0.128952 255 255 0
-0.868250 0.078288 -0.134952 255 255 0
-0.857541 0.090672 -0.153950 255 255 0
-0.915259 0.105462 -0.044952 255 255 0
-0.845554 0.112006 -0.142952 255 255 0
-0.855027 0.103428 -0.076952 255 255 0
-0.864184 0.083197 -0.067957 255 255 0
-0.926437 0.108289 -0.038952 255 255 0
-0.922122 0.122434 -0.034952 255 255 0
-0.853849 0.102617 -0.090952 255 255 0
-0.918260 0.128290 -0.048952 255 255 0
-0.865943 0.081808 -0.100952 255 255 0
-0.854626 0.101470 -0.114952 255 255 0
-0.853084 0.118922 -0.166952 255 255 0
-0.854750 0.076953 -0.141076 255 255 0
-0.874947 0.075905 -0.054952 255 255 0
-0.846078 0.090963 -0.098952 255 255 0
-0.872982 0.076281 -0.120952 255 255 0
-0.855464 0.115585 -0.122952 255 255 0
-0.856210 0.119516 -0.146952 255 255 0
-0.860863 0.086933 -0.126952 255 255 0
-0.858134 0.093584 -0.044952 255 255 0
-0.845861 0.107335 -0.162952 255 255 0
-0.853711 0.079205 -0.050952 255 255 0
-0.887969 0.066112 -0.104952 255 255 0
-0.896899 0.073454 -0.148952 255 255 0
-0.853505 0.110956 -0.032952 255 255 0
-0.861703 0.070999 -0.118952 255 255 0
-0.852460 0.095788 -0.165698 255 255 0
-0.904943 0.072864 -0.089950 255 255 0
-0.854246 0.109711 -0.060952 255 255 0
-0.859637 0.131065 -0.033129 255 255 0
-0.845792 0.113174 -0.076952 255 255 0
-0.855452 0.115588 -0.092952 255 255 0
-0.915138 0.092878 -0.030952 255 255 0
-0.852674 0.126933 -0.156952 255 255 0
-0.855811 0.117557 -0.048952 255 255 0
-0.869665 0.080041 -0.167938 255 255 0
-0.880560 0.065579 -0.138952 255 255 0
-0.851709 0.108186 -0.130952 255 255 0
-0.896423 0.071113 -0.110952 255 255 0
-0.874950 0.065889 -0.154952 255 255 0
-0.891660 0.067764 -0.082952 255 255 0
-0.863122 0.083414 -0.056952 255 255 0
-0.867319 0.068510 -0.064952 255 255 0
-0.857941 0.092631 -0.093958 255 255 0
-0.843124 0.100060 -0.146952 255 255 0
-0.847158 0.089792 -0.030952 255 255 0
-0.850202 0.124821 -0.074492 255 255 0
-0.880415 0.072691 -0.110952 255 255 0
-0.853697 0.097577 -0.066952 255 255 0
-0.844616 0.109629 -0.052952 255 255 0
-0.858656 0.126244 -0.054952 255 255 0
-0.845850 0.113460 -0.107209 255 255 0
-0.869342 0.068420 -0.100952 255 255 0
-0.872787 0.075323 -0.034002 255 255 0
-0.859290 0.089231 -0.106952 255 255 0
-0.911616 0.135761 -0.044952 255 255 0
-0.848423 0.086404 -0.056952 255 255 0
-0.859069 0.078115 -0.165251 255 255 0
-0.876086 0.066489 -0.092952 255 255 0
-0.871182 0.067427 -0.076952 255 255 0
-0.869233 0.067883 -0.041916 255 255 0
-0.882952 0.065092 -0.048263 255 255 0
-0.851628 0.081670 -0.121487 255 255 0
-0.854225 0.109715 -0.156952 255 255 0
-0.853918 0.079163 -0.032952 255 255 0
-0.858649 0.126210 -0.082952 255 255 0
-0.844312 0.099486 -0.124952 255 255 0
-0.865938 0.081786 -0.144952 255 255 0
-0.844496 0.093326 -0.042952 255 255 0
-0.854635 0.111673 -0.112952 255 255 0
-0.857730 0.091594 -0.116952 255 255 0
-0.843785 0.099593 -0.092952 255 255 0
-0.905804 0.127252 -0.034952 255 255 0
-0.860005 0.072682 -0.044952 255 255 0
-0.865260 0.068418 -0.156952 255 255 0
-0.881110 0.066069 -0.068952 255 255 0
-0.894346 0.070939 -0.161933 255 255 0
-0.844218 0.103587 -0.042952 255 255 0
-0.865163 0.082998 -0.078952 255 255 0
-0.854571 0.101481 -0.036952 255 255 0
-0.871018 0.076655 -0.108952 255 255 0
-0.845263 0.111539 -0.086952 255 255 0
-0.846249 0.115420 -0.066742 255 255 0
-0.853671 0.097583 -0.136952 255 255 0
-0.863133 0.083411 -0.034952 255 255 0
-0.851743 0.085728 -0.164952 255 255 0
-0.846973 0.119355 -0.098952 255 255 0
-0.870691 0.067587 -0.138952 255 255 0
-0.871018 0.076659 -0.092952 255 255 0
-0.877139 0.066615 -0.120952 255 255 0
-0.891408 0.071536 -0.060952 255 255 0
-0.915574 0.084988 -0.037878 255 255 0
-0.919162 0.102626 -0.032327 255 255 0
-0.887505 0.072330 -0.038952 255 255 0
-0.902622 0.071486 -0.066952 255 255 0
-0.854210 0.109718 -0.100952 255 255 0
-0.873505 0.067014 -0.050952 255 255 0
-0.861703 0.071000 -0.136952 255 255 0
-0.847360 0.090785 -0.108952 255 255 0
-0.845330 0.107443 -0.152952 255 255 0
-0.855060 0.113627 -0.082952 255 255 0
-0.856193 0.119519 -0.038952 255 255 0
-0.854184 0.099518 -0.156952 255 255 0
-0.902400 0.075422 -0.032952 255 255 0
-0.855292 0.095211 -0.084952 255 255 0
-0.880425 0.072732 -0.158952 255 255 0
-0.845206 0.097263 -0.074952 255 255 0
-0.852345 0.126425 -0.092952 255 255 0
-0.858271 0.074195 -0.087860 255 255 0
-0.894536 0.071869 -0.090952 255 255 0
-0.856311 0.074594 -0.150569 255 255 0
-0.844438 0.109665 -0.030952 255 255 0
-0.882369 0.072259 -0.086952 255 255 0
-0.854616 0.111676 -0.140952 255 255 0
-0.869267 0.078081 -0.061959 255 255 0
-0.883987 0.140397 -0.041706 255 255 0
-0.902195 0.139613 -0.042952 255 255 0
-0.864354 0.134187 -0.063936 255 255 0
-0.876708 0.074526 -0.137967 255 255 0
-0.885134 0.065782 -0.146952 255 255 0
-0.890663 0.143121 -0.032034 255 255 0
-0.856653 0.121467 -0.062952 255 255 0
-0.900310 0.069725 -0.138952 255 255 0
-0.878938 0.065426 -0.104952 255 255 0
-0.895034 0.134513 -0.040952 255 255 0
-0.891541 0.067181 -0.124952 255 255 0
-0.912951 0.122259 -0.032531 255 255 0
-0.915206 0.093226 -0.042952 255 255 0
-0.871005 0.076593 -0.046952 255 255 0
-0.852576 0.101887 -0.056952 255 255 0
-0.859938 0.072352 -0.096952 255 255 0
-0.846124 0.092994 -0.136952 255 255 0
-0.849036 0.086279 -0.076952 255 255 0
-0.923515 0.113987 -0.032066 255 255 0
-0.865530 0.079775 -0.124952 255 255 0
-0.871018 0.076652 -0.150952 255 255 0
-0.845990 0.094082 -0.060952 255 255 0
-0.923082 0.101829 -0.045825 255 255 0
-0.860007 0.072694 -0.062952 255 255 0
-0.864354 0.134187 -0.087904 255 255 0
-0.899636 0.071903 -0.046952 255 255 0
-0.878453 0.073075 -0.076952 255 255 0
-0.882587 0.073330 -0.051948 255 255 0
-0.875718 0.074728 -0.128952 255 255 0
-0.852702 0.107008 -0.068952 255 255 0
-0.880992 0.065490 -0.039435 255 255 0
-0.875113 0.066687 -0.061808 255 255 0
-0.858495 0.090478 -0.066952 255 255 0
-0.883022 0.145690 -0.034952 255 255 0
-0.844255 0.105621 -0.073309 255 255 0
-0.855368 0.076827 -0.070952 255 255 0
-0.855980 0.093030 -0.145927 255 255 0
-0.880627 0.073729 -0.061960 255 255 0
-0.855077 0.118686 -0.156952 255 255 0
-0.889501 0.071924 -0.098952 255 255 0
-0.907672 0.136441 -0.036952 255 255 0
-0.845850 0.113460 -0.127988 255 255 0
-0.850951 0.081808 -0.088952 255 255 0
-0.852700 0.107005 -0.120952 255 255 0
-0.862553 0.130471 -0.040952 255 255 0
-0.869465 0.079058 -0.072952 255 255 0
-0.915520 0.113572 -0.040952 255 255 0
-0.849583 0.121773 -0.044952 255 255 0
-0.873011 0.066390 -0.084952 255 255 0
-0.847669 0.088599 -0.048952 255 255 0
-0.846797 0.088020 -0.154952 255 255 0
-0.852195 0.110128 -0.148952 255 255 0
-0.859056 0.128206 -0.074952 255 255 0
-0.863728 0.070919 -0.126952 255 255 0
-0.873049 0.066575 -0.146952 255 255 0
-0.873153 0.067086 -0.033810 255 255 0
-0.860059 0.088118 -0.050952 255 255 0
-0.863632 0.070447 -0.082952 255 255 0
-0.851524 0.081153 -0.148952 255 255 0
-0.894520 0.071792 -0.118952 255 255 0
-0.860664 0.085955 -0.159944 255 255 0
-0.876900 0.075473 -0.166952 255 255 0
-0.921385 0.123581 -0.042952 255 255 0
-0.909829 0.126976 -0.045452 255 255 0
-0.849306 0.120921 -0.142952 255 255 0
-0.844319 0.101526 -0.116952 255 255 0
-0.849869 0.083060 -0.138952 255 255 0
-0.849393 0.084166 -0.102952 255 255 0
-0.844519 0.099444 -0.100952 255 255 0
-0.879033 0.065890 -0.129381 255 255 0
-0.844407 0.109672 -0.134952 255 255 0
-0.852304 0.126433 -0.148952 255 255 0
-0.854551 0.076994 -0.040952 255 255 0
-0.876861 0.139806 -0.036952 255 255 0
-0.869253 0.067983 -0.120952 255 255 0
-0.861114 0.083822 -0.150952 255 255 0
-0.859609 0.086169 -0.098952 255 255 0
-0.846285 0.117454 -0.032952 255 255 0
-0.856994 0.123439 -0.098952 255 255 0
-0.853886 0.112831 -0.042952 255 255 0
-0.925630 0.109474 -0.046952 255 255 0
-0.853480 0.110835 -0.052952 255 255 0
-0.889499 0.071924 -0.150952 255 255 0
-0.855684 0.076763 -0.116952 255 255 0
-0.887741 0.066159 -0.132952 255 255 0
-0.871782 0.075529 -0.158952 255 255 0
-0.860205 0.128908 -0.156952 255 255 0
-0.882385 0.072338 -0.120952 255 255 0
-0.888246 0.071050 -0.110952 255 255 0
-0.858186 0.073779 -0.158952 255 255 0
-0.914114 0.117940 -0.047316 255 255 0
-0.895816 0.068133 -0.154952 255 255 0
-0.884345 0.071937 -0.140952 255 255 0
-0.848128 0.114623 -0.162952 255 255 0
-0.886278 0.071408 -0.078952 255 255 0
-0.891176 0.135611 -0.032952 255 255 0
-0.924851 0.115756 -0.040952 255 255 0
-0.845731 0.095116 -0.082952 255 255 0
-0.854078 0.119950 -0.078952 255 255 0
-0.855764 0.091967 -0.130952 255 255 0
-0.845242 0.093174 -0.128952 255 255 0
-0.894999 0.068764 -0.066952 255 255 0
-0.891589 0.067417 -0.054674 255 255 0
-0.852561 0.126382 -0.038188 255 255 0
-0.871023 0.076680 -0.142952 255 255 0
-0.856437 0.075209 -0.056952 255 255 0
-0.855293 0.095211 -0.110952 255 255 0
-0.855010 0.098292 -0.050952 255 255 0
-0.845330 0.110905 -0.060952 255 255 0
-0.916804 0.101065 -0.039213 255 255 0
-0.869267 0.078081 -0.039924 255 255 0
-0.847309 0.115204 -0.048952 255 255 0
-0.854750 0.076953 -0.104539 255 255 0
-0.846456 0.116441 -0.136952 255 255 0
-0.851805 0.124494 -0.052952 255 255 0
-0.887670 0.066173 -0.034952 255 255 0
-0.857941 0.092631 -0.161960 255 255 0
-0.854256 0.104619 -0.138952 255 255 0
-0.847760 0.117154 -0.090952 255 255 0
-0.863146 0.083409 -0.132952 255 255 0
-0.887365 0.066235 -0.064952 255 255 0
-0.852460 0.095788 -0.032114 255 255 0
-0.859299 0.089274 -0.086952 255 255 0
-0.917430 0.129512 -0.040952 255 255 0
-0.903182 0.074240 -0.110952 255 255 0
-0.850701 0.122678 -0.066952 255 255 0
-0.883035 0.065495 -0.098952 255 255 0
-0.873817 0.066950 -0.068952 255 255 0
-0.844284 0.103573 -0.056952 255 255 0
-0.852096 0.110149 -0.088952 255 255 0
-0.871012 0.076630 -0.100952 255 255 0
-0.844172 0.105637 -0.128952 255 255 0
-0.864160 0.072997 -0.162952 255 255 0
-0.889421 0.066795 -0.044952 255 255 0
-0.901447 0.071535 -0.038952 255 255 0
-0.859411 0.124988 -0.090952 255 255 0
-0.853373 0.105806 -0.106952 255 255 0
-0.855835 0.117552 -0.056952 255 255 0
-0.856182 0.119522 -0.086952 255 255 0
-0.883091 0.065775 -0.110952 255 255 0
-0.894532 0.071847 -0.040952 255 255 0
-0.880412 0.072667 -0.034952 255 255 0
-0.848506 0.086387 -0.093886 255 255 0
-0.892573 0.072256 -0.134952 255 255 0
-0.852879 0.103867 -0.162952 255 255 0
-0.867495 0.079408 -0.052952 255 255 0
-0.894550 0.068855 -0.074952 255 255 0
-0.856854 0.123467 -0.162952 255 255 0
-0.882188 0.071370 -0.094019 255 255 0
-0.850757 0.081847 -0.068952 255 255 0
-0.845783 0.093064 -0.150067 255 255 0
-0.915079 0.107539 -0.036952 255 255 0
-0.860055 0.088119 -0.040952 255 255 0
-0.858339 0.094591 -0.169871 255 255 0
-0.857775 0.131948 -0.086952 255 255 0
-0.898135 0.069496 -0.084952 255 255 0
-0.858271 0.074195 -0.079903 255 255 0
-0.857760 0.131876 -0.058952 255 255 0
-0.883539 0.067979 -0.162952 255 255 0
-0.846978 0.098944 -0.162883 255 255 0
-0.852593 0.079433 -0.132952 255 255 0
-0.846962 0.118923 -0.072952 255 255 0
-0.921885 0.095950 -0.032148 255 255 0
-0.884343 0.071931 -0.104952 255 255 0
-0.852679 0.106899 -0.082952 255 255 0
-0.853274 0.087458 -0.032952 255 255 0
-0.844843 0.105501 -0.140952 255 255 0
-0.869220 0.067822 -0.056952 255 255 0
-0.877023 0.066044 -0.044952 255 255 0
-0.863145 0.083409 -0.106952 255 255 0
-0.895783 0.067971 -0.104952 255 255 0
-0.853484 0.110856 -0.076952 255 255 0
-0.886506 0.072533 -0.031953 255 255 0
-0.858441 0.125185 -0.143979 255 255 0
-0.876708 0.074526 -0.089957 255 255 0
-0.848460 0.092519 -0.160952 255 255 0
-0.861159 0.083812 -0.120952 255 255 0
-0.912719 0.091019 -0.036952 255 255 0
-0.844302 0.105850 -0.102952 255 255 0
-0.844652 0.107569 -0.112952 255 255 0
-0.844380 0.106235 -0.090952 255 255 0
-0.883149 0.071175 -0.152952 255 255 0
-0.844464 0.096616 -0.066952 255 255 0
-0.877447 0.066212 -0.074952 255 255 0
-0.882381 0.072317 -0.070952 255 255 0
-0.867305 0.068439 -0.048952 255 255 0
-0.874523 0.073822 -0.114952 255 255 0
-0.919588 0.090294 -0.036952 255 255 0
-0.885218 0.066198 -0.074952 255 255 0
-0.855310 0.095208 -0.072952 255 255 0
-0.850186 0.120742 -0.160952 255 255 0
-0.859378 0.124994 -0.036952 255 255 0
-0.860064 0.088117 -0.060952 255 255 0
-0.865410 0.069155 -0.108952 255 255 0
-0.867494 0.079401 -0.084952 255 255 0
-0.855281 0.095214 -0.038952 255 255 0
-0.844527 0.106953 -0.036952 255 255 0
-0.843533 0.102069 -0.156952 255 255 0
-0.895837 0.072676 -0.052952 255 255 0
-0.855903 0.122748 -0.070952 255 255 0
-0.848506 0.086387 -0.115068 255 255 0
-0.891933 0.067347 -0.146952 255 255 0
-0.845053 0.109541 -0.045527 255 255 0
-0.847619 0.088608 -0.124952 255 255 0
-0.850325 0.115390 -0.118952 255 255 0
-0.855016 0.103431 -0.098952 255 255 0
-0.898503 0.141527 -0.037944 255 255 0
-0.857029 0.123431 -0.152952 255 255 0
-0.877213 0.066979 -0.160952 255 255 0
-0.860135 0.128922 -0.048952 255 255 0
-0.845072 0.095250 -0.142952 255 255 0
-0.851383 0.080465 -0.056952 255 255 0
-0.879171 0.066568 -0.086952 255 255 0
-0.862592 0.135559 -0.036952 255 255 0
-0.849952 0.084052 -0.082952 255 255 0
-0.860449 0.084898 -0.072952 255 255 0
-0.845933 0.093804 -0.090952 255 255 0
-0.853817 0.107757 -0.038952 255 255 0
-0.901571 0.071509 -0.152952 255 255 0
-0.853736 0.097568 -0.094952 255 255 0
-0.908896 0.082264 -0.037390 255 255 0
-0.918067 0.127341 -0.034000 255 255 0
-0.853326 0.126225 -0.058952 255 255 0
-0.877274 0.137498 -0.030952 255 255 0
-0.917932 0.086549 -0.032007 255 255 0
-0.885209 0.066156 -0.124952 255 255 0
-0.849044 0.084236 -0.062952 255 255 0
-0.853270 0.116032 -0.128952 255 255 0
-0.886281 0.071421 -0.056952 255 255 0
-0.868071 0.137512 -0.080952 255 255 0
-0.845826 0.115506 -0.148952 255 255 0
-0.858255 0.074117 -0.050952 255 255 0
-0.885311 0.066653 -0.085297 255 255 0
-0.853293 0.095618 -0.078952 255 255 0
-0.858305 0.084394 -0.165639 255 255 0
-0.854609 0.096323 -0.120952 255 255 0
-0.852582 0.112091 -0.106952 255 255 0
-0.872991 0.066291 -0.106952 255 255 0
-0.880889 0.064985 -0.152952 255 255 0
-0.918034 0.117143 -0.032337 255 255 0
-0.845161 0.095232 -0.036952 255 255 0
-0.923841 0.101675 -0.036952 255 255 0
-0.864184 0.083197 -0.167907 255 255 0
-0.876489 0.073454 -0.152952 255 255 0
-0.889204 0.135949 -0.038952 255 255 0
-0.884327 0.071851 -0.044952 255 255 0
-0.869047 0.077001 -0.114952 255 255 0
-0.882378 0.072303 -0.134952 255 255 0
-0.854656 0.111668 -0.162952 255 255 0
-0.888656 0.073066 -0.088952 255 255 0
-0.852953 0.103851 -0.062952 255 255 0
-0.876488 0.073450 -0.048952 255 255 0
-0.853495 0.115987 -0.098952 255 255 0
-0.864949 0.076919 -0.034206 255 255 0
-0.922318 0.108107 -0.034050 255 255 0
-0.900568 0.131616 -0.038952 255 255 0
-0.846945 0.088745 -0.037284 255 255 0
-0.851299 0.080050 -0.074952 255 255 0
-0.918797 0.110865 -0.045580 255 255 0
-0.857969 0.074257 -0.122952 255 255 0
-0.844221 0.095422 -0.106141 255 255 0
-0.867273 0.068282 -0.133716 255 255 0
-0.855417 0.100289 -0.044952 255 255 0
-0.867672 0.070242 -0.032823 255 255 0
-0.919045 0.122115 -0.048952 255 255 0
-0.878930 0.065385 -0.144952 255 255 0
-0.893557 0.067017 -0.130952 255 255 0
-0.844846 0.108524 -0.080952 255 255 0
-0.845554 0.095152 -0.112952 255 255 0
-0.863972 0.082151 -0.138952 255 255 0
-0.865746 0.080839 -0.093956 255 255 0
-0.858878 0.087211 -0.144952 255 255 0
-0.853082 0.108884 -0.094952 255 255 0
-0.854297 0.114852 -0.064952 255 255 0
-0.879033 0.065890 -0.053415 255 255 0
-0.874941 0.075879 -0.062952 255 255 0
-0.852527 0.116183 -0.151942 255 255 0
-0.849470 0.121221 -0.036952 255 255 0
-0.855105 0.118826 -0.140952 255 255 0
-0.856486 0.090886 -0.124952 255 255 0
-0.856957 0.092831 -0.100952 255 255 0
-0.888615 0.072866 -0.162952 255 255 0
-0.860664 0.085955 -0.081982 255 255 0
-0.905554 0.126026 -0.040952 255 255 0
-0.901024 0.073662 -0.133949 255 255 0
-0.852697 0.117021 -0.032952 255 255 0
-0.844440 0.106527 -0.146952 255 255 0
-0.869233 0.067883 -0.151528 255 255 0
-0.875064 0.066451 -0.098952 255 255 0
-0.896281 0.068503 -0.058952 255 255 0
-0.853448 0.100644 -0.082952 255 255 0
-0.851911 0.113155 -0.134952 255 255 0
-0.856285 0.074465 -0.134952 255 255 0
-0.874987 0.066073 -0.134952 255 255 0
-0.845043 0.103419 -0.048952 255 255 0
-0.853077 0.126276 -0.086952 255 255 0
-0.894535 0.071871 -0.142952 255 255 0
-0.856423 0.075140 -0.110952 255 255 0
-0.860969 0.071606 -0.152952 255 255 0
-0.848803 0.121023 -0.148952 255 255 0
-0.900226 0.069742 -0.115412 255 255 0
-0.844611 0.105547 -0.122952 255 255 0
-0.859954 0.072435 -0.142952 255 255 0
-0.877057 0.066213 -0.114952 255 255 0
-0.860859 0.086917 -0.112952 255 255 0
-0.894619 0.068841 -0.096952 255 255 0
-0.845256 0.109499 -0.066952 255 255 0
-0.850134 0.104424 -0.034171 255 255 0
-0.867353 0.068674 -0.070952 255 255 0
-0.888234 0.070994 -0.120952 255 255 0
-0.884333 0.071877 -0.146952 255 255 0
-0.865538 0.079814 -0.162952 255 255 0
-0.855766 0.097155 -0.060952 255 255 0
-0.872986 0.076302 -0.076952 255 255 0
-0.857025 0.123432 -0.048952 255 255 0
-0.874534 0.073875 -0.104952 255 255 0
-0.869051 0.077020 -0.128952 255 255 0
-0.853050 0.103831 -0.152952 255 255 0
-0.855754 0.097159 -0.150952 255 255 0
-0.865530 0.079776 -0.150952 255 255 0
-0.852542 0.101894 -0.132952 255 255 0
-0.869630 0.067803 -0.094952 255 255 0
-0.859669 0.086157 -0.092952 255 255 0
-0.859420 0.124986 -0.042952 255 255 0
-0.901214 0.074597 -0.084952 255 255 0
-0.857677 0.131463 -0.080319 255 255 0
-0.845509 0.091721 -0.054952 255 255 0
-0.890622 0.072693 -0.126952 255 255 0
-0.915140 0.097322 -0.034952 255 255 0
-0.848246 0.119096 -0.078952 255 255 0
-0.844725 0.097900 -0.046952 255 255 0
-0.894584 0.068848 -0.046952 255 255 0
-0.863621 0.070396 -0.040952 255 255 0
-0.700015 0.078809 -0.022952 255 0 255
-0.670788 0.075602 -0.167867 255 0 255
-0.639667 0.116630 -0.086952 255 0 255
-0.668976 0.026568 -0.090952 255 0 255
-0.741410 0.081643 -0.101829 255 0 255
-0.644479 0.066667 -0.050477 255 0 255
-0.722468 0.036513 -0.062952 255 0 255
-0.726631 0.119347 -0.057978 255 0 255
-0.702857 0.052653 -0.128952 255 0 255
-0.649498 0.071276 -0.116952 255 0 255
-0.674080 0.121874 -0.046120 255 0 255
-0.671088 0.107172 -0.134952 255 0 255
-0.679493 0.038136 -0.048952 255 0 255
-0.709830 0.092150 -0.154952 255 0 255
-0.740613 0.077723 -0.058273 255 0 255
-0.636970 0.049827 -0.085810 255 0 255
-0.706747 0.029507 -0.096952 255 0 255
-0.665062 0.091054 -0.026952 255 0 255
-0.626714 0.084569 -0.076952 255 0 255
-0.644215 0.105499 -0.054176 255 0 255
-0.735685 0.050152 -0.090952 255 0 255
-0.689922 0.109460 -0.012952 255 0 255
-0.671567 0.059364 -0.138952 255 0 255
-0.704072 0.058625 -0.047885 255 0 255
-0.720616 0.079751 -0.125728 255 0 255
-0.673876 0.060686 -0.027454 255 0 255
-0.698800 0.062809 -0.158952 255 0 255
-0.653616 0.101546 -0.110001 255 0 255
-0.719597 0.094246 -0.040952 255 0 255
-0.652733 0.037019 -0.062952 255 0 255
-0.678268 0.042146 -0.114952 255 0 255
-0.692652 0.022558 -0.070952 255 0 255
-0.655442 0.130583 -0.066952 255 0 255
-0.744792 0.098267 -0.076952 255 0 255
-0.680290 0.102242 -0.159874 255 0 255
-0.660090 0.083207 -0.138952 255 0 255
-0.654810 0.047228 -0.104952 255 0 255
-0.722109 0.056996 -0.112312 255 0 255
-0.636098 0.085667 -0.100952 255 0 255
-0.728388 0.057760 -0.052788 255 0 255
-0.745658 0.070574 -0.080952 255 0 255
-0.677466 0.078325 -0.011661 255 0 255
-0.667200 0.057963 -0.049940 255 0 255
-0.710065 0.098225 -0.014952 255 0 255
-0.656705 0.086631 -0.047911 255 0 255
-0.701247 0.034708 -0.053607 255 0 255
