ply
format ascii 1.0
element vertex 1242
property float x
property float y
property float z
property uchar red
property uchar green
property uchar blue
end_header
0.077456 0.577946 -0.052331 26 17 12
0.512679 0.583768 0.477109 205 170 159
0.520490 0.553469 0.464348 190 151 135
0.515718 0.576726 0.464016 203 168 153
0.518907 0.565865 0.470769 194 158 142
0.518811 0.568077 0.481633 193 155 141
0.515320 0.580489 0.492209 205 170 154
0.388763 0.268031 0.033788 60 35 25
0.237320 0.268338 -0.286824 28 13 7
0.294080 -0.016416 -0.187825 43 18 10
0.272639 -0.015907 -0.209325 43 16 9
0.276842 -0.016164 -0.177355 42 17 7
0.237331 0.508983 -0.082824 34 18 13
0.236166 0.529789 -0.057575 34 18 14
0.236966 0.505390 -0.063325 34 19 15
0.062859 0.578856 0.157329 108 93 76
0.072102 0.583411 0.142422 107 89 74
0.065654 0.590058 0.153067 109 92 75
0.068509 0.611410 0.151574 101 85 67
0.073323 0.616195 0.293937 158 139 121
0.073456 0.604377 0.297118 161 143 127
0.071648 0.601733 0.277429 152 134 117
0.254079 -0.015294 -0.102890 43 18 12
0.292152 -0.017923 -0.129825 43 18 11
0.266748 -0.017145 -0.121325 43 18 11
0.534623 -0.018044 0.339489 172 144 128
0.535101 0.004540 0.366637 176 143 131
0.161415 0.584850 -0.255805 139 118 103
0.237047 0.197340 -0.317169 28 13 8
0.237670 0.175621 -0.319575 28 13 8
0.537830 -0.207561 -0.139282 138 114 101
0.077230 0.592031 -0.114882 34 20 13
0.081087 0.625639 -0.135920 34 21 13
0.072012 0.592842 -0.133891 33 21 13
0.072413 0.582610 -0.126952 32 19 12
0.078582 0.582240 -0.113666 32 17 12
0.079817 0.609088 -0.118758 31 18 12
0.075313 0.603294 -0.129454 32 19 12
0.525337 0.167653 0.602945 179 155 139
0.526044 0.168756 0.627057 182 154 139
0.401934 0.429428 0.364299 162 79 70
0.417412 0.428435 0.345856 160 78 69
0.399501 0.427834 0.347348 147 65 61
0.399829 0.425844 0.340733 157 70 62
0.241201 0.283231 0.021076 38 18 9
0.326237 0.059902 0.029772 74 44 32
0.322412 0.021039 0.030770 74 45 34
0.288326 0.008523 0.030438 74 45 34
0.524115 0.309846 0.406055 167 131 119
0.237318 0.538152 0.023079 29 12 9
0.244734 0.505010 0.036927 54 34 23
0.541363 -0.251360 -0.351424 128 104 90
0.433808 -0.017608 -0.335450 37 16 9
0.191861 0.574371 0.396686 199 164 151
0.172421 0.574679 0.378158 191 161 147
0.169853 0.573166 0.395678 198 168 152
0.531706 0.101013 0.153176 158 128 117
0.081276 0.573245 0.351103 157 130 121
0.068717 0.585387 0.362312 155 132 112
0.057972 0.568373 0.353103 154 132 119
0.061128 0.577651 0.360931 119 102 91
0.074169 0.573741 0.353632 154 129 114
0.065697 0.578451 0.353074 153 130 118
0.066532 0.578609 0.347629 156 134 116
0.414687 0.211423 0.033307 70 38 35
0.393092 0.208045 0.033163 70 40 34
0.300401 0.553660 0.136595 178 150 142
0.233494 0.574587 0.525541 206 170 161
0.255695 0.579146 0.529920 203 173 158
0.484827 0.430508 0.371640 163 74 70
0.502516 0.463719 0.390464 158 64 59
0.501382 0.439261 0.377369 164 72 68
0.239333 0.089150 -0.277075 27 11 6
0.538702 -0.187757 -0.296655 122 102 76
0.539699 -0.214268 -0.318824 123 100 88
0.524798 0.353610 0.461666 177 134 125
0.525366 0.337597 0.481813 170 137 118
0.240925 0.015090 -0.090075 28 13 8
0.241383 0.006815 -0.099825 29 13 8
0.092408 0.573659 0.454210 136 114 98
0.071919 0.569966 0.435777 162 137 122
0.077701 0.578986 0.455352 165 142 121
0.534648 -0.071147 0.256558 171 138 126
0.533282 -0.073234 0.233336 168 139 122
0.321430 0.579687 0.419014 199 160 145
0.332252 0.576559 0.431794 201 160 148
0.335167 0.581891 0.405639 197 155 140
0.356677 0.579205 0.430568 202 163 151
0.343693 0.580549 0.416644 196 155 143
0.364564 0.576222 0.429346 202 155 147
0.355843 0.580290 0.418055 199 156 144
0.355230 0.579725 0.407442 191 149 133
0.530763 0.088291 0.493347 180 148 136
0.530949 0.084597 0.520425 180 149 139
0.529916 0.062978 0.496852 183 152 139
0.529645 0.108547 0.501684 180 150 137
0.393762 0.546871 0.235042 81 54 40
0.396176 0.564892 0.225444 79 50 31
0.511948 0.568381 0.441263 203 165 149
0.510259 0.579262 0.448837 206 169 153
0.517110 0.566723 0.446979 194 153 141
0.511996 0.557078 0.436307 202 161 150
0.495737 0.566054 0.437658 206 169 152
0.369130 0.299160 0.034074 49 24 16
0.406557 0.335818 0.035306 49 24 16
0.532247 -0.051781 0.216388 170 136 129
0.533083 -0.032125 0.211623 166 135 123
0.535524 -0.024323 0.387840 181 152 132
0.141301 0.572523 0.377140 195 167 151
0.150340 0.574418 0.396228 199 167 153
0.159769 0.572489 0.382726 193 161 147
0.131075 0.569631 0.404241 203 167 153
0.535861 -0.140707 -0.328938 119 93 80
0.533602 -0.060764 0.011676 143 118 102
0.534293 -0.068075 0.030488 149 122 109
0.534857 -0.093946 0.042675 152 126 110
0.522399 -0.018678 -0.217910 45 23 18
0.493407 -0.018581 -0.225700 41 17 12
0.514758 -0.018800 -0.233825 45 23 13
0.510791 -0.018164 -0.216469 45 21 18
0.493106 0.326293 0.035060 63 38 28
0.506473 0.294099 0.035147 72 46 34
0.347266 0.145237 0.031288 69 41 28
0.241719 0.574549 0.458003 203 170 161
0.249851 0.572194 0.444446 202 169 158
0.256667 0.573412 0.460246 200 170 156
0.261560 0.574056 0.434678 202 168 156
0.531888 0.020152 0.111175 159 127 117
0.532643 0.029158 0.134800 159 129 118
0.532683 0.003840 0.119550 157 129 116
0.401898 0.415246 0.313322 139 47 44
0.409050 0.419969 0.330558 156 64 60
0.388560 0.425561 0.333671 156 65 60
0.416166 0.410832 0.320326 153 62 61
0.389395 0.429509 0.315334 135 45 49
0.396401 0.422158 0.327715 148 55 52
0.519412 0.487894 0.617124 174 144 127
0.519353 0.470124 0.602498 173 143 132
0.520521 0.485442 0.592030 181 145 131
0.530448 0.148094 0.197426 159 126 114
0.372607 0.404336 0.399695 160 74 59
0.362399 0.444053 0.394589 135 69 41
0.367425 0.411724 0.401632 149 64 52
0.357360 0.423651 0.367443 119 66 31
0.377041 0.417463 0.366375 162 82 68
0.379248 0.407553 0.386923 160 79 66
0.369208 0.411446 0.379504 148 80 56
0.364268 0.415502 0.371365 127 72 34
0.365292 0.419601 0.384921 141 69 48
0.271142 0.445814 0.036552 105 85 74
0.258790 0.422756 0.034548 107 88 75
0.527976 0.235627 0.275845 155 122 114
0.526700 0.258217 0.251215 150 116 107
0.488821 -0.021366 0.011175 46 20 8
0.461719 -0.021764 0.011141 45 20 8
0.481964 -0.021564 -0.002575 46 19 12
0.451028 -0.021349 -0.005075 46 19 13
0.247995 -0.013428 -0.112352 46 19 10
0.245196 -0.009801 -0.126190 42 18 9
0.250736 -0.015307 -0.135159 43 18 10
0.522972 0.426548 0.131738 109 82 74
0.521461 0.476146 0.139168 81 63 51
0.240543 0.003910 -0.152825 32 14 7
0.240293 0.028392 -0.155325 27 12 7
0.522880 0.441513 0.151470 110 81 69
0.524467 0.394904 0.154087 126 95 85
0.524250 0.442916 0.168397 113 85 70
0.486962 0.508616 0.078153 68 49 29
0.462458 0.472408 0.098155 87 60 47
0.495293 0.501424 0.096457 71 50 33
0.236967 0.239090 -0.202074 28 13 7
0.314452 0.483765 0.036498 68 48 35
0.290817 0.457828 0.036580 82 63 51
0.271601 0.470931 0.040121 101 78 68
0.294987 0.485483 0.039788 115 92 82
0.239766 0.143963 0.015745 32 12 7
0.238848 0.157228 -0.015325 30 12 5
0.538115 -0.249287 0.217379 172 144 132
0.536675 -0.234178 0.192146 172 141 130
0.077725 0.592734 -0.226738 34 21 12
0.076886 0.603579 -0.232794 31 19 10
0.074906 0.607984 -0.208762 30 18 11
0.073628 0.592431 -0.208587 31 19 12
0.077117 0.595656 -0.220145 35 25 15
0.077608 0.611470 -0.220055 30 18 9
0.076075 0.603809 -0.218345 30 18 9
0.083640 0.587523 -0.206614 32 19 14
0.537300 -0.237776 0.538896 187 155 145
0.538289 -0.224206 0.541495 183 153 145
0.538952 -0.244195 0.562403 190 155 145
0.269830 -0.016470 -0.087075 38 17 10
0.258620 -0.016820 -0.074075 37 16 11
0.287060 -0.016838 -0.093825 39 18 10
0.533404 -0.018182 0.538569 182 152 136
0.240888 0.033951 -0.071075 28 12 8
0.239532 0.494969 -0.255075 32 19 13
0.240390 0.448774 -0.241325 32 18 14
0.355214 0.455494 0.400898 163 73 67
0.360621 0.445486 0.386221 158 86 61
0.353250 0.460182 0.382052 168 79 73
0.316945 -0.016800 -0.229825 40 17 10
0.303120 -0.016895 -0.203825 40 17 9
0.279715 -0.015891 -0.221325 41 16 8
0.239134 0.113910 -0.323824 28 13 8
0.364921 -0.017721 -0.149825 39 19 12
0.402639 -0.022310 -0.152956 102 81 72
0.377491 -0.017912 -0.139100 43 21 13
0.383461 -0.018610 -0.119074 97 76 68
0.305398 0.530768 0.063717 180 153 145
0.533808 -0.057036 0.093926 159 131 119
0.535200 -0.190853 0.308175 173 144 132
0.534210 -0.180743 0.322765 173 144 133
0.525717 0.321836 0.224376 143 111 98
0.223704 0.575305 -0.070504 131 111 97
0.234486 0.547486 -0.059824 31 16 9
0.233362 0.557740 -0.069035 34 16 12
0.230325 0.561396 -0.045724 44 25 16
0.239069 0.145876 -0.208450 29 13 7
0.238355 0.166371 -0.207325 29 13 8
0.533215 -0.014549 0.521303 180 152 142
0.532145 0.003216 0.526480 184 152 140
0.531805 -0.001346 0.502425 179 144 134
0.531694 -0.018842 0.502095 183 149 138
0.407273 0.015178 0.030567 78 47 40
0.392179 -0.002199 0.028924 74 44 33
0.511285 0.476727 0.241456 116 68 63
0.381534 0.479536 0.445592 202 150 143
0.407434 0.487023 0.436312 198 133 130
0.392305 0.510566 0.439753 201 142 136
0.393777 0.471960 0.439778 197 131 130
0.382480 0.500065 0.442251 203 147 139
0.244967 0.576420 0.508702 205 170 157
0.238660 0.575611 0.500120 202 167 156
0.271876 0.575020 0.502423 204 169 155
0.267986 0.577427 0.514430 203 167 155
0.511972 0.507105 0.044600 48 31 25
0.517278 0.505253 0.048960 53 42 32
0.233767 0.575884 0.151835 192 160 144
0.237415 0.574382 0.191534 188 157 142
0.535915 -0.075380 -0.273450 118 91 82
0.536005 -0.064275 -0.288075 113 94 80
0.363017 0.434492 0.415208 164 61 59
0.391055 0.424074 0.412336 176 78 75
0.371009 0.407818 0.404745 163 66 59
0.369512 0.427876 0.420273 157 63 53
0.376529 0.427454 0.421560 169 64 58
0.381908 0.435187 0.426279 173 69 68
0.380021 0.407731 0.404449 175 77 73
0.523990 0.395861 0.109206 123 94 84
0.395842 0.087337 0.031966 72 46 36
0.379409 0.099138 0.031206 74 44 34
0.155932 0.575986 0.275410 194 162 151
0.124089 0.575016 0.263786 188 160 146
0.126558 0.574816 0.282666 190 158 150
0.534888 -0.153381 0.587622 187 154 143
0.536583 -0.132251 0.562861 185 153 139
0.232873 0.571170 0.442957 203 169 156
0.214536 0.566649 0.444626 201 168 157
0.220283 0.576303 0.159190 186 157 142
0.241671 0.323756 0.024151 33 12 5
0.535651 -0.178152 0.219675 172 138 131
0.534543 -0.163562 0.233556 171 141 126
0.523533 0.451542 0.540082 181 146 133
0.524181 0.449686 0.566655 183 147 131
0.524231 0.435583 0.542175 179 145 130
0.538776 -0.234259 -0.171987 142 116 105
0.538304 -0.222352 -0.153727 141 119 102
0.391995 -0.019127 -0.179078 41 19 9
0.435227 0.390428 0.035421 40 20 12
0.391694 0.411539 0.035239 42 21 13
0.348576 0.565709 0.261995 88 54 43
0.348431 0.578849 0.250551 96 67 54
0.331048 0.580965 0.259430 142 110 101
0.336820 0.578767 0.264828 127 94 83
0.353726 0.573530 0.253742 94 62 49
0.096848 0.641431 0.036272 37 23 16
0.086540 0.631457 0.030587 32 17 11
0.095170 0.643583 0.016368 32 17 13
0.085567 0.622565 0.040020 34 20 11
0.532273 0.021717 0.274854 168 136 123
0.533500 0.017638 0.292090 170 139 128
0.531974 0.037700 0.293425 170 141 126
0.532319 -0.042661 0.462135 180 150 135
0.532754 -0.034900 0.487873 180 149 136
0.132012 0.579541 0.039116 173 150 134
0.534224 -0.027596 -0.307665 101 80 69
0.535982 -0.040914 -0.318824 106 85 74
0.299725 0.351918 0.034415 42 17 13
0.316663 0.506306 0.323872 153 57 53
0.529108 0.042992 0.614175 183 156 142
0.534881 -0.107810 0.192925 164 137 125
0.536432 -0.121719 0.206983 166 135 123
0.188105 0.568650 0.470609 200 168 158
0.535119 -0.131056 0.504427 178 150 140
0.241517 0.376258 -0.204650 31 16 11
0.370465 0.583621 0.607320 205 172 156
0.395239 0.588972 0.614562 203 174 156
0.390976 0.587299 0.592521 204 172 160
0.094038 0.570478 0.250045 129 103 89
0.087860 0.570820 0.279485 128 105 91
0.098377 0.570343 0.255930 130 105 93
0.078486 0.569487 0.260631 129 108 89
0.532587 -0.119257 0.614584 182 158 143
0.531050 -0.148471 0.605511 183 158 148
0.225493 0.574671 -0.138944 141 114 110
0.215577 0.580851 -0.129479 143 120 111
0.425069 0.544813 0.175348 95 75 61
0.424794 0.554666 0.158420 99 81 66
0.415027 0.565657 0.159182 132 104 90
0.406953 0.566126 0.182095 119 92 79
0.425620 0.558342 0.166356 83 64 50
0.095062 0.652423 -0.076022 30 20 12
0.083570 0.626395 -0.058488 25 15 10
0.083085 0.628928 -0.069571 29 19 12
0.082165 0.622893 -0.055234 26 17 11
0.086122 0.636310 -0.051060 27 17 12
0.086974 0.633697 -0.060782 32 21 12
0.109845 0.579397 0.086941 158 133 118
0.130092 0.575866 0.101056 182 155 141
0.518374 0.454146 0.241398 105 60 50
0.523595 0.401432 0.571224 179 141 131
0.521803 0.417272 0.597863 181 147 133
0.524042 0.423951 0.578497 177 148 132
0.238889 0.364473 -0.046825 33 18 13
0.238820 0.350099 -0.034825 35 17 11
0.238714 0.382801 -0.030825 35 18 12
0.503130 0.586948 0.559442 209 177 159
0.502097 0.588770 0.541797 208 176 161
0.240214 0.070342 -0.080950 27 13 7
0.526556 0.279715 0.268176 151 116 103
0.538337 -0.207928 0.153576 165 136 127
0.537493 -0.223698 0.163175 159 130 117
0.537515 -0.196499 0.172888 161 131 118
0.066605 0.574047 0.424557 167 147 125
0.068395 0.568981 0.408402 174 153 132
0.526647 0.245984 0.344986 159 128 109
0.525110 0.280269 0.353946 163 127 117
0.519449 0.321881 0.041284 112 87 71
0.513863 0.308951 0.037596 104 79 63
0.522811 0.327331 0.045004 127 100 86
0.530429 0.167555 0.091675 145 115 104
0.529792 0.192359 0.108925 147 118 108
0.269139 0.576735 0.389475 195 157 143
0.238785 0.397840 -0.105825 34 18 11
0.095113 0.643703 -0.058298 26 15 7
0.098638 0.652568 -0.064264 29 20 12
0.351350 0.195708 0.032000 62 37 22
0.338159 0.165885 0.031454 65 35 25
0.328469 0.178827 0.031428 63 38 23
0.239815 0.007846 -0.252825 32 15 5
0.239716 0.004539 -0.237074 30 13 7
0.241826 -0.003986 -0.258824 34 15 6
0.240045 0.026585 -0.278075 29 12 6
0.530635 -0.062368 0.629424 183 159 147
0.535877 -0.102632 -0.136575 124 100 84
0.536335 -0.115683 -0.126700 125 102 88
0.519711 0.530457 0.468175 179 135 126
0.519522 0.502876 0.445425 181 137 123
0.519693 0.518133 0.435818 180 134 118
0.382203 -0.012874 0.025270 47 20 12
0.432472 -0.014727 0.025189 48 19 9
0.332832 0.581830 0.597734 205 174 159
0.306177 0.576729 0.554477 204 172 157
0.298543 0.581609 0.578497 203 173 156
0.309762 0.578713 0.578818 201 172 160
0.403371 0.291178 0.034747 60 34 26
0.403186 0.308610 0.034524 55 28 22
0.534657 -0.075494 -0.013507 138 110 99
0.535680 -0.095700 -0.003108 145 115 103
0.237260 0.266307 -0.230825 29 14 8
0.238271 0.281305 -0.216074 28 14 8
0.409999 0.580397 0.541308 204 173 158
0.388683 0.583241 0.531941 205 171 159
0.424682 0.580699 0.555787 205 173 154
0.537329 -0.212599 0.504175 174 142 131
0.536278 -0.191557 0.516480 179 152 140
0.537454 -0.207827 0.524887 185 152 142
0.417539 0.413383 0.255183 170 76 76
0.431514 0.411323 0.251192 161 74 74
0.537801 -0.243793 0.231615 171 143 129
0.525092 0.040190 0.039113 123 95 82
0.514094 0.064771 0.034223 92 60 49
0.536486 -0.188965 0.026675 156 129 113
0.535954 -0.175428 0.012592 155 128 112
0.534733 -0.154186 0.031929 153 127 113
0.527535 0.066205 0.042527 149 118 107
0.184323 0.583491 -0.255574 132 111 99
0.206806 0.581628 -0.244855 134 114 104
0.197550 0.584164 -0.229969 136 117 106
0.166933 0.583762 -0.236210 137 119 111
0.096612 0.625371 0.597249 149 129 112
0.090474 0.629749 0.594933 132 116 98
0.084019 0.636504 0.593272 163 144 123
0.240013 0.451111 -0.163825 33 18 12
0.532325 0.038418 0.116675 156 124 112
0.532069 0.033045 0.088176 154 121 114
0.237616 0.274036 -0.091575 25 11 7
0.236623 0.275808 -0.109575 26 11 7
0.238072 0.279078 -0.064981 29 12 6
0.533257 -0.021281 0.251295 166 139 122
0.533155 -0.042600 0.249190 167 138 123
0.532139 -0.039806 0.230228 167 138 125
0.528903 0.162904 0.055853 144 117 103
0.530161 0.148840 0.058760 147 116 99
0.524541 0.386070 0.568391 176 145 130
0.536012 -0.064165 -0.172825 122 98 85
0.535717 -0.044779 -0.188809 119 96 84
0.533770 -0.033155 -0.166825 109 87 74
0.537128 -0.060505 -0.193368 118 96 83
0.537310 -0.194695 -0.135633 138 113 103
0.507726 0.513422 0.088728 71 50 35
0.513997 0.504445 0.100504 72 53 35
0.519222 0.495638 0.100623 60 47 35
0.511436 0.497809 0.118036 74 56 39
0.512832 0.567910 0.630259 199 167 148
0.516388 0.561762 0.652069 191 158 142
0.512339 0.577057 0.648768 192 160 144
0.399604 0.580481 0.551093 205 175 158
0.376734 0.582646 0.545072 206 173 162
0.526480 0.267186 0.384890 160 129 118
0.509171 0.531934 0.173577 65 45 37
0.514544 0.533431 0.178660 75 52 42
0.297447 0.576053 0.300062 185 141 131
0.292101 0.578283 0.326718 195 154 142
0.498404 -0.021215 -0.068074 44 19 9
0.512029 -0.021051 -0.036325 43 19 10
0.495694 -0.022668 -0.048825 44 21 12
0.532154 -0.077171 0.598633 177 152 140
0.531107 -0.084362 0.627551 182 158 146
0.530919 -0.071313 0.620639 181 158 146
0.075483 0.574588 0.301660 153 128 111
0.069193 0.579053 0.322629 155 132 118
0.070268 0.579461 0.334657 154 130 114
0.067692 0.585373 0.341244 151 131 111
0.238035 0.192865 -0.244575 28 13 7
0.238282 0.180010 -0.220825 29 13 8
0.237004 0.220201 -0.220325 29 14 7
0.293245 0.122756 0.030699 66 36 26
0.278433 0.145756 0.031220 57 29 19
0.393727 0.417684 0.402396 176 86 86
0.168342 0.571820 0.446062 204 172 159
0.178476 0.569620 0.456647 204 173 153
0.527282 0.159881 0.045975 141 113 101
0.303808 0.262225 0.033266 51 21 11
0.528262 0.134514 0.366203 173 140 126
0.529039 0.108585 0.371846 171 141 133
0.529312 0.130234 0.352631 171 140 125
0.229992 0.572105 -0.204745 78 58 49
0.227410 0.576737 -0.218274 91 71 61
0.536911 -0.127097 -0.136575 128 101 88
0.533911 -0.097224 0.072229 157 131 116
0.534643 -0.096439 0.110175 161 131 117
0.535582 -0.117289 0.094300 156 129 118
0.180204 0.582490 -0.207300 144 119 111
0.112799 0.622798 0.603588 144 124 112
0.124473 0.629456 0.613046 179 155 140
0.128757 0.608861 0.593210 201 170 156
0.073122 0.581438 0.381912 157 134 117
0.065335 0.575640 0.388758 158 132 119
0.061267 0.571065 0.380757 156 132 118
0.071625 0.574566 0.400760 157 135 114
0.069301 0.580466 0.369049 156 130 118
0.065308 0.577752 0.376370 157 132 121
0.210294 0.579053 0.025150 155 130 120
0.525376 0.391454 0.494311 173 142 120
0.525910 0.405687 0.512644 179 141 130
0.525615 0.409526 0.501097 176 142 130
0.537942 -0.230014 -0.275654 130 101 95
0.538510 -0.243515 -0.271575 130 106 91
0.530131 0.151594 0.303660 166 137 119
0.531126 0.042788 0.434675 176 151 140
0.532510 0.027583 0.425543 175 150 136
0.238232 0.495025 -0.145637 36 20 15
0.358751 0.467008 0.253132 115 59 46
0.355329 0.447048 0.255959 118 61 45
0.504488 0.160827 0.032575 77 49 38
0.501259 0.114444 0.032605 77 48 40
0.520153 0.128390 0.036810 120 93 81
0.518473 0.149013 0.036207 109 81 70
0.524572 0.150839 0.040626 138 110 99
0.335435 0.579345 0.543152 205 172 158
0.368381 0.581701 0.539138 207 174 157
0.350727 0.581745 0.551158 205 175 158
0.358442 0.505840 0.432954 203 149 138
0.353051 0.506495 0.425391 199 146 135
0.348328 0.508090 0.414471 190 128 118
0.345151 0.483201 0.418616 183 116 106
0.326719 0.579313 0.499229 204 169 157
0.246826 0.055356 0.025112 33 12 5
0.245533 0.040460 0.023657 31 13 6
0.468129 0.518179 0.232889 59 42 36
0.484164 0.546497 0.225837 58 44 37
0.483708 0.544228 0.218932 63 49 42
0.476269 0.528968 0.217961 60 42 38
0.473639 0.531103 0.228015 52 38 33
0.470296 0.526619 0.228780 53 41 33
0.482619 0.539423 0.206268 67 41 34
0.525972 0.219701 0.409135 166 135 121
0.527173 0.214086 0.427426 173 139 129
0.527672 0.200797 0.418260 171 138 131
0.454162 -0.021119 -0.055575 47 20 10
0.262589 0.577281 0.257503 184 151 139
0.293836 0.578353 0.255276 180 147 132
0.292663 0.578464 0.280958 180 146 137
0.388992 -0.020219 -0.025075 47 18 9
0.372320 -0.019868 -0.038825 44 18 11
0.242920 -0.006605 -0.189403 34 15 7
0.257377 -0.015265 -0.201825 42 16 9
0.259107 -0.017372 -0.158624 42 16 9
0.252731 -0.014603 -0.195541 41 17 9
0.527852 0.098524 0.607433 184 157 142
0.529181 0.120668 0.590843 184 156 141
0.534175 -0.078565 0.016241 146 120 108
0.414006 0.471318 0.047303 85 63 51
0.437873 0.451973 0.040757 65 44 31
0.432855 0.464048 0.046752 64 44 30
0.239417 0.317869 -0.136916 24 9 4
0.236689 0.343033 -0.165242 23 9 4
0.532588 0.057496 0.324613 174 143 133
0.523149 0.381833 0.313175 147 62 56
0.523348 0.377821 0.332567 162 80 75
0.521971 0.387724 0.302676 146 65 57
0.521120 0.387414 0.326757 157 70 67
0.537162 -0.253209 0.622422 188 157 145
0.539068 -0.271634 0.651277 190 159 152
0.522406 0.501939 0.514613 181 144 134
0.521238 0.499963 0.492336 184 145 132
0.175650 0.576529 0.498068 198 170 153
0.184748 0.574670 0.485573 200 172 153
0.188757 0.577473 0.499977 202 171 153
0.535338 -0.078926 0.540175 186 153 138
0.535845 -0.057218 0.544014 182 152 138
0.535001 -0.060271 0.559176 184 152 139
0.523315 0.496106 0.182715 81 55 46
0.521827 0.522209 0.195540 79 56 45
0.521686 0.520593 0.183997 78 59 53
0.517041 0.521686 0.213152 81 56 48
0.521357 0.506935 0.201428 79 56 48
0.160868 0.590407 0.543893 205 176 164
0.146259 0.596129 0.555645 205 176 162
0.162056 0.588529 0.534066 203 175 162
0.529925 -0.020815 -0.310261 75 55 41
0.523214 -0.018675 -0.293119 62 41 30
0.397461 0.548005 0.149247 120 94 77
0.383323 0.565538 0.143384 132 106 93
0.395837 0.558497 0.150945 134 108 96
0.526844 0.338708 0.520961 175 142 130
0.526647 0.348875 0.560052 177 141 134
0.527254 0.371924 0.541341 174 139 133
0.535969 -0.177037 0.251676 170 143 130
0.534766 -0.153291 0.263407 170 138 130
0.512088 0.581923 0.584958 204 174 159
0.519627 0.567664 0.572794 203 169 155
0.512710 0.581097 0.562735 209 173 156
0.483986 -0.022840 -0.044825 43 19 9
0.469604 -0.021325 -0.087824 44 19 11
0.470832 -0.021694 -0.030575 45 19 11
0.530024 0.177268 0.216474 162 126 117
0.238938 0.050181 -0.315825 27 12 7
0.240547 0.048399 -0.274825 27 12 7
0.203829 0.614785 0.620593 204 176 161
0.199744 0.609219 0.604538 206 176 159
0.110424 0.586107 -0.318746 100 83 75
0.136407 0.582935 -0.312446 139 119 106
0.360512 0.021081 0.030475 76 45 37
0.354214 0.565314 0.394159 185 139 126
0.536501 -0.110438 0.577107 183 152 134
0.535093 -0.098182 0.577779 185 152 139
0.533550 -0.120292 0.593095 184 154 137
0.538988 -0.275173 -0.285035 130 107 93
0.538796 -0.258078 -0.312281 127 108 91
0.539023 -0.270991 -0.318824 129 109 97
0.272415 -0.017785 -0.141199 42 18 8
0.264786 -0.017484 -0.164825 41 17 7
0.527032 0.260528 0.470568 174 141 126
0.103917 0.585454 -0.296880 45 32 25
0.098390 0.584533 -0.286577 59 45 38
0.087982 0.583132 -0.284956 33 24 16
0.086730 0.580957 -0.300863 33 21 14
0.078383 0.584886 -0.294445 29 19 12
0.535787 -0.067231 -0.217325 118 95 83
0.536863 -0.087725 -0.226974 120 97 83
0.237857 0.239098 -0.004825 33 14 7
0.237300 0.257480 0.003973 34 15 8
0.239647 0.240820 0.020465 28 14 6
0.533564 -0.028595 0.303675 174 140 131
0.533257 -0.016014 0.323973 171 141 129
0.533398 0.010970 0.321721 170 141 125
0.535231 0.005019 0.346188 172 141 126
0.537798 -0.252973 0.517175 184 156 142
0.537781 -0.238822 0.161176 164 139 127
0.074591 0.596106 0.071256 33 18 11
0.078534 0.613723 0.056052 33 18 10
0.082011 0.621446 0.070639 36 20 9
0.536966 -0.149099 0.423425 176 148 136
0.536577 -0.129227 0.422218 173 145 133
0.537781 -0.144676 0.398500 180 146 135
0.238114 0.201724 -0.178825 20 10 4
0.348733 0.469752 0.428117 194 126 114
0.352713 0.488542 0.431276 187 113 101
0.114750 0.678017 -0.216635 29 18 13
0.107767 0.672296 -0.208757 31 18 10
0.104119 0.665571 -0.216629 30 20 12
0.106705 0.672728 -0.226438 33 21 14
0.099261 0.657776 -0.226872 30 18 6
0.099656 0.664613 -0.234937 30 18 6
0.301867 -0.018656 -0.014825 46 19 9
0.298849 -0.019339 0.004978 46 19 10
0.125135 0.583694 -0.263389 88 72 63
0.106143 0.586755 -0.278219 102 85 77
0.536963 -0.209116 0.110675 166 136 122
0.201789 0.582299 -0.143645 139 120 112
0.187893 0.581840 -0.132638 144 124 109
0.182969 0.580597 -0.115335 148 123 112
0.412160 0.569546 0.166478 126 100 86
0.434480 0.372609 0.035715 48 27 21
0.460197 0.377629 0.035229 51 30 23
0.456741 0.586048 0.472196 206 167 154
0.454235 0.587378 0.489291 207 170 155
0.444172 0.584908 0.505477 204 171 159
0.446500 0.582247 0.462213 206 170 155
0.528034 0.225210 0.123175 149 120 106
0.527949 0.230722 0.139425 152 119 109
0.528600 0.253226 0.081175 139 112 96
0.529103 0.213669 0.060216 141 114 92
0.479725 0.589381 0.463960 205 170 158
0.479185 0.587329 0.489111 207 170 157
0.466767 0.588495 0.491790 208 171 154
0.077604 0.612468 -0.072250 22 10 6
0.078363 0.586176 -0.083767 27 14 11
0.075746 0.592804 -0.089277 28 17 13
0.080300 0.614471 -0.089040 27 16 10
0.078660 0.603392 -0.099845 30 17 10
0.077541 0.586337 -0.095689 32 18 14
0.239066 0.129147 -0.035575 29 12 5
0.238294 0.149173 -0.056825 29 12 5
0.522472 0.458466 0.124363 80 57 48
0.520243 0.486958 0.137455 77 55 45
0.123974 0.575990 0.250196 187 160 146
0.538406 -0.208507 0.487273 183 154 146
0.536934 -0.186661 0.482175 182 153 141
0.537237 -0.208705 0.469431 182 152 144
0.535572 -0.231475 0.466110 181 155 142
0.535543 -0.168379 0.048175 169 142 124
0.537328 -0.183969 0.055777 155 130 113
0.536213 -0.151732 0.084175 158 129 114
0.536225 -0.167581 0.065253 157 132 115
0.526591 0.233503 0.650994 180 152 143
0.526071 0.194713 0.654918 180 152 138
0.525370 0.228738 0.676518 180 154 139
0.509006 0.586099 0.724836 154 131 123
0.518398 0.441289 0.655790 180 149 137
0.520472 0.145761 0.695329 160 141 128
0.520177 0.359027 0.713080 136 116 105
0.523658 0.381792 0.697656 175 147 133
0.519759 0.347922 0.669593 180 150 134
0.521156 0.343486 0.681911 178 150 142
0.372548 0.581342 0.646576 205 176 158
0.427107 0.593152 0.707774 198 170 157
0.441665 0.585128 0.721195 151 131 119
0.444985 0.589863 0.703265 202 175 162
0.455284 0.587079 0.701813 199 171 161
0.453995 0.591563 0.720145 152 130 122
0.439776 0.590964 0.712124 175 151 140
0.456573 0.591966 0.712084 177 154 141
0.178884 0.632708 0.684647 205 175 159
0.189858 0.620657 0.677177 206 176 163
0.175669 0.637030 0.668415 208 179 165
0.195845 0.617031 0.683574 206 176 164
0.186749 0.628521 0.668968 206 178 157
0.188705 0.626789 0.651252 206 178 157
0.180326 0.628693 0.650871 209 179 160
0.515246 0.422396 0.667385 181 150 139
0.519478 0.420063 0.656027 183 150 137
0.512993 0.497362 0.714500 159 131 118
0.513432 0.511745 0.694845 181 150 141
0.517445 0.492560 0.702042 176 150 139
0.513291 0.512277 0.705692 175 145 134
0.513396 0.488072 0.720094 135 112 102
0.517920 0.464926 0.696376 176 151 139
0.516274 0.467802 0.716051 157 132 115
0.515958 0.467413 0.707732 160 135 122
0.461449 0.584353 0.652169 206 176 161
0.481561 0.585320 0.668232 207 177 166
0.478128 0.588542 0.676654 206 177 159
0.352651 0.574461 0.658502 204 175 158
0.259093 0.585285 0.664332 208 177 165
0.252737 0.588465 0.687000 200 173 157
0.244400 0.587468 0.681699 207 175 158
0.234955 0.601854 0.653487 208 176 162
0.235034 0.596614 0.663490 208 176 161
0.256221 0.585768 0.660005 206 177 159
0.244237 0.588142 0.672007 206 177 159
0.516059 0.547049 0.695614 184 152 133
0.510930 0.520718 0.716064 159 132 120
0.516125 0.543722 0.706039 174 148 131
0.516128 0.549086 0.720880 134 112 105
0.509186 0.510854 0.721319 134 111 105
0.365627 0.581348 0.687745 200 173 157
0.374602 0.584327 0.714857 151 128 119
0.395146 0.593962 0.717192 152 132 119
0.523050 0.130445 0.659869 182 158 144
0.526649 0.148049 0.650327 183 160 145
0.531034 -0.233215 0.650018 187 157 146
0.527023 0.003265 0.658202 182 160 144
0.527332 0.013933 0.679329 181 160 145
0.530543 0.038074 0.669323 180 157 143
0.529851 0.020238 0.650332 183 161 145
0.524112 0.015855 0.692511 163 141 131
0.343820 0.574416 0.689600 203 174 162
0.347067 0.576398 0.675527 206 173 164
0.374345 0.578226 0.660247 205 177 157
0.368642 0.579304 0.674428 201 174 163
0.525228 0.401138 0.697436 173 148 133
0.522890 0.399312 0.680867 177 149 137
0.518540 0.418655 0.715637 136 113 104
0.524650 0.394227 0.714286 137 116 104
0.524360 0.408844 0.716162 136 115 101
0.531854 -0.211071 0.654969 183 159 143
0.531241 -0.218272 0.670615 175 151 142
0.531972 -0.200209 0.671405 179 156 141
0.528914 -0.201387 0.683201 138 119 109
0.530147 -0.212034 0.681477 141 121 109
0.293101 0.579627 0.682722 205 171 161
0.522354 0.406199 0.655576 180 149 137
0.522407 0.386575 0.658155 178 147 132
0.211826 0.611595 0.683832 198 169 160
0.202475 0.609662 0.697352 181 155 145
0.219464 0.604478 0.697835 181 157 138
0.212643 0.608337 0.705941 154 132 122
0.525706 0.244014 0.686358 177 152 138
0.525404 0.216083 0.696354 159 134 123
0.525589 0.231272 0.703833 161 138 126
0.219572 0.611225 0.656431 202 176 162
0.232291 0.593556 0.675041 207 177 161
0.233746 0.590784 0.685242 201 171 157
0.223655 0.604484 0.679534 201 171 157
0.446730 0.581157 0.659303 205 175 163
0.528561 0.053766 0.652211 183 160 146
0.519111 0.487791 0.663039 180 149 140
0.515506 0.506028 0.653235 180 150 137
0.349530 0.576983 0.709452 176 154 141
0.373918 0.587679 0.706389 177 151 140
0.358260 0.581079 0.704688 177 152 139
0.333480 0.577336 0.709958 177 153 142
0.361804 0.579107 0.714474 153 130 118
0.344336 0.571987 0.713100 177 153 133
0.514583 0.430600 0.695396 180 152 139
0.519805 0.405907 0.664282 180 150 139
0.528750 -0.277899 0.672918 159 139 128
0.538718 -0.253939 0.656276 188 158 143
0.530241 -0.270438 0.664545 179 155 143
0.529078 -0.261073 0.680401 163 139 133
0.529977 -0.284394 0.680514 94 81 73
0.428908 0.579263 0.667149 204 176 157
0.409698 0.582750 0.663886 204 175 160
0.412048 0.593511 0.688137 202 174 160
0.424242 0.584044 0.674113 204 176 159
0.393867 0.587729 0.679244 204 177 161
0.529448 -0.146758 0.650728 183 160 147
0.529807 -0.139313 0.683832 164 141 128
0.528258 -0.123460 0.687745 139 121 110
0.528589 -0.137896 0.666716 181 159 145
0.529339 -0.124083 0.672059 181 156 140
0.529128 -0.149432 0.671158 181 156 143
0.231342 0.588726 0.697048 179 155 144
0.222018 0.605585 0.708365 181 157 142
0.396939 0.596046 0.710488 175 151 139
0.410437 0.598844 0.715557 176 151 137
0.416767 0.596083 0.709999 197 168 159
0.396147 0.593201 0.698720 195 165 160
0.424717 0.588379 0.691101 200 171 161
0.422770 0.591308 0.719235 152 130 119
0.244944 0.596637 0.655099 206 176 159
0.519067 0.468150 0.662409 182 150 138
0.517448 0.461654 0.669431 182 152 137
0.517038 0.470914 0.685133 181 154 138
0.516448 0.489495 0.692151 183 153 141
0.528461 -0.025818 0.692436 163 142 131
0.527291 0.000389 0.692076 162 141 129
0.160211 0.650497 0.698633 158 133 119
0.156928 0.655589 0.686856 186 156 147
0.155607 0.657007 0.700771 157 132 123
0.522354 0.316559 0.677370 178 148 142
0.521190 0.295526 0.691373 175 148 135
0.518401 0.270797 0.689747 175 148 137
0.519381 0.273670 0.678587 176 151 138
0.519843 0.279075 0.668754 176 150 139
0.514813 0.441738 0.680156 177 151 136
0.515964 0.437730 0.666474 181 150 139
0.515599 0.529138 0.670319 183 152 135
0.516605 0.532744 0.685329 185 155 136
0.529045 -0.005740 0.680128 180 157 145
0.214820 0.611827 0.672413 202 174 157
0.223536 0.606977 0.666045 208 174 163
0.202345 0.619927 0.654020 204 178 161
0.198973 0.614630 0.673561 206 177 156
0.528497 -0.127918 0.650072 184 158 146
0.527105 0.205573 0.689032 160 138 126
0.527495 0.178575 0.696597 158 139 127
0.528873 0.178608 0.690133 177 153 138
0.525362 0.201673 0.700259 136 119 109
0.530832 0.185869 0.705534 138 119 110
0.526105 0.166908 0.701080 138 118 112
0.489653 0.590312 0.724063 154 133 123
0.517614 0.579837 0.725801 137 117 102
0.516491 0.554276 0.723645 137 116 97
0.524308 0.235237 0.662071 182 153 142
0.522413 0.255841 0.683098 179 151 142
0.521513 0.260475 0.661178 179 149 144
0.213544 0.611490 0.660926 205 177 156
0.528890 -0.067197 0.658775 181 161 145
0.530991 -0.075082 0.677723 160 142 128
0.533385 -0.071858 0.689197 160 142 128
0.528243 -0.057001 0.689174 161 143 129
0.526315 0.243615 0.707433 175 151 136
0.525981 0.254996 0.707351 157 133 127
0.517189 0.265704 0.707544 133 114 107
0.494525 0.584524 0.669784 205 176 168
0.507031 0.584416 0.676974 207 178 160
0.496795 0.589617 0.680980 206 178 162
0.531034 -0.049283 0.647139 181 162 147
0.304065 0.585125 0.694469 177 151 141
0.321496 0.587112 0.713000 153 131 122
0.309368 0.584536 0.712375 152 131 119
0.322899 0.582554 0.704981 176 152 139
0.315994 0.584933 0.694984 200 170 159
0.337206 0.576819 0.699452 200 171 158
0.523526 0.116409 0.691873 163 140 128
0.525115 0.118843 0.700946 141 121 112
0.522087 0.141351 0.701209 163 139 127
0.191637 0.624020 0.697040 182 158 140
0.184386 0.627470 0.694204 183 158 140
0.200200 0.618882 0.706862 156 134 123
0.525437 0.025214 0.697113 139 121 111
0.242887 0.589137 0.706906 183 151 146
0.248852 0.592429 0.700941 194 164 154
0.235768 0.589165 0.706806 157 132 122
0.264653 0.594422 0.698088 194 164 153
0.260042 0.597042 0.709500 179 157 136
0.521179 0.367784 0.660283 179 151 140
0.522404 0.388734 0.669163 178 150 135
0.522779 0.366284 0.680654 180 152 136
0.523853 0.390056 0.681045 177 150 136
0.159088 0.634028 0.651789 206 179 159
0.171569 0.635106 0.658415 208 178 162
0.172996 0.633081 0.676719 205 177 158
0.165159 0.646478 0.681891 206 177 158
0.310531 0.587616 0.643665 202 174 159
0.165178 0.650233 0.692004 185 155 145
0.192544 0.635338 0.707647 159 135 121
0.180647 0.641659 0.709202 161 134 125
0.171982 0.653913 0.703682 159 134 125
0.167712 0.654397 0.708479 106 89 83
0.180531 0.642153 0.700533 186 157 141
0.515668 0.441900 0.715401 158 133 120
0.520059 0.418067 0.704384 158 135 123
0.508922 0.582980 0.691343 197 173 158
0.502468 0.587998 0.694717 201 175 161
0.513851 0.588238 0.718196 174 149 134
0.518176 0.562424 0.706842 178 151 133
0.516907 0.574323 0.700946 178 152 133
0.511370 0.589582 0.704820 193 166 152
0.529206 0.085041 0.696816 139 120 109
0.531649 0.098372 0.699446 140 122 107
0.514773 0.447256 0.706986 177 148 139
0.507413 0.593786 0.717508 192 165 153
0.496399 0.590176 0.701579 197 170 158
0.495355 0.594623 0.716527 179 155 145
0.525045 -0.049311 0.692452 163 143 129
0.528355 -0.023548 0.683876 180 158 146
0.525026 -0.044328 0.677205 179 158 145
0.527921 -0.037749 0.665746 182 159 145
0.527102 -0.054611 0.672329 180 160 144
0.528459 0.096302 0.671376 182 159 145
0.527359 0.070519 0.670952 184 159 148
0.527589 0.095627 0.680667 179 156 145
0.525338 0.073301 0.679130 178 155 145
0.528163 0.097969 0.656930 184 159 146
0.151957 0.639823 0.662998 186 157 144
0.527247 0.177984 0.662295 180 155 145
0.524849 0.112097 0.661814 184 159 149
0.522699 0.127901 0.673337 183 159 145
0.523826 0.107869 0.677380 183 159 145
0.522601 0.143940 0.685568 183 159 146
0.393731 0.585839 0.672162 203 174 161
0.385943 0.591254 0.690190 203 174 162
0.459146 0.582719 0.665934 204 177 155
0.438380 0.582189 0.688175 203 178 160
0.457462 0.581263 0.676938 204 177 159
0.436740 0.578301 0.677521 205 176 161
0.276488 0.588457 0.656449 207 175 163
0.287358 0.585582 0.671371 207 175 160
0.265715 0.590068 0.680888 199 173 158
0.278601 0.590562 0.676416 205 172 162
0.283103 0.582636 0.695265 201 169 160
0.291321 0.580725 0.705426 179 152 137
0.532307 -0.231485 0.666403 178 157 144
0.532334 -0.247294 0.664663 179 157 145
0.535454 -0.226665 0.681143 163 139 127
0.535347 -0.239395 0.680872 162 140 129
0.472430 0.587757 0.691165 203 176 162
0.476236 0.589118 0.705195 197 173 159
0.473844 0.592444 0.713978 179 154 141
0.483819 0.590684 0.696705 198 172 157
0.478001 0.589417 0.720022 177 155 147
0.466196 0.590687 0.721509 178 156 139
0.522022 0.317646 0.710084 133 115 102
0.520096 0.297797 0.706244 158 134 122
0.269878 0.590865 0.694850 182 153 147
0.266015 0.596172 0.702457 183 152 148
0.276854 0.587153 0.706371 179 155 139
0.530425 -0.079460 0.669202 180 157 143
0.527246 -0.103298 0.688391 164 142 131
0.528369 -0.113854 0.669416 182 160 143
0.516940 0.490828 0.673109 187 151 143
0.515172 0.508432 0.667147 185 150 137
0.332038 0.579994 0.665544 205 176 160
0.318341 0.581816 0.665100 207 176 161
0.302092 0.587134 0.665692 203 174 160
0.302611 0.590212 0.656567 202 175 158
0.331851 0.574368 0.684575 200 174 161
0.326683 0.578493 0.675070 204 174 162
0.312030 0.584936 0.676410 204 170 165
0.528027 -0.173036 0.661171 184 160 146
0.532498 -0.184648 0.670285 178 155 144
0.526852 -0.168908 0.673685 180 156 144
0.528838 -0.183790 0.683561 160 142 127
0.525394 -0.162446 0.684135 161 142 131
0.527610 0.187402 0.679099 181 155 140
0.523208 0.203636 0.663525 180 155 143
0.513306 0.579946 0.656604 192 161 147
0.521362 0.359292 0.695164 156 133 123
0.522797 0.320714 0.698772 174 147 136
0.522328 0.340116 0.711536 157 134 122
0.506806 0.583820 0.658150 205 177 165
0.516714 0.565561 0.669910 189 159 142
0.516123 0.566902 0.682084 191 163 147
0.513507 0.580618 0.670132 198 170 156
0.529741 0.055777 0.673515 182 160 146
0.529511 0.047938 0.696997 184 156 143
0.528020 0.069383 0.658603 182 159 146
0.528612 0.065156 0.687687 164 141 130
0.540261 -0.286173 0.653119 189 156 150
0.521874 0.328358 0.661846 177 150 135
0.522451 0.332918 0.676739 179 151 137
0.519834 0.290353 0.676966 177 151 139
0.522750 0.310901 0.684611 174 148 136
0.528366 0.162151 0.672697 179 155 141
0.148106 0.650944 0.663754 184 155 148
0.153838 0.660478 0.674107 157 136 122
0.166631 0.637910 0.672501 201 174 156
0.156799 0.649250 0.676634 184 157 144
-0.157162 0.622407 -0.612718 109 100 83
-0.164842 0.583030 -0.624734 125 108 96
-0.182077 0.584038 -0.623422 103 87 74
-0.205769 0.593938 -0.605054 113 100 85
-0.180439 0.588025 -0.618342 116 104 91
-0.159976 0.585744 -0.617554 105 94 74
-0.194898 0.594522 -0.609994 106 96 77
-0.164036 0.608012 -0.608686 110 103 86
-0.159274 0.598691 -0.608627 100 91 72
-0.175759 0.598501 -0.610646 107 100 83
-0.183006 0.605560 -0.610730 110 103 86
-0.147603 0.591856 -0.605895 114 106 89
-0.169517 0.628946 -0.615876 110 103 85
-0.436060 0.572756 -0.099315 84 69 54
-0.440625 0.587332 -0.102760 53 44 34
-0.495048 0.569579 0.043180 114 96 82
-0.487196 0.569888 0.033152 121 100 92
-0.510187 0.572165 0.048243 111 96 74
-0.494738 0.569838 0.005332 117 99 85
-0.506434 0.570419 0.029299 119 99 87
-0.483154 0.565385 0.051353 108 93 76
-0.433421 0.572084 0.339160 162 135 115
-0.438823 0.567257 0.339942 160 138 120
-0.414470 0.571244 0.337467 153 129 109
-0.539480 0.576734 -0.030326 179 151 135
-0.553294 0.574672 0.001789 179 151 141
-0.527959 0.574766 0.013674 181 154 139
-0.548025 0.574468 0.007403 178 155 138
-0.567574 0.575303 0.020339 177 152 134
-0.562222 0.576852 -0.021145 176 151 134
-0.478091 0.575816 -0.257890 97 87 71
-0.464249 0.571836 -0.253870 100 90 75
-0.457463 0.570914 -0.236591 97 83 71
-0.448412 0.588402 -0.266778 90 79 61
-0.475299 0.574761 -0.235712 87 76 59
-0.450366 0.575622 -0.265993 84 70 57
-0.455978 0.603175 -0.246905 91 80 63
-0.451691 0.574942 -0.243620 78 67 53
-0.450337 0.589114 -0.245631 99 88 70
-0.454268 0.577474 -0.254393 72 62 45
-0.453349 0.573465 -0.220058 97 89 70
-0.469776 0.571453 -0.215307 105 92 73
-0.451420 0.585294 -0.235276 96 86 67
-0.450414 0.571945 -0.209007 89 78 61
-0.452693 0.583825 -0.211132 85 76 58
-0.476610 0.573822 -0.206295 87 76 57
-0.474772 0.574728 -0.222623 96 80 65
-0.450980 0.593604 -0.202391 80 66 51
-0.477833 0.566033 0.379110 115 94 87
-0.558030 0.553802 0.221270 190 164 145
-0.569054 0.557833 0.209459 190 164 144
-0.548591 0.557530 0.208834 190 160 147
-0.565074 0.545250 0.239646 194 163 148
-0.541016 0.548721 0.231126 194 160 152
-0.533668 0.553616 0.221662 194 162 143
-0.563374 0.548497 0.229803 193 163 150
-0.546911 0.552562 0.221433 191 160 141
-0.534497 0.557674 0.209156 193 163 141
-0.505380 0.569440 0.344124 202 168 160
-0.494273 0.563949 0.346260 200 168 156
-0.484752 0.566318 0.365356 198 168 155
-0.496371 0.573839 0.362222 197 168 157
-0.510871 0.579590 0.365132 201 169 157
-0.413269 0.554026 0.167527 55 46 37
-0.402700 0.556185 0.166897 52 41 32
-0.459183 0.569023 -0.224027 101 86 68
-0.443184 0.577607 0.081192 101 86 64
-0.442595 0.573817 0.090462 109 86 66
-0.418462 0.539911 0.236555 163 144 129
-0.426318 0.544884 0.237740 162 146 133
-0.439310 0.546986 0.229975 136 122 107
-0.432884 0.548758 0.226149 167 149 137
-0.428125 0.546337 0.221079 167 149 137
-0.424772 0.553112 0.225029 100 87 75
-0.365996 0.574872 0.339536 146 122 102
-0.364759 0.566917 0.335355 82 69 57
-0.405624 0.578657 0.311490 111 95 77
-0.384130 0.591994 0.335272 162 136 119
-0.410123 0.578698 0.339778 162 139 115
-0.394142 0.583824 0.334165 161 138 115
-0.398042 0.587596 0.319716 134 115 94
-0.404083 0.589783 0.322110 143 122 100
-0.407860 0.584197 0.323604 147 123 104
-0.401105 0.578439 0.337267 165 142 121
-0.379988 0.583689 0.337920 163 139 117
-0.419844 0.538110 0.090962 64 50 40
-0.420081 0.526940 0.092714 103 86 61
-0.422891 0.546264 0.098828 116 94 75
-0.425273 0.538028 0.110698 103 89 67
-0.543542 0.570052 0.102991 189 154 147
-0.533655 0.568470 0.139975 185 157 145
-0.535980 0.568060 0.127130 188 159 147
-0.553799 0.567455 0.124180 182 157 146
-0.392083 0.550231 0.377003 82 69 59
-0.419185 0.549209 0.021126 102 80 65
-0.438930 0.564752 0.041548 108 89 69
-0.441059 0.566895 0.027084 98 81 58
-0.442406 0.578707 0.039713 94 73 52
-0.425300 0.547454 0.042682 111 89 77
-0.437795 0.551518 0.024829 75 59 45
-0.424324 0.548102 0.026304 108 86 70
-0.429254 0.544899 0.033275 116 97 77
-0.434848 0.546582 0.031985 93 74 57
-0.536666 0.574037 -0.088158 173 147 130
-0.543744 0.575303 -0.085017 173 147 130
-0.530285 0.575838 -0.105406 169 147 136
-0.500945 0.572291 -0.050142 100 83 74
-0.501186 0.571288 -0.021247 99 82 69
-0.485606 0.570051 -0.005589 85 69 52
-0.466837 0.536144 0.234059 88 79 58
-0.491814 0.567091 0.092340 121 104 86
-0.482943 0.566989 0.081516 109 93 70
-0.492541 0.564556 0.319878 196 168 157
-0.482742 0.553976 0.297597 165 139 127
-0.499444 0.563544 0.312943 197 170 158
-0.471622 0.556440 0.319428 157 130 120
-0.475185 0.554911 0.332010 173 143 133
-0.490942 0.562769 0.334636 188 158 147
-0.482290 0.558378 0.316613 196 167 156
-0.478613 0.552753 0.339440 177 148 138
-0.575009 0.561779 0.164357 189 159 150
-0.574626 0.561266 0.183666 190 160 145
-0.579566 0.563136 0.149455 187 158 150
-0.399440 0.529230 0.241887 51 43 38
-0.408960 0.529050 0.248976 96 82 74
-0.417376 0.542607 0.253632 142 126 108
-0.555213 0.575705 -0.039286 176 150 135
-0.573026 0.569276 0.097353 186 158 143
-0.569287 0.552911 0.223012 192 164 144
-0.427160 0.505859 0.174801 67 55 44
-0.424742 0.496610 0.170371 41 34 28
-0.517113 0.578143 0.375276 202 170 158
-0.525433 0.566738 0.387813 152 127 121
-0.532863 0.569234 0.377111 199 168 154
-0.514539 0.567586 0.386939 152 129 120
-0.481719 0.565561 -0.138636 106 89 72
-0.490867 0.566336 -0.141961 99 83 63
-0.477315 0.567367 -0.117238 129 117 97
-0.484690 0.564345 -0.118781 102 88 71
-0.445473 0.578426 0.051262 93 73 54
-0.475541 0.577029 -0.289737 113 105 88
-0.454197 0.562971 0.324542 113 89 72
-0.473100 0.555016 0.309995 138 115 101
-0.459116 0.557177 0.309752 137 112 103
-0.448505 0.569287 0.331322 148 124 106
-0.460474 0.563021 0.330877 130 105 92
-0.451418 0.560441 0.306076 105 80 65
-0.472140 0.567723 -0.175901 93 79 61
-0.488701 0.567438 -0.180510 109 97 83
-0.504921 0.572693 -0.158075 105 89 72
-0.485355 0.567448 -0.158694 94 78 67
-0.488115 0.549858 0.217156 86 73 60
-0.502223 0.554274 0.208272 93 80 68
-0.472208 0.543786 0.222865 90 74 62
-0.457305 0.535473 0.095880 152 122 109
-0.525198 0.544686 0.257618 184 151 135
-0.536487 0.546134 0.243460 196 162 153
-0.503263 0.546707 0.234476 145 125 109
-0.507799 0.547380 0.255470 164 138 128
-0.526510 0.549858 0.274990 173 146 137
-0.516847 0.574097 0.352883 199 169 154
-0.535238 0.565220 0.350640 201 170 157
-0.528130 0.571437 0.365763 201 171 159
-0.507334 0.575441 0.355825 200 169 158
-0.510181 0.563386 0.101018 127 105 87
-0.475580 0.553172 0.110953 106 90 75
-0.494462 0.563688 0.104619 122 104 85
-0.474260 0.560187 0.079843 140 114 97
-0.472507 0.555747 0.089565 164 135 121
-0.483781 0.555661 0.109000 143 115 100
-0.465729 0.544327 0.098982 163 134 121
-0.475602 0.560828 0.094287 163 134 121
-0.481869 0.561499 0.089277 111 93 74
-0.462088 0.543508 0.213226 68 59 44
-0.446523 0.543500 0.233691 105 86 76
-0.442728 0.586869 -0.171181 49 38 24
-0.437214 0.579642 -0.171506 62 51 36
-0.437025 0.590846 -0.176091 49 38 24
-0.420137 0.522105 0.175561 69 56 45
-0.477794 0.564509 -0.036078 75 65 51
-0.491959 0.567847 -0.033661 79 68 53
-0.474317 0.565138 -0.015630 68 54 42
-0.437211 0.552368 0.138616 94 81 63
-0.423919 0.548215 0.112925 99 81 66
-0.422387 0.543270 0.119773 117 96 79
-0.421321 0.556646 0.127638 91 75 59
-0.433359 0.555561 0.127495 100 83 68
-0.445260 0.566419 0.144550 45 36 28
-0.428862 0.559320 0.135290 106 87 72
-0.441215 0.568880 0.133532 97 83 65
-0.428750 0.548746 0.117117 118 96 78
-0.439464 0.552488 0.111412 111 92 77
-0.436540 0.551326 0.133507 91 73 57
-0.439824 0.561777 0.136216 101 86 64
-0.457473 0.576846 -0.293946 94 81 62
-0.455691 0.573368 -0.284240 85 75 58
-0.469644 0.577116 -0.277992 95 84 71
-0.453031 0.591077 -0.289796 102 91 75
-0.453054 0.581198 -0.279243 97 88 73
-0.456474 0.573216 -0.273435 91 78 65
-0.420518 0.507572 0.082677 57 49 33
-0.514313 0.567138 0.131312 154 128 115
-0.522132 0.565685 0.139643 166 139 127
-0.444507 0.568055 0.060827 92 73 55
-0.461726 0.567923 0.072507 131 105 94
-0.459298 0.571992 0.047555 129 106 90
-0.450237 0.568210 0.051207 86 67 53
-0.446175 0.569732 0.074069 94 73 60
-0.460571 0.567944 0.058281 130 106 93
-0.468025 0.559467 0.060247 145 119 107
-0.456642 0.562359 0.080297 117 90 77
-0.468136 0.553741 0.073550 158 130 115
-0.476697 0.561965 0.074964 156 130 114
-0.457550 0.547782 0.075918 128 101 88
-0.462467 0.562141 0.077908 125 100 85
-0.465261 0.539966 0.083631 151 126 109
-0.471033 0.569380 0.075502 125 105 89
-0.491782 0.571350 -0.242170 101 89 71
-0.482236 0.572935 -0.227836 76 67 50
-0.482120 0.570662 -0.241042 93 78 66
-0.492466 0.571883 -0.215465 88 77 62
-0.488904 0.569580 -0.208277 95 88 66
-0.406988 0.547700 0.165015 56 45 35
-0.406773 0.541919 0.177959 39 34 29
-0.406565 0.555670 0.175553 42 36 30
-0.387417 0.562799 0.371483 82 70 59
-0.463811 0.556021 0.346039 146 128 105
-0.464938 0.550549 0.354623 140 120 101
-0.455901 0.557035 0.363769 155 134 112
-0.450319 0.558224 0.352143 157 135 114
-0.454372 0.569813 0.340617 153 132 112
-0.466360 0.556557 0.368279 151 131 110
-0.445809 0.563501 0.355305 151 129 111
-0.451254 0.557938 0.364419 149 126 113
-0.510548 0.571601 -0.097749 111 89 78
-0.494956 0.567950 -0.110191 107 88 73
-0.501772 0.570421 -0.087667 107 91 75
-0.427421 0.570675 -0.080910 57 44 37
-0.439531 0.553267 -0.059163 88 72 50
-0.430391 0.542841 -0.068677 97 78 60
-0.429214 0.549681 -0.063759 82 68 53
-0.434361 0.542780 -0.060668 85 69 51
-0.545201 0.543388 0.264972 195 165 151
-0.556208 0.540739 0.271678 192 164 151
-0.553862 0.545095 0.250623 191 163 152
-0.430554 0.542735 0.041435 115 93 75
-0.428984 0.538470 0.024832 103 82 65
-0.395062 0.573232 0.353062 126 107 91
-0.391410 0.606875 0.341921 163 141 120
-0.389584 0.593632 0.339691 164 140 118
-0.398781 0.597035 0.338802 155 134 111
-0.379822 0.579431 0.345836 143 123 103
-0.392392 0.598579 0.345174 154 131 112
-0.385567 0.580555 0.350493 126 106 91
-0.396244 0.590187 0.347932 83 70 61
-0.545609 0.578300 0.059365 185 155 144
-0.530170 0.576922 0.077831 183 154 138
-0.513948 0.569850 0.088463 139 119 101
-0.520981 0.577373 0.067127 180 151 134
-0.511877 0.573491 0.062580 129 107 89
-0.475430 0.543235 0.208239 95 82 65
-0.457466 0.545611 0.195257 90 76 62
-0.463435 0.545076 0.200694 90 77 61
-0.453747 0.568889 -0.206826 86 73 61
-0.450115 0.565126 -0.179487 80 67 52
-0.460623 0.566875 -0.190435 99 83 66
-0.453965 0.521721 0.162501 101 86 64
-0.448454 0.512118 0.154436 100 89 66
-0.452379 0.521866 0.173167 105 86 71
-0.436233 0.522145 0.147902 86 70 55
-0.447579 0.526531 0.148009 90 71 57
-0.452448 0.528502 0.179866 93 81 65
-0.456247 0.523219 0.144900 97 77 61
-0.465855 0.531628 0.152260 94 70 60
-0.463284 0.536113 0.165085 96 82 66
-0.455134 0.513039 0.153797 104 83 68
-0.440442 0.547172 -0.036809 87 67 47
-0.440845 0.562907 -0.022277 84 72 52
-0.430326 0.536548 -0.020094 80 67 50
-0.431537 0.547395 -0.018778 75 63 52
-0.443737 0.561028 -0.015379 101 86 62
-0.384063 0.555440 0.258166 88 78 62
-0.390486 0.568239 0.260479 87 77 62
-0.393808 0.554535 0.256246 78 67 49
-0.401210 0.551470 0.258878 99 84 71
-0.405455 0.564893 0.258438 128 114 95
-0.400997 0.568238 0.263560 126 113 93
-0.393650 0.572116 0.261102 129 115 94
-0.403082 0.566912 0.270901 128 116 95
