ply
format ascii 1.0
element vertex 1255
property float x
property float y
property float z
property uchar red
property uchar green
property uchar blue
end_header
0.919022 -0.609824 -0.052610 255 125 0
0.894007 -0.665012 -0.146610 255 125 0
0.926234 -0.633848 -0.130610 255 125 0
0.916631 -0.664394 -0.136610 255 125 0
0.896333 -0.654073 -0.048746 255 125 0
0.881976 -0.659201 -0.134610 255 125 0
0.925779 -0.635796 -0.110610 255 125 0
0.889762 -0.665749 -0.092610 255 125 0
0.932002 -0.647342 -0.108610 255 125 0
0.915385 -0.656079 -0.092610 255 125 0
0.901152 -0.612160 -0.048440 255 125 0
0.929102 -0.654905 -0.094610 255 125 0
0.934554 -0.635617 -0.070610 255 125 0
0.886299 -0.662803 -0.078610 255 125 0
0.933189 -0.633282 -0.140610 255 125 0
0.876203 -0.639571 -0.056610 255 125 0
0.926220 -0.650203 -0.050610 255 125 0
0.887856 -0.655475 -0.112610 255 125 0
0.931005 -0.625624 -0.068610 255 125 0
0.902682 -0.639066 -0.054610 255 125 0
0.907104 -0.656363 -0.148610 255 125 0
0.889415 -0.609665 -0.051688 255 125 0
0.917781 -0.654543 -0.112610 255 125 0
0.921008 -0.624559 -0.051996 255 125 0
0.931746 -0.649333 -0.074610 255 125 0
0.924185 -0.657949 -0.058610 255 125 0
0.933684 -0.637477 -0.122610 255 125 0
0.898470 -0.658617 -0.066610 255 125 0
0.912185 -0.656445 -0.132610 255 125 0
0.911765 -0.658427 -0.076610 255 125 0
0.933455 -0.633338 -0.082165 255 125 0
0.915179 -0.661600 -0.054610 255 125 0
0.882405 -0.652263 -0.078610 255 125 0
0.926652 -0.631892 -0.150610 255 125 0
0.932647 -0.643390 -0.142610 255 125 0
0.884374 -0.652619 -0.120610 255 125 0
0.887792 -0.648169 -0.048610 255 125 0
0.879535 -0.656142 -0.102610 255 125 0
0.910157 -0.665985 -0.060610 255 125 0
0.889632 -0.656739 -0.091571 255 125 0
0.915405 -0.656083 -0.146610 255 125 0
0.912059 -0.666665 -0.112610 255 125 0
0.926381 -0.658416 -0.080610 255 125 0
0.923174 -0.623991 -0.130610 255 125 0
0.903418 -0.668838 -0.070610 255 125 0
0.932839 -0.643431 -0.086610 255 125 0
0.930289 -0.626532 -0.120610 255 125 0
0.891545 -0.628520 -0.048610 255 125 0
0.888133 -0.663792 -0.140610 255 125 0
0.895585 -0.667212 -0.108610 255 125 0
0.897663 -0.657436 -0.084610 255 125 0
0.927076 -0.629938 -0.088610 255 125 0
0.924546 -0.641668 -0.122610 255 125 0
0.905851 -0.667009 -0.138610 255 125 0
0.929948 -0.650995 -0.116610 255 125 0
0.918391 -0.646494 -0.055595 255 125 0
0.897663 -0.657436 -0.124610 255 125 0
0.924875 -0.644844 -0.098610 255 125 0
0.926373 -0.657038 -0.140610 255 125 0
0.923716 -0.645581 -0.084610 255 125 0
0.877393 -0.646983 -0.144610 255 125 0
0.921482 -0.636928 -0.054610 255 125 0
0.898364 -0.615656 -0.055524 255 125 0
0.885195 -0.653751 -0.066610 255 125 0
0.925135 -0.624384 -0.076610 255 125 0
0.899553 -0.667783 -0.078610 255 125 0
0.922055 -0.619631 -0.108610 255 125 0
0.913995 -0.667175 -0.098610 255 125 0
0.889803 -0.664954 -0.124610 255 125 0
0.885795 -0.617074 -0.048341 255 125 0
0.888292 -0.653423 -0.146610 255 125 0
0.918664 -0.664447 -0.128610 255 125 0
0.914268 -0.666064 -0.082610 255 125 0
0.904158 -0.655737 -0.048940 255 125 0
0.895591 -0.667181 -0.116610 255 125 0
0.915971 -0.619399 -0.057525 255 125 0
0.899366 -0.630182 -0.048759 255 125 0
0.878556 -0.631893 -0.048598 255 125 0
0.883007 -0.620571 -0.055579 255 125 0
0.923761 -0.645591 -0.138610 255 125 0
0.907859 -0.657564 -0.090610 255 125 0
0.893746 -0.656623 -0.132610 255 125 0
0.926132 -0.638928 -0.076610 255 125 0
0.919305 -0.651812 -0.132610 255 125 0
0.894329 -0.625022 -0.055582 255 125 0
0.922079 -0.619520 -0.066610 255 125 0
0.923701 -0.661935 -0.068610 255 125 0
0.904773 -0.608840 -0.054610 255 125 0
0.886238 -0.663085 -0.102610 255 125 0
0.887151 -0.658787 -0.056610 255 125 0
0.884358 -0.652691 -0.130610 255 125 0
0.919899 -0.663172 -0.112610 255 125 0
0.926768 -0.617604 -0.140610 255 125 0
0.920138 -0.647891 -0.064610 255 125 0
0.927788 -0.621516 -0.100610 255 125 0
0.918226 -0.613744 -0.128610 255 125 0
0.880060 -0.648570 -0.112610 255 125 0
0.905449 -0.659284 -0.106610 255 125 0
0.885280 -0.663992 -0.086610 255 125 0
0.893310 -0.658675 -0.098610 255 125 0
0.912181 -0.608370 -0.055584 255 125 0
0.902437 -0.659460 -0.114610 255 125 0
0.926338 -0.637960 -0.049048 255 125 0
0.924718 -0.626345 -0.112610 255 125 0
0.928339 -0.618931 -0.086610 255 125 0
0.933390 -0.629235 -0.074610 255 125 0
0.914139 -0.656877 -0.118610 255 125 0
0.920514 -0.617265 -0.096610 255 125 0
0.877509 -0.654162 -0.066610 255 125 0
0.879333 -0.647475 -0.126610 255 125 0
0.901610 -0.667722 -0.146610 255 125 0
0.877636 -0.626598 -0.054610 255 125 0
0.919383 -0.612969 -0.144610 255 125 0
0.931055 -0.649186 -0.100610 255 125 0
0.918198 -0.613738 -0.104610 255 125 0
0.886210 -0.663221 -0.070610 255 125 0
0.905821 -0.647912 -0.055595 255 125 0
0.897475 -0.667937 -0.092610 255 125 0
0.888667 -0.651660 -0.056610 255 125 0
0.916387 -0.617442 -0.049948 255 125 0
0.894375 -0.614808 -0.048610 255 125 0
0.901742 -0.667103 -0.132610 255 125 0
0.882415 -0.652216 -0.086610 255 125 0
0.922596 -0.655567 -0.147230 255 125 0
0.906190 -0.617320 -0.049473 255 125 0
0.886380 -0.633556 -0.048906 255 125 0
0.907068 -0.642043 -0.049210 255 125 0
0.933483 -0.637434 -0.096610 255 125 0
0.887506 -0.637884 -0.055602 255 125 0
0.923425 -0.661282 -0.106610 255 125 0
0.887628 -0.627687 -0.055546 255 125 0
0.906822 -0.662437 -0.153431 255 125 0
0.897164 -0.650161 -0.055536 255 125 0
0.924966 -0.639713 -0.134610 255 125 0
0.896146 -0.664570 -0.058610 255 125 0
0.921547 -0.612405 -0.067511 255 125 0
0.929665 -0.622310 -0.108114 255 125 0
0.926623 -0.631886 -0.080610 255 125 0
0.923579 -0.614882 -0.150610 255 125 0
0.932209 -0.629583 -0.134610 255 125 0
0.915614 -0.664306 -0.148610 255 125 0
0.925408 -0.637762 -0.066610 255 125 0
0.931337 -0.645156 -0.150610 255 125 0
0.920057 -0.624357 -0.060610 255 125 0
0.882843 -0.650202 -0.104610 255 125 0
0.926587 -0.642102 -0.114610 255 125 0
0.928354 -0.628479 -0.056610 255 125 0
0.909148 -0.632261 -0.055602 255 125 0
0.880148 -0.653261 -0.054610 255 125 0
0.892297 -0.663439 -0.153455 255 125 0
0.920392 -0.663277 -0.084610 255 125 0
0.928125 -0.619937 -0.133465 255 125 0
0.923377 -0.659822 -0.124610 255 125 0
0.921547 -0.612405 -0.118622 255 125 0
0.921662 -0.650340 -0.108610 255 125 0
0.932709 -0.636847 -0.114610 255 125 0
0.895154 -0.645644 -0.048610 255 125 0
0.876559 -0.656004 -0.078610 255 125 0
0.899289 -0.638344 -0.048610 255 125 0
0.883111 -0.653308 -0.096610 255 125 0
0.911422 -0.655236 -0.064610 255 125 0
0.884555 -0.661386 -0.128610 255 125 0
0.913889 -0.658051 -0.048610 255 125 0
0.913038 -0.657624 -0.106610 255 125 0
0.926568 -0.642098 -0.092610 255 125 0
0.900467 -0.659042 -0.100610 255 125 0
0.932379 -0.631065 -0.126610 255 125 0
0.922093 -0.648314 -0.124610 255 125 0
0.927170 -0.634047 -0.103511 255 125 0
0.922672 -0.616734 -0.089598 255 125 0
0.904484 -0.668074 -0.124610 255 125 0
0.917732 -0.654533 -0.076610 255 125 0
0.931621 -0.622725 -0.075131 255 125 0
0.896508 -0.658200 -0.138610 255 125 0
0.931319 -0.645153 -0.060610 255 125 0
0.908980 -0.666985 -0.106610 255 125 0
0.877793 -0.645104 -0.066610 255 125 0
0.901558 -0.658348 -0.152610 255 125 0
0.883665 -0.661604 -0.064610 255 125 0
0.916347 -0.613345 -0.136610 255 125 0
0.877821 -0.654591 -0.118610 255 125 0
0.908855 -0.624020 -0.055589 255 125 0
0.925137 -0.624374 -0.084610 255 125 0
0.918470 -0.665361 -0.070610 255 125 0
0.876578 -0.650817 -0.098610 255 125 0
0.904526 -0.625145 -0.048938 255 125 0
0.924727 -0.626301 -0.066610 255 125 0
0.920775 -0.663358 -0.092610 255 125 0
0.926260 -0.628709 -0.126610 255 125 0
0.875644 -0.645587 -0.058998 255 125 0
0.879678 -0.616994 -0.050610 255 125 0
0.932846 -0.631164 -0.152610 255 125 0
0.930736 -0.626889 -0.142610 255 125 0
0.897873 -0.656446 -0.157586 255 125 0
0.929412 -0.634524 -0.054610 255 125 0
0.933521 -0.643576 -0.102610 255 125 0
0.931215 -0.624684 -0.090610 255 125 0
0.931882 -0.643228 -0.134610 255 125 0
0.928450 -0.620007 -0.122610 255 125 0
0.879355 -0.656599 -0.090610 255 125 0
0.913769 -0.639378 -0.049540 255 125 0
0.898998 -0.660774 -0.049502 255 125 0
0.926736 -0.652357 -0.056610 255 125 0
0.896326 -0.639759 -0.054610 255 125 0
0.926461 -0.627763 -0.097658 255 125 0
0.919760 -0.630428 -0.055396 255 125 0
0.923960 -0.625186 -0.148610 255 125 0
0.933196 -0.629194 -0.104610 255 125 0
0.893306 -0.658688 -0.146610 255 125 0
0.907737 -0.667757 -0.094610 255 125 0
0.913927 -0.667494 -0.074610 255 125 0
0.890832 -0.622234 -0.049184 255 125 0
0.895622 -0.667038 -0.130610 255 125 0
0.876477 -0.641674 -0.049982 255 125 0
0.924200 -0.619103 -0.056610 255 125 0
0.890048 -0.654782 -0.049197 255 125 0
0.926284 -0.633859 -0.138610 255 125 0
0.930980 -0.651215 -0.068610 255 125 0
0.911936 -0.628764 -0.049356 255 125 0
0.899543 -0.667829 -0.102610 255 125 0
0.901524 -0.668126 -0.118610 255 125 0
0.895587 -0.667203 -0.066610 255 125 0
0.878155 -0.653013 -0.148610 255 125 0
0.929721 -0.652992 -0.110610 255 125 0
0.929502 -0.652945 -0.130610 255 125 0
0.919931 -0.648866 -0.048622 255 125 0
0.889835 -0.655783 -0.118610 255 125 0
0.911752 -0.658485 -0.124610 255 125 0
0.914601 -0.635465 -0.055516 255 125 0
0.903520 -0.658739 -0.138610 255 125 0
0.917831 -0.610648 -0.098610 255 125 0
0.915002 -0.658042 -0.098610 255 125 0
0.920494 -0.651030 -0.086610 255 125 0
0.923346 -0.647547 -0.144610 255 125 0
0.905483 -0.659120 -0.076610 255 125 0
0.891771 -0.665917 -0.078610 255 125 0
0.882835 -0.659857 -0.142610 255 125 0
0.915262 -0.613114 -0.058283 255 125 0
0.911315 -0.660545 -0.082610 255 125 0
0.914351 -0.665497 -0.142610 255 125 0
0.924443 -0.623244 -0.118610 255 125 0
0.891371 -0.610080 -0.057590 255 125 0
0.926733 -0.616867 -0.096610 255 125 0
0.931644 -0.632238 -0.146610 255 125 0
0.920509 -0.617290 -0.076610 255 125 0
0.928347 -0.618892 -0.066610 255 125 0
0.931899 -0.626874 -0.062610 255 125 0
0.919099 -0.652779 -0.119658 255 125 0
0.902238 -0.664771 -0.056610 255 125 0
0.882412 -0.652231 -0.136610 255 125 0
0.902863 -0.632970 -0.055570 255 125 0
0.900367 -0.644708 -0.055566 255 125 0
0.925839 -0.630693 -0.144610 255 125 0
0.906692 -0.658320 -0.128610 255 125 0
0.885288 -0.643547 -0.054610 255 125 0
0.885236 -0.614910 -0.054610 255 125 0
0.921887 -0.649282 -0.101644 255 125 0
0.883145 -0.653315 -0.072610 255 125 0
0.882817 -0.659945 -0.106610 255 125 0
0.881110 -0.648731 -0.050610 255 125 0
0.921674 -0.650280 -0.070610 255 125 0
0.889925 -0.664980 -0.117248 255 125 0
0.908901 -0.652656 -0.053296 255 125 0
0.928111 -0.620003 -0.080610 255 125 0
0.907805 -0.648333 -0.048610 255 125 0
0.909811 -0.667617 -0.086610 255 125 0
0.921438 -0.618516 -0.114610 255 125 0
0.927047 -0.644245 -0.049100 255 125 0
0.926338 -0.637960 -0.149610 255 125 0
0.933885 -0.637519 -0.064610 255 125 0
0.891336 -0.658345 -0.106610 255 125 0
0.927005 -0.640146 -0.102610 255 125 0
0.912990 -0.657614 -0.070610 255 125 0
0.932579 -0.641331 -0.110610 255 125 0
0.761934 -0.641864 -0.050845 255 0 0
0.771763 -0.672578 -0.155530 255 0 0
0.789595 -0.637520 -0.106610 255 0 0
0.749961 -0.678955 -0.094610 255 0 0
0.790419 -0.671384 -0.072610 255 0 0
0.775241 -0.627361 -0.148610 255 0 0
0.785619 -0.677568 -0.116610 255 0 0
0.755491 -0.679343 -0.056610 255 0 0
0.740305 -0.672026 -0.136610 255 0 0
0.787651 -0.636308 -0.072610 255 0 0
0.795219 -0.653028 -0.138610 255 0 0
0.736047 -0.657838 -0.060610 255 0 0
0.788075 -0.653554 -0.049169 255 0 0
0.759225 -0.683470 -0.120610 255 0 0
0.775926 -0.681854 -0.092610 255 0 0
0.794596 -0.661074 -0.096610 255 0 0
0.777408 -0.674878 -0.050610 255 0 0
0.782675 -0.636049 -0.128610 255 0 0
0.787750 -0.674317 -0.138610 255 0 0
0.744148 -0.672843 -0.074610 255 0 0
0.771405 -0.683879 -0.070610 255 0 0
0.786706 -0.655308 -0.118610 255 0 0
0.757396 -0.682450 -0.142610 255 0 0
0.781790 -0.654263 -0.155570 255 0 0
0.740992 -0.639457 -0.052610 255 0 0
0.774080 -0.628088 -0.084610 255 0 0
0.753863 -0.660595 -0.051006 255 0 0
0.772869 -0.628900 -0.060610 255 0 0
0.794928 -0.652966 -0.078610 255 0 0
0.771718 -0.658256 -0.056610 255 0 0
0.775042 -0.628292 -0.113666 255 0 0
0.770388 -0.674331 -0.132610 255 0 0
0.769979 -0.676289 -0.108610 255 0 0
0.787924 -0.639209 -0.146610 255 0 0
0.786035 -0.643911 -0.090610 255 0 0
0.782272 -0.666633 -0.086610 255 0 0
0.759341 -0.678117 -0.080610 255 0 0
0.779957 -0.643650 -0.059563 255 0 0
0.795143 -0.659146 -0.062610 255 0 0
0.775213 -0.683535 -0.144610 255 0 0
0.787614 -0.674964 -0.100610 255 0 0
0.750537 -0.676245 -0.109589 255 0 0
0.792912 -0.666850 -0.126610 255 0 0
0.743335 -0.670625 -0.056610 255 0 0
0.778254 -0.670900 -0.064610 255 0 0
0.778538 -0.631080 -0.099681 255 0 0
0.763088 -0.684536 -0.098610 255 0 0
0.793675 -0.664968 -0.110610 255 0 0
0.785164 -0.667248 -0.150778 255 0 0
0.787542 -0.651396 -0.104610 255 0 0
0.752881 -0.631761 -0.054610 255 0 0
0.793733 -0.646172 -0.126610 255 0 0
0.782568 -0.679462 -0.080610 255 0 0
0.766093 -0.670394 -0.058610 255 0 0
0.777292 -0.636949 -0.048202 255 0 0
0.773748 -0.682480 -0.120610 255 0 0
0.753485 -0.676872 -0.130610 255 0 0
0.743373 -0.652231 -0.050013 255 0 0
0.788876 -0.669025 -0.056610 255 0 0
0.792912 -0.646403 -0.064610 255 0 0
0.746624 -0.675414 -0.147498 255 0 0
0.785513 -0.661188 -0.136610 255 0 0
0.771555 -0.673558 -0.078610 255 0 0
0.780618 -0.669394 -0.126610 255 0 0
0.785863 -0.659218 -0.072610 255 0 0
0.757399 -0.682439 -0.068610 255 0 0
0.769684 -0.682360 -0.057650 255 0 0
0.793846 -0.665004 -0.082610 255 0 0
0.784701 -0.640569 -0.117502 255 0 0
0.785620 -0.645860 -0.136610 255 0 0
0.783132 -0.657571 -0.060610 255 0 0
0.782673 -0.664674 -0.104610 255 0 0
0.772840 -0.648271 -0.050027 255 0 0
0.781148 -0.680707 -0.130610 255 0 0
0.755943 -0.650814 -0.057584 255 0 0
0.794383 -0.663074 -0.144610 255 0 0
0.777076 -0.671663 -0.142610 255 0 0
0.786716 -0.655310 -0.086610 255 0 0
0.763238 -0.683827 -0.132610 255 0 0
0.764498 -0.677168 -0.048610 255 0 0
0.782452 -0.631912 -0.139467 255 0 0
0.781418 -0.636777 -0.082610 255 0 0
0.793651 -0.646560 -0.113706 255 0 0
0.769268 -0.684316 -0.083734 255 0 0
0.750788 -0.643584 -0.048610 255 0 0
0.780434 -0.662153 -0.050610 255 0 0
0.777590 -0.630879 -0.070610 255 0 0
0.786040 -0.634268 -0.060610 255 0 0
0.775882 -0.672438 -0.098610 255 0 0
0.766386 -0.630542 -0.051678 255 0 0
0.787544 -0.651397 -0.146610 255 0 0
0.786417 -0.647067 -0.074610 255 0 0
0.766790 -0.676738 -0.146610 255 0 0
0.783410 -0.665883 -0.116610 255 0 0
0.780297 -0.680526 -0.059674 255 0 0
0.794482 -0.648782 -0.096610 255 0 0
0.748764 -0.674967 -0.084610 255 0 0
0.748581 -0.675829 -0.064528 255 0 0
0.780385 -0.680115 -0.106610 255 0 0
0.763352 -0.654433 -0.050812 255 0 0
0.759592 -0.681742 -0.108610 255 0 0
0.782669 -0.678986 -0.069921 255 0 0
0.766782 -0.676774 -0.090610 255 0 0
0.790324 -0.671828 -0.090610 255 0 0
0.792399 -0.642205 -0.082610 255 0 0
0.770383 -0.640595 -0.056610 255 0 0
0.753741 -0.670792 -0.050791 255 0 0
0.794886 -0.657046 -0.128610 255 0 0
0.780624 -0.669368 -0.074610 255 0 0
0.751534 -0.676457 -0.120610 255 0 0
0.787747 -0.635860 -0.096610 255 0 0
0.769098 -0.665878 -0.050126 255 0 0
0.775878 -0.672460 -0.116610 255 0 0
0.776784 -0.663422 -0.154610 255 0 0
0.764836 -0.676310 -0.124610 255 0 0
0.764841 -0.676285 -0.066610 255 0 0
0.784358 -0.644585 -0.050610 255 0 0
0.743665 -0.660472 -0.055383 255 0 0
0.775676 -0.673410 -0.087655 255 0 0
0.782630 -0.631071 -0.120610 255 0 0
0.763483 -0.629925 -0.060610 255 0 0
0.748098 -0.678102 -0.138610 255 0 0
0.780653 -0.635619 -0.110610 255 0 0
0.759324 -0.683004 -0.088610 255 0 0
0.785457 -0.661176 -0.094610 255 0 0
0.785484 -0.661182 -0.126610 255 0 0
0.771461 -0.683619 -0.102610 255 0 0
0.766326 -0.683691 -0.114610 255 0 0
0.794372 -0.663071 -0.072610 255 0 0
0.751415 -0.680521 -0.076610 255 0 0
0.787508 -0.675461 -0.126610 255 0 0
0.761688 -0.662258 -0.055358 255 0 0
0.794945 -0.655014 -0.110610 255 0 0
0.793821 -0.664999 -0.135451 255 0 0
0.773522 -0.683545 -0.134610 255 0 0
0.762892 -0.675830 -0.102610 255 0 0
0.791279 -0.648101 -0.055920 255 0 0
0.791518 -0.670644 -0.118610 255 0 0
0.794060 -0.660960 -0.118610 255 0 0
0.787512 -0.675441 -0.062610 255 0 0
0.767146 -0.684682 -0.140610 255 0 0
0.787137 -0.653355 -0.130610 255 0 0
0.753155 -0.680891 -0.102610 255 0 0
0.794911 -0.652962 -0.088610 255 0 0
0.785860 -0.659217 -0.110610 255 0 0
0.780200 -0.652125 -0.052610 255 0 0
0.786049 -0.643846 -0.100610 255 0 0
0.775162 -0.666208 -0.056610 255 0 0
0.784689 -0.665102 -0.064610 255 0 0
0.790158 -0.672612 -0.108610 255 0 0
0.782225 -0.632980 -0.090610 255 0 0
0.785345 -0.642750 -0.066610 255 0 0
0.780836 -0.668373 -0.135619 255 0 0
0.790740 -0.660255 -0.055325 255 0 0
0.756406 -0.677493 -0.149537 255 0 0
0.763721 -0.677003 -0.138610 255 0 0
0.757653 -0.671624 -0.059562 255 0 0
0.790861 -0.640445 -0.132610 255 0 0
0.778253 -0.670905 -0.108610 255 0 0
0.758538 -0.677080 -0.094610 255 0 0
0.763560 -0.682312 -0.074610 255 0 0
0.786427 -0.647070 -0.122610 255 0 0
0.785825 -0.644897 -0.109579 255 0 0
0.774330 -0.675169 -0.124610 255 0 0
0.787122 -0.653351 -0.066610 255 0 0
0.793651 -0.646560 -0.143652 255 0 0
0.783742 -0.679214 -0.094610 255 0 0
0.763211 -0.683952 -0.062610 255 0 0
0.778123 -0.633037 -0.055680 255 0 0
0.794383 -0.652850 -0.120610 255 0 0
0.746577 -0.646778 -0.055395 255 0 0
0.795314 -0.655093 -0.070610 255 0 0
0.777619 -0.630885 -0.132610 255 0 0
0.792808 -0.666828 -0.102610 255 0 0
0.773071 -0.676046 -0.068610 255 0 0
0.786180 -0.659285 -0.148610 255 0 0
0.785475 -0.661180 -0.080610 255 0 0
0.787135 -0.653354 -0.096610 255 0 0
0.754109 -0.640200 -0.055349 255 0 0
0.766770 -0.647972 -0.056610 255 0 0
0.783588 -0.674662 -0.146610 255 0 0
0.773779 -0.683230 -0.110610 255 0 0
0.789113 -0.639053 -0.124610 255 0 0
0.780648 -0.635618 -0.146610 255 0 0
0.738506 -0.665509 -0.061576 255 0 0
0.793730 -0.646184 -0.104610 255 0 0
0.789628 -0.672286 -0.080610 255 0 0
0.780154 -0.681201 -0.138610 255 0 0
0.754941 -0.636288 -0.048248 255 0 0
0.794616 -0.654945 -0.102610 255 0 0
0.750032 -0.669000 -0.060610 255 0 0
0.751614 -0.651938 -0.050993 255 0 0
0.787138 -0.653355 -0.138610 255 0 0
0.778700 -0.630325 -0.078610 255 0 0
0.792410 -0.666743 -0.064610 255 0 0
0.783413 -0.665867 -0.142610 255 0 0
0.741586 -0.670254 -0.067644 255 0 0
0.761225 -0.635579 -0.055441 255 0 0
0.746747 -0.665216 -0.050008 255 0 0
0.792527 -0.642223 -0.074610 255 0 0
0.758568 -0.676941 -0.114610 255 0 0
0.775001 -0.683490 -0.078610 255 0 0
0.788087 -0.637199 -0.086610 255 0 0
0.787956 -0.641261 -0.056610 255 0 0
0.761982 -0.670499 -0.051335 255 0 0
0.781042 -0.667400 -0.094610 255 0 0
0.781058 -0.628850 -0.062610 255 0 0
0.776507 -0.669497 -0.150020 255 0 0
0.750366 -0.657807 -0.057602 255 0 0
0.794207 -0.654857 -0.146610 255 0 0
0.784381 -0.669126 -0.050610 255 0 0
0.787137 -0.653355 -0.078610 255 0 0
0.789487 -0.670212 -0.144610 255 0 0
0.747891 -0.636834 -0.050610 255 0 0
0.784415 -0.638463 -0.136610 255 0 0
0.787167 -0.648206 -0.084610 255 0 0
0.769498 -0.683236 -0.126610 255 0 0
0.767317 -0.683876 -0.092610 255 0 0
0.771136 -0.675529 -0.140610 255 0 0
0.768975 -0.676075 -0.097582 255 0 0
0.766809 -0.676645 -0.116610 255 0 0
0.787461 -0.661602 -0.048610 255 0 0
0.782622 -0.650350 -0.061580 255 0 0
0.743749 -0.669700 -0.142610 255 0 0
0.770784 -0.677184 -0.052610 255 0 0
0.780297 -0.680526 -0.123096 255 0 0
0.782225 -0.637998 -0.102610 255 0 0
0.763399 -0.683069 -0.147447 255 0 0
0.793345 -0.664898 -0.090610 255 0 0
0.752949 -0.680848 -0.084610 255 0 0
0.756774 -0.646901 -0.051167 255 0 0
0.787579 -0.651404 -0.112610 255 0 0
0.754648 -0.676138 -0.070610 255 0 0
0.739876 -0.649443 -0.055593 255 0 0
0.777292 -0.636949 -0.061593 255 0 0
0.783526 -0.674953 -0.056610 255 0 0
0.754652 -0.676126 -0.140610 255 0 0
0.757390 -0.682482 -0.128610 255 0 0
0.782645 -0.636042 -0.066610 255 0 0
0.775728 -0.682782 -0.064610 255 0 0
0.775258 -0.656964 -0.050610 255 0 0
0.793081 -0.646439 -0.136610 255 0 0
0.770402 -0.635485 -0.048610 255 0 0
0.766771 -0.676825 -0.082610 255 0 0
0.785310 -0.642743 -0.080610 255 0 0
0.785671 -0.677579 -0.086610 255 0 0
0.794501 -0.652182 -0.060610 255 0 0
0.759606 -0.629101 -0.052610 255 0 0
0.778731 -0.630180 -0.106610 255 0 0
0.753433 -0.681859 -0.116610 255 0 0
0.775010 -0.647684 -0.056610 255 0 0
0.775743 -0.630486 -0.140610 255 0 0
0.792783 -0.646376 -0.088610 255 0 0
0.780658 -0.635620 -0.074610 255 0 0
0.786082 -0.634074 -0.114610 255 0 0
0.738424 -0.656275 -0.052610 255 0 0
0.762275 -0.678740 -0.054940 255 0 0
0.774843 -0.677323 -0.147479 255 0 0
0.758362 -0.677909 -0.063564 255 0 0
0.793818 -0.648641 -0.072610 255 0 0
0.790976 -0.670528 -0.132610 255 0 0
0.760500 -0.677471 -0.132610 255 0 0
0.746624 -0.675414 -0.132514 255 0 0
0.779748 -0.680410 -0.114610 255 0 0
0.786046 -0.643862 -0.128610 255 0 0
0.750952 -0.674289 -0.056077 255 0 0
0.791275 -0.641966 -0.118610 255 0 0
0.772179 -0.670622 -0.061605 255 0 0
0.787781 -0.645313 -0.149593 255 0 0
0.769807 -0.633682 -0.056610 255 0 0
0.761518 -0.643820 -0.057565 255 0 0
0.761130 -0.684631 -0.080610 255 0 0
0.777710 -0.682021 -0.100610 255 0 0
0.755404 -0.662967 -0.057579 255 0 0
0.778048 -0.671869 -0.081581 255 0 0
0.760980 -0.655974 -0.057560 255 0 0
0.776736 -0.673635 -0.130610 255 0 0
0.785905 -0.659227 -0.102610 255 0 0
0.790640 -0.641485 -0.140610 255 0 0
0.758566 -0.676951 -0.122610 255 0 0
0.763292 -0.635475 -0.048610 255 0 0
0.775969 -0.681651 -0.084849 255 0 0
0.794653 -0.661086 -0.105198 255 0 0
0.789445 -0.637488 -0.079149 255 0 0
0.794900 -0.659923 -0.086610 255 0 0
0.745816 -0.658884 -0.048610 255 0 0
0.748079 -0.678191 -0.070610 255 0 0
0.790739 -0.641852 -0.094610 255 0 0
0.778000 -0.643234 -0.050890 255 0 0
0.741857 -0.645775 -0.050610 255 0 0
0.765215 -0.684146 -0.106610 255 0 0
0.776922 -0.667541 -0.050574 255 0 0
0.768046 -0.675878 -0.072610 255 0 0
0.788973 -0.639711 -0.112610 255 0 0
0.749198 -0.672926 -0.092610 255 0 0
0.779913 -0.663096 -0.060610 255 0 0
0.750732 -0.675330 -0.100610 255 0 0
0.789191 -0.639479 -0.062610 255 0 0
0.768389 -0.659593 -0.050950 255 0 0
0.769278 -0.684268 -0.064610 255 0 0
0.785285 -0.676301 -0.132610 255 0 0
0.764689 -0.648145 -0.050610 255 0 0
0.794894 -0.655003 -0.094610 255 0 0
0.757282 -0.682987 -0.096610 255 0 0
0.756603 -0.676560 -0.088610 255 0 0
0.792365 -0.668779 -0.096610 255 0 0
0.757066 -0.655142 -0.051017 255 0 0
0.778713 -0.635207 -0.116610 255 0 0
0.770175 -0.641571 -0.050287 255 0 0
0.790935 -0.639849 -0.100610 255 0 0
0.768557 -0.663718 -0.056610 255 0 0
0.760520 -0.677377 -0.144610 255 0 0
0.794698 -0.651256 -0.132610 255 0 0
0.777924 -0.682073 -0.072610 255 0 0
0.766356 -0.678779 -0.130610 255 0 0
0.782213 -0.637996 -0.094610 255 0 0
0.795068 -0.659130 -0.077536 255 0 0
0.775676 -0.673410 -0.073636 255 0 0
0.764415 -0.678289 -0.110610 255 0 0
0.795155 -0.658724 -0.134610 255 0 0
0.767524 -0.682902 -0.120610 255 0 0
0.757497 -0.675680 -0.050610 255 0 0
0.775882 -0.672435 -0.136610 255 0 0
0.782254 -0.666629 -0.110610 255 0 0
0.791239 -0.641959 -0.068610 255 0 0
0.760518 -0.677387 -0.072610 255 0 0
0.775432 -0.674557 -0.104610 255 0 0
0.749119 -0.663676 -0.055419 255 0 0
0.783442 -0.636873 -0.122610 255 0 0
0.772378 -0.674754 -0.092610 255 0 0
0.793065 -0.664838 -0.058610 255 0 0
0.779001 -0.657760 -0.055359 255 0 0
0.784503 -0.641502 -0.072610 255 0 0
0.756902 -0.681688 -0.136610 255 0 0
0.793543 -0.647068 -0.078610 255 0 0
0.782244 -0.661743 -0.152610 255 0 0
0.768362 -0.671855 -0.050610 255 0 0
0.785011 -0.677439 -0.110610 255 0 0
0.788543 -0.647519 -0.068610 255 0 0
0.782645 -0.664668 -0.122610 255 0 0
0.782655 -0.664670 -0.130610 255 0 0
0.747286 -0.653063 -0.055561 255 0 0
0.786842 -0.675783 -0.074610 255 0 0
0.769637 -0.653724 -0.050605 255 0 0
0.785855 -0.659216 -0.142610 255 0 0
0.775807 -0.682412 -0.126610 255 0 0
0.779871 -0.668168 -0.100610 255 0 0
0.763179 -0.684106 -0.068610 255 0 0
0.763268 -0.683689 -0.126610 255 0 0
0.747823 -0.640909 -0.055501 255 0 0
0.757379 -0.682535 -0.074610 255 0 0
0.790031 -0.653970 -0.055852 255 0 0
0.784701 -0.665105 -0.072610 255 0 0
0.748753 -0.675021 -0.078610 255 0 0
0.787522 -0.675395 -0.068610 255 0 0
0.759599 -0.681705 -0.102610 255 0 0
0.786409 -0.647066 -0.116610 255 0 0
0.787166 -0.653361 -0.072610 255 0 0
0.782264 -0.666632 -0.080610 255 0 0
0.758648 -1.013244 -0.000610 0 255 255
0.797895 -0.847841 0.272290 0 255 255
0.854648 -0.840567 -0.148610 0 255 255
0.867292 -0.838797 0.067390 0 255 255
0.726485 -0.914450 0.134481 0 255 255
0.897722 -0.950848 -0.042610 0 255 255
0.785978 -0.990481 -0.151499 0 255 255
0.847072 -0.972402 0.097390 0 255 255
0.813565 -0.947272 0.208397 0 255 255
0.820151 -0.791232 -0.029521 0 255 255
0.682968 -0.931781 0.023390 0 255 255
0.809759 -0.849743 0.159390 0 255 255
0.875550 -0.940001 -0.142610 0 255 255
0.893934 -0.851898 -0.056610 0 255 255
0.733656 -0.924153 0.261390 0 255 255
0.828377 -1.012255 -0.066610 0 255 255
0.753659 -0.988613 0.087390 0 255 255
0.897996 -0.920236 0.043390 0 255 255
0.853503 -0.999862 0.015390 0 255 255
0.791240 -0.807578 0.079390 0 255 255
0.864319 -0.896720 0.123390 0 255 255
0.742694 -1.001727 -0.085907 0 255 255
0.845772 -0.911180 0.270642 0 255 255
0.785002 -0.956590 0.143390 0 255 255
0.872648 -0.823211 0.001390 0 255 255
0.793463 -0.955267 0.272447 0 255 255
0.704938 -0.977345 -0.021448 0 255 255
0.846765 -0.810315 -0.088610 0 255 255
0.750670 -0.925725 0.196424 0 255 255
0.835112 -0.884378 0.210079 0 255 255
0.901861 -0.906745 -0.092610 0 255 255
0.707046 -0.945078 0.081390 0 255 255
0.800174 -1.010263 0.049390 0 255 255
0.750366 -0.869435 0.235390 0 255 255
0.907546 -0.893640 -0.012610 0 255 255
0.841829 -0.990084 -0.124610 0 255 255
0.719650 -0.985089 0.037390 0 255 255
0.824301 -0.800564 0.029390 0 255 255
0.839951 -0.938568 0.155534 0 255 255
0.828610 -0.838013 0.108417 0 255 255
0.880841 -0.965662 -0.092610 0 255 255
0.812663 -1.018849 -0.014610 0 255 255
0.882210 -0.886210 -0.140610 0 255 255
0.891618 -0.961818 0.009390 0 255 255
0.895822 -0.868103 0.033390 0 255 255
0.867141 -0.993420 -0.035107 0 255 255
0.791939 -1.010534 -0.104610 0 255 255
0.778031 -1.018249 -0.052610 0 255 255
0.879801 -0.932726 0.089390 0 255 255
0.878998 -0.846678 -0.104610 0 255 255
0.871499 -0.972917 0.053390 0 255 255
0.886440 -0.883020 0.079390 0 255 255
0.801786 -0.991796 0.097390 0 255 255
0.796798 -0.857832 0.223390 0 255 255
0.863970 -0.815947 -0.044610 0 255 255
0.838870 -0.891311 0.163390 0 255 255
0.741879 -0.957466 0.123390 0 255 255
0.772774 -0.946781 0.231751 0 255 255
0.735083 -1.006243 -0.040610 0 255 255
0.829012 -0.874597 0.253390 0 255 255
0.758026 -1.006552 0.043390 0 255 255
0.831227 -0.816077 0.068613 0 255 255
0.746833 -0.886060 0.273684 0 255 255
0.817098 -0.930647 0.247390 0 255 255
0.779488 -0.953679 0.185390 0 255 255
0.837937 -0.995391 0.063390 0 255 255
0.900607 -0.908522 -0.050610 0 255 255
0.895923 -0.854365 -0.014610 0 255 255
0.862808 -0.859886 0.103390 0 255 255
0.821702 -0.966706 0.129390 0 255 255
0.840069 -0.920191 0.191390 0 255 255
0.750941 -0.938050 0.157390 0 255 255
0.848608 -0.936319 0.116411 0 255 255
0.841067 -0.861107 0.137390 0 255 255
0.854625 -0.994849 -0.088610 0 255 255
0.855690 -0.821277 0.035390 0 255 255
0.905069 -0.931962 -0.010610 0 255 255
0.850410 -0.966315 -0.152610 0 255 255
0.700352 -0.964102 0.013390 0 255 255
0.760582 -0.999395 -0.120610 0 255 255
0.725388 -0.996571 0.003390 0 255 255
0.792639 -1.007240 0.013390 0 255 255
0.762559 -0.850554 0.264345 0 255 255
0.773854 -0.970564 0.111390 0 255 255
0.794228 -0.826615 0.109986 0 255 255
0.898533 -0.938752 -0.076610 0 255 255
0.699823 -0.953313 0.047390 0 255 255
0.723315 -0.975117 0.071390 0 255 255
0.811603 -0.955034 0.169390 0 255 255
0.891574 -0.873887 -0.084610 0 255 255
0.842969 -0.804261 -0.000610 0 255 255
0.820797 -0.985614 -0.152610 0 255 255
0.890725 -0.935048 -0.110610 0 255 255
0.758508 -0.946564 0.271390 0 255 255
0.814413 -0.863621 0.191390 0 255 255
0.872226 -0.830926 -0.074610 0 255 255
0.838067 -0.905453 0.237390 0 255 255
0.875082 -0.970571 -0.058610 0 255 255
0.868634 -0.967156 -0.124044 0 255 255
0.745047 -0.904083 0.236986 0 255 255
0.823279 -1.012722 0.025390 0 255 255
0.849959 -0.824148 -0.119991 0 255 255
0.840224 -0.999966 -0.016610 0 255 255
0.713084 -0.919780 0.104458 0 255 255
0.823560 -1.002558 -0.098610 0 255 255
0.781234 -0.993562 0.070437 0 255 255
0.904511 -0.899129 0.019390 0 255 255
0.874894 -0.985800 -0.004610 0 255 255
0.878161 -0.941575 0.057390 0 255 255
0.881799 -0.839095 0.029390 0 255 255
0.899107 -0.877533 -0.038610 0 255 255
0.781927 -1.019158 -0.020610 0 255 255
0.810578 -0.999799 -0.127237 0 255 255
0.814911 -0.792162 0.001390 0 255 255
0.771207 -1.011877 -0.081943 0 255 255
0.881680 -0.910633 0.067390 0 255 255
0.693184 -0.926831 0.061390 0 255 255
0.867172 -0.974028 0.023390 0 255 255
0.808566 -1.018885 -0.044610 0 255 255
0.845564 -0.912162 0.141390 0 255 255
0.730461 -0.958234 0.095390 0 255 255
0.873297 -0.858636 -0.132610 0 255 255
0.822221 -0.945023 0.273275 0 255 255
0.892836 -0.886424 -0.112610 0 255 255
0.891222 -0.933108 0.017390 0 255 255
0.870800 -0.904231 0.095390 0 255 255
0.874196 -0.912132 -0.152610 0 255 255
0.809756 -0.840139 0.131245 0 255 255
0.799501 -1.015847 -0.074610 0 255 255
0.879809 -0.837625 -0.032610 0 255 255
0.870297 -0.959331 0.081345 0 255 255
0.843411 -0.802310 -0.060610 0 255 255
0.850659 -0.994006 -0.059605 0 255 255
0.879167 -0.865116 0.057390 0 255 255
0.883448 -0.960082 -0.018610 0 255 255
0.740797 -0.914456 0.171390 0 255 255
0.896266 -0.891242 0.051390 0 255 255
0.832120 -0.928725 0.221390 0 255 255
0.883690 -0.911061 -0.124610 0 255 255
0.895506 -0.874723 0.005390 0 255 255
0.688182 -0.955381 -0.028610 0 255 255
0.810488 -0.990599 0.069390 0 255 255
0.845307 -0.836415 0.085390 0 255 255
0.772541 -0.851689 0.237390 0 255 255
0.810816 -0.801515 0.055390 0 255 255
0.810955 -0.853734 0.247390 0 255 255
0.800815 -0.949539 0.233390 0 255 255
0.745808 -0.987078 0.059390 0 255 255
0.815332 -0.818833 0.091390 0 255 255
0.756284 -0.928171 0.245390 0 255 255
0.845423 -0.802738 -0.028610 0 255 255
0.847455 -0.985146 0.039390 0 255 255
0.819752 -0.971079 0.101390 0 255 255
0.831029 -0.865108 0.167852 0 255 255
0.753390 -1.009122 -0.060610 0 255 255
0.890363 -0.953373 0.035390 0 255 255
0.797130 -0.976494 0.123826 0 255 255
0.835628 -1.011258 -0.040610 0 255 255
0.819169 -0.872810 0.228427 0 255 255
0.745688 -0.997261 0.021390 0 255 255
0.725824 -0.936801 0.120401 0 255 255
0.785953 -0.942504 0.209390 0 255 255
0.756264 -1.014835 -0.027693 0 255 255
0.819412 -0.934202 0.183390 0 255 255
0.850378 -0.971454 0.069390 0 255 255
0.903037 -0.886547 -0.064610 0 255 255
0.759139 -0.958195 0.143390 0 255 255
0.851594 -0.883792 0.142527 0 255 255
0.831644 -0.895909 0.187390 0 255 255
0.819406 -0.862072 0.273390 0 255 255
0.863841 -0.826175 -0.098610 0 255 255
0.842937 -0.886041 0.271128 0 255 255
0.846101 -0.915339 0.167390 0 255 255
0.750244 -0.923589 0.221390 0 255 255
0.821607 -0.996009 0.044390 0 255 255
0.876516 -0.858419 0.081390 0 255 255
0.777935 -0.941744 0.256355 0 255 255
0.829139 -0.989432 0.087378 0 255 255
0.883288 -0.845545 0.005390 0 255 255
0.785805 -1.000911 -0.128610 0 255 255
0.868232 -0.920951 0.113390 0 255 255
0.850348 -0.875348 0.119390 0 255 255
0.770952 -1.013075 0.023390 0 255 255
0.887581 -0.849159 -0.080610 0 255 255
0.819432 -0.948520 0.146434 0 255 255
0.906457 -0.926123 -0.034610 0 255 255
0.824062 -1.003698 0.001390 0 255 255
0.872761 -0.882157 0.105390 0 255 255
0.733725 -0.899631 0.258400 0 255 255
0.855016 -0.978575 -0.106610 0 255 255
0.751920 -0.967938 0.101390 0 255 255
0.742201 -0.864629 0.263390 0 255 255
0.777673 -0.991077 0.095390 0 255 255
0.842643 -0.959587 0.119390 0 255 255
0.772360 -0.948737 0.162413 0 255 255
0.860303 -0.953117 0.103390 0 255 255
0.737359 -1.007589 -0.014610 0 255 255
0.866120 -0.815452 -0.020610 0 255 255
0.758189 -0.943681 0.181390 0 255 255
0.883144 -0.975847 -0.036610 0 255 255
0.839124 -0.907722 0.213390 0 255 255
0.897762 -0.912007 -0.000610 0 255 255
0.837020 -0.808067 0.047390 0 255 255
0.783419 -0.858230 0.257390 0 255 255
0.873122 -0.982423 -0.078610 0 255 255
0.849776 -0.825010 0.057390 0 255 255
0.893064 -0.958036 -0.065121 0 255 255
0.707847 -0.982052 0.001390 0 255 255
0.896713 -0.931245 -0.054610 0 255 255
0.846200 -0.851452 0.117390 0 255 255
0.867293 -0.867650 -0.152610 0 255 255
0.779758 -1.000504 0.047390 0 255 255
0.749335 -0.911128 0.271390 0 255 255
0.763540 -0.942134 0.205390 0 255 255
0.837286 -0.931867 0.262679 0 255 255
0.807018 -0.949214 0.255390 0 255 255
0.740535 -0.934926 0.137390 0 255 255
0.897038 -0.915943 -0.072610 0 255 255
0.805475 -0.966085 0.145390 0 255 255
0.801553 -0.952898 0.189390 0 255 255
0.690470 -0.958837 -0.006610 0 255 255
0.880657 -0.867478 -0.112610 0 255 255
0.845370 -0.807257 0.021390 0 255 255
0.750972 -0.884895 0.251390 0 255 255
0.863728 -0.841388 -0.122610 0 255 255
0.879303 -0.830386 -0.053789 0 255 255
0.715965 -0.942884 0.101390 0 255 255
0.835414 -0.940672 0.133390 0 255 255
0.832008 -0.898981 0.257390 0 255 255
0.875164 -0.946053 -0.121668 0 255 255
0.763268 -0.871151 0.271390 0 255 255
0.737281 -0.998337 0.041390 0 255 255
0.860121 -0.814816 -0.066610 0 255 255
0.760301 -1.005470 -0.099508 0 255 255
0.714843 -0.969226 0.052429 0 255 255
0.700799 -0.925348 0.087390 0 255 255
0.790573 -0.959244 0.167390 0 255 255
0.761323 -1.000661 0.065390 0 255 255
0.733595 -1.001838 -0.064610 0 255 255
0.867667 -0.837025 0.045390 0 255 255
0.908396 -0.905139 -0.030610 0 255 255
0.857233 -0.987224 -0.016610 0 255 255
0.824044 -0.849871 0.143390 0 255 255
0.704660 -0.969107 0.033390 0 255 255
0.885571 -0.945189 -0.092610 0 255 255
0.766100 -0.867664 0.249390 0 255 255
0.835509 -0.997942 -0.080610 0 255 255
0.891114 -0.857433 -0.036610 0 255 255
0.793504 -1.020706 -0.002610 0 255 255
0.897429 -0.875132 -0.016610 0 255 255
0.891892 -0.925072 -0.091633 0 255 255
0.849149 -0.972247 -0.132610 0 255 255
0.820673 -0.928336 0.203390 0 255 255
0.831903 -0.875517 0.191390 0 255 255
0.737590 -0.919925 0.151390 0 255 255
0.835911 -0.996051 0.025390 0 255 255
0.893541 -0.941780 -0.024610 0 255 255
0.891196 -0.943326 -0.000610 0 255 255
0.883748 -0.835420 -0.012610 0 255 255
0.739696 -0.972464 0.083390 0 255 255
0.689363 -0.935185 0.043106 0 255 255
0.777709 -0.971670 0.131390 0 255 255
0.812147 -0.934703 0.224389 0 255 255
0.834156 -0.886219 0.231390 0 255 255
0.861593 -0.932945 0.098420 0 255 255
0.854183 -0.929325 0.134836 0 255 255
0.840637 -0.993054 -0.104610 0 255 255
0.803471 -1.013996 0.029390 0 255 255
0.892029 -0.927146 0.061390 0 255 255
0.866049 -0.958428 -0.142610 0 255 255
0.886810 -0.852788 0.043390 0 255 255
0.870532 -0.823553 0.021390 0 255 255
0.828187 -0.797029 -0.048610 0 255 255
0.812856 -0.864026 0.211390 0 255 255
0.892561 -0.888410 0.031390 0 255 255
0.838062 -0.932032 0.175390 0 255 255
0.811901 -0.810805 0.073390 0 255 255
0.719892 -0.988702 -0.014610 0 255 255
0.778112 -1.008249 -0.000610 0 255 255
0.829878 -0.795344 -0.012610 0 255 255
0.869403 -0.989811 -0.054610 0 255 255
0.694069 -0.951526 0.027390 0 255 255
0.791045 -0.976259 0.103390 0 255 255
0.719939 -0.983730 0.017390 0 255 255
0.856467 -0.985918 0.057390 0 255 255
0.858457 -0.851504 0.085390 0 255 255
0.894715 -0.856153 0.017390 0 255 255
0.836264 -0.874399 0.151390 0 255 255
0.809712 -1.015972 0.009390 0 255 255
0.838558 -0.983594 -0.144610 0 255 255
0.886732 -0.930109 -0.129093 0 255 255
0.710546 -0.960582 0.069390 0 255 255
0.900038 -0.867508 -0.066932 0 255 255
0.895396 -0.915594 -0.108610 0 255 255
0.791391 -0.849580 0.241390 0 255 255
0.848075 -0.996542 -0.036610 0 255 255
0.893004 -0.915085 0.025390 0 255 255
0.885689 -0.935013 0.039390 0 255 255
0.872849 -0.961918 0.037390 0 255 255
0.852642 -0.912640 0.123390 0 255 255
0.803585 -0.994223 -0.144417 0 255 255
0.761374 -0.961941 0.123390 0 255 255
0.834741 -0.923148 0.245390 0 255 255
0.829839 -1.015001 -0.022610 0 255 255
0.874294 -0.969386 0.005390 0 255 255
0.816237 -1.007136 -0.080610 0 255 255
0.799628 -0.854344 0.183390 0 255 255
0.855766 -0.816067 0.007390 0 255 255
0.833477 -0.824734 0.094907 0 255 255
0.860029 -0.983729 0.007390 0 255 255
0.822516 -0.938951 0.163390 0 255 255
0.797347 -1.004330 0.067390 0 255 255
0.870793 -0.875604 0.087390 0 255 255
0.886685 -0.901474 0.083832 0 255 255
0.790950 -1.015187 -0.038610 0 255 255
0.744071 -0.999975 0.001390 0 255 255
0.895613 -0.893148 -0.080610 0 255 255
0.811907 -0.830016 0.115390 0 255 255
0.825649 -0.996233 -0.116610 0 255 255
0.768523 -0.990860 -0.144610 0 255 255
0.774960 -0.955740 0.269390 0 255 255
0.725912 -0.984485 0.055390 0 255 255
0.747466 -0.931178 0.271863 0 255 255
0.829087 -0.850382 0.125390 0 255 255
0.843288 -1.006752 0.001390 0 255 255
0.820697 -1.003995 0.061390 0 255 255
0.865439 -0.958298 0.063390 0 255 255
0.851913 -0.843813 0.101390 0 255 255
0.785133 -1.013698 0.035390 0 255 255
0.880918 -0.945231 0.075390 0 255 255
0.898903 -0.916339 -0.018610 0 255 255
0.873932 -0.976461 -0.020610 0 255 255
0.882394 -0.883182 0.061390 0 255 255
0.776341 -1.002745 -0.110610 0 255 255
0.880494 -0.959454 -0.109921 0 255 255
0.823271 -0.988184 -0.133707 0 255 255
0.889334 -0.860145 -0.096610 0 255 255
0.807965 -1.002476 -0.108610 0 255 255
0.897606 -0.893572 0.003390 0 255 255
0.699854 -0.943549 0.064641 0 255 255
0.747134 -0.913499 0.253390 0 255 255
0.795302 -1.013953 -0.056610 0 255 255
0.867151 -0.983752 0.039390 0 255 255
0.851430 -0.902159 0.155390 0 255 255
0.882715 -0.958621 0.053390 0 255 255
0.838921 -1.001132 0.043390 0 255 255
0.907189 -0.891582 -0.046610 0 255 255
0.765280 -0.933944 0.221390 0 255 255
0.762918 -0.983535 0.102504 0 255 255
0.735511 -0.881609 0.260414 0 255 255
0.844003 -0.813683 -0.106610 0 255 255
0.813651 -0.860288 0.173390 0 255 255
0.797290 -0.817043 0.093390 0 255 255
0.878722 -0.963167 -0.074610 0 255 255
0.870114 -0.979430 -0.096610 0 255 255
0.852868 -0.959716 0.085390 0 255 255
0.796591 -0.988647 0.080427 0 255 255
0.901557 -0.902590 0.037390 0 255 255
0.747509 -0.930979 0.173390 0 255 255
0.844120 -0.986289 0.077390 0 255 255
0.793439 -0.940950 0.247390 0 255 255
0.802536 -0.951062 0.154396 0 255 255
0.741955 -0.885023 0.235390 0 255 255
0.771776 -1.014043 -0.036610 0 255 255
0.813195 -0.977864 0.116810 0 255 255
0.873886 -0.841502 -0.088610 0 255 255
0.874161 -0.917214 0.083390 0 255 255
0.834578 -0.869951 0.269390 0 255 255
0.768249 -0.996936 0.081828 0 255 255
0.888428 -0.907979 0.051390 0 255 255
0.883434 -0.960078 -0.046610 0 255 255
0.787688 -1.011291 -0.087710 0 255 255
0.886785 -0.876959 0.045390 0 255 255
0.826163 -0.960173 0.113390 0 255 255
0.884523 -0.873167 -0.128610 0 255 255
0.884839 -0.966511 0.025390 0 255 255
0.859601 -0.997951 -0.002610 0 255 255
0.891819 -0.896555 0.067390 0 255 255
0.782529 -1.016328 -0.069591 0 255 255
0.903947 -0.926074 0.007390 0 255 255
0.838316 -0.878925 0.175692 0 255 255
0.812174 -1.011531 -0.060610 0 255 255
0.802614 -0.960308 0.129390 0 255 255
0.812957 -0.983947 0.085390 0 255 255
0.841787 -1.008477 -0.056610 0 255 255
0.898252 -0.885530 -0.096380 0 255 255
0.842284 -0.956446 0.101390 0 255 255
0.730739 -0.952158 0.111519 0 255 255
0.782865 -0.841594 0.261390 0 255 255
0.864434 -0.943772 0.085390 0 255 255
0.884772 -0.903112 -0.140610 0 255 255
0.860988 -0.820359 -0.082745 0 255 255
0.853717 -0.984432 0.023390 0 255 255
0.846046 -0.823317 0.074588 0 255 255
0.848570 -0.807496 -0.044610 0 255 255
0.830024 -0.918056 0.269390 0 255 255
0.803887 -1.012042 -0.092610 0 255 255
0.843939 -0.900567 0.176739 0 255 255
0.716882 -0.959436 0.085390 0 255 255
0.838437 -0.921889 0.153390 0 255 255
0.902111 -0.878172 0.021390 0 255 255
0.828215 -0.984162 0.071390 0 255 255
0.775094 -0.859352 0.273390 0 255 255
0.886116 -0.971485 -0.006610 0 255 255
0.882677 -0.843371 -0.065659 0 255 255
0.849707 -0.897703 0.133390 0 255 255
0.825841 -0.937613 0.234931 0 255 255
0.877959 -0.928245 0.071390 0 255 255
0.877800 -0.847075 0.057390 0 255 255
0.772269 -0.939546 0.191390 0 255 255
0.855462 -1.003205 -0.022610 0 255 255
0.853701 -0.806542 -0.013184 0 255 255
0.728909 -0.994708 0.027390 0 255 255
0.755252 -1.009982 0.015390 0 255 255
0.897696 -0.952887 -0.012610 0 255 255
0.856235 -0.987012 -0.073655 0 255 255
0.814155 -1.011829 -0.030610 0 255 255
0.891012 -0.900349 -0.103613 0 255 255
0.828326 -0.911561 0.225390 0 255 255
0.888348 -0.893649 -0.127138 0 255 255
0.797843 -1.021235 -0.024610 0 255 255
0.897911 -0.858877 0.001390 0 255 255
0.798623 -0.950230 0.216622 0 255 255
0.767771 -1.013192 -0.014610 0 255 255
0.900747 -0.865614 -0.050610 0 255 255
0.750763 -1.011862 -0.044610 0 255 255
0.877700 -0.920011 -0.138610 0 255 255
0.861130 -0.906265 0.110401 0 255 255
0.788132 -0.941866 0.226370 0 255 255
0.885575 -0.950310 0.019390 0 255 255
0.742066 -0.913672 0.189390 0 255 255
0.799889 -0.857698 0.259390 0 255 255
0.877563 -0.919982 0.099390 0 255 255
0.814470 -1.010350 0.041390 0 255 255
0.832209 -0.955754 0.139390 0 255 255
0.905582 -0.903446 -0.066610 0 255 255
0.750968 -0.948280 0.133390 0 255 255
0.832466 -0.973781 0.090426 0 255 255
0.742790 -0.987435 0.075390 0 255 255
0.850022 -1.002049 -0.074610 0 255 255
0.880405 -0.889916 0.093390 0 255 255
0.765645 -0.941849 0.245390 0 255 255
0.834456 -0.974041 0.107390 0 255 255
0.906204 -0.889265 -0.028610 0 255 255
0.817007 -0.948004 0.191390 0 255 255
0.831122 -0.908066 0.199390 0 255 255
0.821868 -0.860108 0.257390 0 255 255
0.899794 -0.930841 0.031390 0 255 255
0.874882 -0.822322 -0.032610 0 255 255
0.835233 -1.008855 0.015390 0 255 255
0.863209 -0.853546 -0.144610 0 255 255
0.758788 -0.935629 0.259378 0 255 255
0.793373 -0.946071 0.177390 0 255 255
0.817402 -0.986937 0.100510 0 255 255
0.815926 -0.868828 0.245390 0 255 255
0.876440 -0.872715 0.072412 0 255 255
0.822664 -0.875598 0.204389 0 255 255
0.872200 -0.883045 -0.152610 0 255 255
0.853749 -0.835177 -0.133632 0 255 255
0.800472 -0.941526 0.201390 0 255 255
0.827028 -0.888793 0.245390 0 255 255
0.809669 -0.954623 0.271390 0 255 255
0.833397 -0.916728 0.177390 0 255 255
0.806131 -0.996809 0.055390 0 255 255
0.720910 -0.921444 0.118173 0 255 255
0.773688 -0.961726 0.153390 0 255 255
0.891594 -0.953634 -0.080610 0 255 255
0.894546 -0.960684 -0.030610 0 255 255
0.858621 -0.875062 0.105390 0 255 255
0.889083 -0.842091 -0.044610 0 255 255
0.866678 -0.966740 -0.107694 0 255 255
0.823620 -0.861488 0.154409 0 255 255
0.806747 -1.008206 -0.004610 0 255 255
0.851158 -0.998201 0.031390 0 255 255
0.792428 -0.969758 0.137390 0 255 255
0.869089 -0.979521 -0.042610 0 255 255
0.823570 -1.015634 -0.050610 0 255 255
0.758174 -0.986616 0.072411 0 255 255
0.813829 -0.946027 0.241390 0 255 255
0.892572 -0.844918 -0.026610 0 255 255
0.873211 -0.835225 0.011390 0 255 255
0.700973 -0.970368 -0.006610 0 255 255
0.771330 -1.001680 0.034393 0 255 255
0.820839 -0.941906 0.257390 0 255 255
0.757097 -1.010923 -0.075567 0 255 255
0.800718 -0.858665 0.203390 0 255 255
0.808552 -0.862375 0.233390 0 255 255
0.848334 -0.947228 0.127390 0 255 255
0.876560 -0.852904 -0.118610 0 255 255
0.829760 -0.895508 0.219390 0 255 255
0.835673 -0.923346 0.207390 0 255 255
0.767090 -1.015091 -0.064610 0 255 255
0.890732 -0.945272 -0.056610 0 255 255
0.900999 -0.863623 -0.026610 0 255 255
0.874856 -0.982791 0.013390 0 255 255
0.857898 -0.979187 -0.122078 0 255 255
0.870870 -0.927775 -0.150610 0 255 255
0.831020 -0.934625 0.193390 0 255 255
0.812005 -0.848796 0.262288 0 255 255
0.782690 -1.005949 0.061390 0 255 255
0.750355 -0.869485 0.251390 0 255 255
0.861517 -0.971778 0.079938 0 255 255
0.841582 -0.983898 0.053390 0 255 255
0.894742 -0.935901 -0.038610 0 255 255
0.825066 -0.806589 0.057022 0 255 255
0.783276 -1.018532 0.009390 0 255 255
0.838818 -0.913791 0.257390 0 255 255
0.860543 -0.889783 0.110420 0 255 255
0.789801 -0.953255 0.199390 0 255 255
0.863760 -0.935450 0.113390 0 255 255
0.905113 -0.880855 -0.004610 0 255 255
0.840228 -0.895689 0.201390 0 255 255
0.827192 -0.883160 0.269390 0 255 255
0.790110 -0.951803 0.257390 0 255 255
0.884762 -0.858127 0.029390 0 255 255
0.864094 -0.945744 -0.150610 0 255 255
0.874484 -0.872299 -0.139853 0 255 255
0.797092 -1.005531 -0.118610 0 255 255
0.821284 -0.997530 0.077390 0 255 255
0.758713 -0.974462 0.113771 0 255 255
0.832182 -0.801968 0.016401 0 255 255
0.758672 -0.993886 0.051390 0 255 255
0.829002 -0.951603 0.125390 0 255 255
0.775879 -1.009133 -0.096610 0 255 255
0.871737 -0.856364 0.067390 0 255 255
0.809533 -1.004717 0.019390 0 255 255
0.856824 -0.989182 -0.046610 0 255 255
0.738024 -0.965975 0.106387 0 255 255
0.905102 -0.913567 0.015390 0 255 255
0.784145 -0.979868 0.117366 0 255 255
0.697438 -0.964529 -0.020610 0 255 255
0.807355 -0.822573 0.103390 0 255 255
0.858080 -0.809517 -0.032610 0 255 255
0.776136 -0.950209 0.217390 0 255 255
0.892027 -0.873984 -0.104610 0 255 255
0.857772 -0.975071 0.047390 0 255 255
0.808308 -0.943143 0.179390 0 255 255
0.861676 -0.817120 -0.006610 0 255 255
0.758250 -0.947783 0.166668 0 255 255
0.819882 -0.802116 0.043390 0 255 255
0.823887 -0.922885 0.235390 0 255 255
0.707349 -0.975622 0.019390 0 255 255
0.823723 -0.870624 0.179390 0 255 255
0.867443 -0.838088 -0.107689 0 255 255
0.784315 -0.998306 0.084024 0 255 255
0.904716 -0.919619 -0.060610 0 255 255
0.858153 -0.883141 0.129390 0 255 255
0.805156 -0.977208 0.099390 0 255 255
0.887802 -0.857738 -0.068610 0 255 255
0.880519 -0.945146 -0.106610 0 255 255
0.772237 -0.958934 0.136553 0 255 255
0.789587 -0.860388 0.271390 0 255 255
0.822683 -0.947166 0.177390 0 255 255
0.734377 -1.002376 0.013390 0 255 255
0.740010 -0.898923 0.272161 0 255 255
0.889868 -0.945089 0.049390 0 255 255
0.840074 -0.928371 0.140406 0 255 255
0.821268 -1.007225 -0.012610 0 255 255
0.744262 -0.936631 0.258417 0 255 255
0.756976 -1.001872 0.029390 0 255 255
0.752187 -1.009879 -0.014610 0 255 255
0.858577 -0.836203 0.079390 0 255 255
0.810690 -0.844427 0.145390 0 255 255
0.824100 -0.939288 0.215390 0 255 255
0.907936 -0.908036 -0.010610 0 255 255
0.871894 -0.826766 -0.013565 0 255 255
0.770907 -0.997501 -0.130610 0 255 255
0.852746 -1.003423 -0.048610 0 255 255
0.897794 -0.945397 0.013390 0 255 255
0.700172 -0.933393 0.075390 0 255 255
0.843277 -0.874820 0.133390 0 255 255
0.822514 -0.953264 0.160106 0 255 255
0.793610 -0.964193 0.153390 0 255 255
0.886273 -0.956593 -0.004610 0 255 255
0.775520 -0.949409 0.201390 0 255 255
0.875362 -0.897023 -0.149676 0 255 255
0.763737 -1.014379 -0.050610 0 255 255
0.795415 -1.003803 0.037390 0 255 255
0.863635 -0.976317 0.065390 0 255 255
0.843189 -1.009904 -0.026610 0 255 255
0.826899 -0.817202 0.082295 0 255 255
0.869849 -0.826762 0.035390 0 255 255
0.865927 -0.979886 -0.064610 0 255 255
0.770384 -0.852217 0.252408 0 255 255
0.787678 -0.963240 0.125390 0 255 255
0.782462 -0.949307 0.243390 0 255 255
0.824811 -0.990556 0.058433 0 255 255
0.897341 -0.880196 -0.052610 0 255 255
0.796770 -0.843513 0.258395 0 255 255
0.841439 -0.864226 0.123390 0 255 255
0.742759 -1.007875 -0.028610 0 255 255
0.807801 -0.997164 0.083390 0 255 255
0.735907 -0.945078 0.127390 0 255 255
0.767022 -0.983469 0.087390 0 255 255
0.822576 -0.837541 0.121390 0 255 255
0.802912 -0.968529 0.113390 0 255 255
0.824249 -0.931141 0.269390 0 255 255
0.849156 -0.808687 -0.074610 0 255 255
0.737916 -0.894388 0.245390 0 255 255
0.828758 -0.909608 0.247390 0 255 255
0.755707 -0.930884 0.209390 0 255 255
0.838807 -0.838135 0.098434 0 255 255
0.858068 -0.814857 0.021390 0 255 255
0.863423 -0.829055 0.057390 0 255 255
0.843258 -0.812501 0.035390 0 255 255
0.872727 -0.896462 0.107390 0 255 255
0.890428 -0.869555 0.019390 0 255 255
0.820328 -0.828872 0.101390 0 255 255
0.768055 -1.007468 0.053390 0 255 255
0.844836 -0.898713 0.263390 0 255 255
0.855653 -0.862163 0.115390 0 255 255
0.868218 -0.824822 -0.060610 0 255 255
0.768348 -1.015704 0.009390 0 255 255
0.751632 -0.959673 0.113390 0 255 255
0.800063 -0.852392 0.169390 0 255 255
0.843495 -0.969991 0.082427 0 255 255
0.726436 -0.969646 0.087390 0 255 255
0.760688 -0.859357 0.237390 0 255 255
0.870891 -0.990127 -0.018610 0 255 255
0.749542 -0.947977 0.147390 0 255 255
0.834651 -1.011600 -0.008610 0 255 255
0.818609 -1.000492 0.031390 0 255 255
