ply
format ascii 1.0
element vertex 1248
property float x
property float y
property float z
property uchar red
property uchar green
property uchar blue
end_header
0.354789 0.971162 -0.040445 114 116 114
0.353475 0.999428 -0.054883 146 155 147
0.338938 0.985690 -0.032814 96 96 92
0.344910 0.979176 -0.018306 95 96 93
0.361207 0.968808 -0.021523 102 103 101
0.339103 0.991637 -0.031010 141 141 139
0.344244 0.979250 -0.047324 75 75 72
0.530678 0.979187 -0.101922 152 150 154
0.548267 0.978259 -0.107076 154 153 157
0.529295 0.979478 -0.082697 157 155 160
0.517928 0.978620 -0.087836 153 152 155
-0.225998 1.099382 -0.141479 24 26 54
0.434964 0.507784 0.337971 65 70 70
0.142759 0.985566 0.356896 185 189 196
0.176993 0.984380 0.355521 202 202 204
-0.188942 0.984792 0.074448 153 119 110
-0.193065 1.001306 0.054769 178 184 178
-0.207760 0.985958 0.069765 186 182 168
-0.164648 0.986888 0.066061 194 200 194
0.182515 1.201402 -0.203655 44 44 45
0.128986 0.979257 0.252021 162 174 183
0.140656 0.979822 0.269053 165 177 187
-0.277913 0.977749 0.137507 48 46 43
-0.270535 0.971546 0.151962 46 44 42
0.189779 1.237329 -0.078632 26 25 25
-0.202114 1.097150 -0.152712 24 29 61
-0.313903 1.045031 0.525512 235 233 230
-0.295549 1.024774 0.521152 249 243 234
-0.281701 1.058570 0.523816 240 230 222
0.288289 0.539435 0.034146 24 28 31
0.280991 0.541926 0.023435 43 47 47
0.288735 0.529441 0.031316 29 31 30
0.294604 0.537837 0.042002 26 28 32
0.284360 0.531092 0.020449 28 26 25
0.375658 0.473522 0.166994 26 30 31
-0.319513 1.010538 0.435926 187 180 157
-0.332254 0.852949 0.283562 128 159 115
-0.342695 0.856253 0.292429 140 156 129
0.011463 1.091032 -0.174979 45 47 63
0.034507 1.095624 -0.166729 21 24 54
0.011195 1.091477 -0.154979 92 95 102
-0.330377 0.847455 0.289262 133 165 118
-0.487862 0.984046 0.332349 59 84 46
-0.473861 0.971818 0.330185 57 84 45
-0.457018 0.966016 0.324290 74 92 59
-0.457679 0.971184 0.328816 74 92 59
-0.478016 0.970767 0.336275 40 65 29
-0.477752 0.963536 0.321508 99 118 75
-0.477866 0.964567 0.315188 96 117 75
-0.466288 0.954707 0.315588 117 141 93
-0.448361 0.965574 0.328149 127 159 106
-0.498911 1.011765 0.274096 52 64 34
-0.482988 1.012899 0.302005 118 136 105
-0.483666 0.998373 0.303968 94 107 81
-0.490881 0.991127 0.276057 95 102 76
-0.488541 0.977983 0.282585 86 93 63
-0.507474 1.004856 0.284425 186 187 179
-0.468006 0.988418 0.297636 114 128 100
0.322281 0.557325 0.207231 28 30 33
-0.201212 0.821208 -0.013120 55 49 45
-0.378280 1.043236 -0.083375 71 76 76
0.334691 0.413226 -0.130327 25 25 25
0.329079 0.978038 0.123899 146 137 128
-0.523446 1.008677 0.355936 114 132 105
-0.524150 1.024885 0.350778 172 181 177
-0.537345 1.030171 0.360015 127 145 119
-0.521754 1.030941 0.359966 71 95 59
-0.520898 1.015888 0.360002 112 132 105
-0.530428 1.005551 0.347440 110 128 100
-0.538424 1.013518 0.353671 86 103 77
-0.542403 1.001718 0.345606 79 98 70
-0.523544 1.015421 0.354882 79 102 66
-0.541550 1.014068 0.360491 90 107 82
0.531817 0.987585 0.402843 207 192 179
0.215808 0.586249 -0.156016 11 12 15
0.199332 0.590511 -0.156414 47 47 44
0.224506 0.576619 -0.132875 27 28 26
0.103702 0.987016 0.339761 65 78 80
-0.550981 0.969521 0.285908 110 128 107
-0.553629 0.951216 0.286191 115 134 110
-0.528834 0.977410 0.286564 170 184 170
0.459015 1.157349 0.080576 39 35 28
0.483238 1.152005 0.082496 45 37 30
0.461827 1.176127 0.082225 20 16 15
-0.000056 0.424907 0.011942 233 231 212
-0.198872 0.754974 0.011588 212 204 196
-0.202607 0.799221 0.006176 65 61 68
-0.609540 0.997914 0.212483 86 102 66
-0.590968 1.002854 0.222616 58 70 44
-0.604220 1.006703 0.221368 56 68 43
-0.258083 0.558902 0.009247 126 141 141
0.126397 0.613491 -0.112774 50 48 48
-0.318292 0.990317 0.183696 54 51 46
-0.339926 0.990745 0.215122 82 82 64
-0.327773 0.989992 0.198698 78 78 62
-0.373121 1.089371 -0.151541 85 89 85
-0.082398 0.432700 0.012383 235 231 212
-0.081046 0.406220 0.013348 235 234 215
-0.197151 0.988243 0.280070 47 87 63
-0.172139 0.990112 0.303270 75 96 82
-0.191232 0.989588 0.312490 46 95 66
0.259559 1.034474 0.518968 238 226 214
0.216338 1.029826 0.520747 238 228 216
0.241454 1.033685 0.519005 237 226 214
-0.527651 0.981613 0.509281 92 119 71
-0.516024 0.962745 0.505325 91 118 71
-0.522538 0.979111 0.519762 89 105 77
-0.519052 0.994735 0.521832 152 138 159
-0.521760 0.983205 0.515378 75 97 56
-0.511186 0.998758 0.515732 121 131 118
-0.526127 0.991618 0.506773 100 128 72
-0.518035 0.979709 0.499796 80 107 59
0.344763 0.990744 -0.177327 129 133 128
0.342918 0.989281 -0.160108 114 120 118
0.340465 0.987535 -0.139305 124 123 120
-0.256823 1.005534 0.457907 48 49 41
-0.246247 1.007709 0.469631 104 105 95
-0.501147 1.031088 0.272022 52 70 26
-0.524023 1.032771 0.273617 203 203 191
-0.505141 1.021076 0.275121 203 202 194
-0.515694 1.017590 0.274668 202 202 190
0.365401 0.961404 -0.202549 128 127 126
-0.425246 1.053640 -0.089890 125 117 110
-0.423070 1.081102 -0.089625 111 107 102
-0.422064 1.071784 -0.096896 118 113 107
-0.425294 1.072186 -0.079691 123 114 99
0.226685 0.556134 -0.101874 15 16 22
0.220505 0.561705 -0.095429 28 29 34
0.209147 0.570764 -0.103431 63 63 61
0.213799 0.562151 -0.102720 15 15 23
0.227068 0.559593 -0.095073 17 17 23
-0.023162 1.114879 0.518940 240 233 225
-0.071700 0.693069 -0.012097 71 68 83
-0.069476 0.690964 -0.006264 23 21 47
-0.079046 0.685938 0.001895 48 44 62
-0.560996 0.921674 0.531569 42 59 28
-0.540129 0.911877 0.528165 41 59 29
-0.553797 0.929370 0.527565 42 60 31
-0.570380 0.925471 0.524338 41 60 31
-0.561023 0.911870 0.516577 131 152 117
-0.535812 0.910179 0.523461 40 58 29
0.268869 1.055615 0.518108 236 225 215
0.279872 1.030334 0.519787 238 227 215
-0.064815 0.993149 0.345271 171 173 177
-0.054202 0.994272 0.376023 114 115 119
-0.428498 1.058269 -0.018395 85 79 72
0.255337 1.158091 -0.110715 84 82 80
0.381176 1.069720 -0.007942 52 48 44
0.380578 1.097864 -0.007643 55 53 53
0.367028 1.076679 0.006293 61 57 53
0.365738 1.086064 0.019623 62 59 54
0.383732 1.047792 -0.011027 60 58 56
0.033360 1.029824 0.058868 225 217 204
0.014853 1.016639 0.053451 158 145 137
0.016547 1.005060 0.056210 130 119 111
0.026175 1.018518 0.054019 144 134 126
0.038837 1.005765 0.055655 119 111 105
0.325153 0.488406 0.071408 23 22 19
0.332877 0.472506 0.061761 20 20 19
0.321334 0.495700 0.078141 26 25 22
0.325846 0.481245 0.050609 20 20 19
0.401615 1.195760 0.076371 49 45 40
0.414332 1.202893 0.073339 41 38 34
0.396460 1.179399 0.074331 45 42 36
0.406703 1.187708 0.072588 43 40 33
0.167474 1.233876 -0.079917 37 35 30
0.174431 1.239970 -0.084453 37 36 33
0.164815 1.239328 -0.084366 37 35 31
-0.444422 1.011964 -0.087429 156 157 149
-0.449961 1.020320 -0.097676 108 110 109
-0.449508 1.010946 -0.098492 147 148 144
-0.118444 1.046055 0.059632 207 205 207
-0.122987 1.040723 0.057980 227 222 211
-0.152097 1.029084 0.058064 208 196 184
-0.112591 1.020136 0.054497 144 133 122
-0.128998 1.020794 0.056428 201 187 176
-0.108295 1.028797 0.058240 229 223 210
-0.122394 1.028294 0.059404 209 199 186
-0.393927 1.059142 0.373966 102 122 79
-0.380038 1.076112 0.392235 107 120 103
-0.385350 1.089378 0.380419 78 93 71
0.406223 0.989415 0.132940 114 98 82
0.381575 0.952597 0.139549 207 196 186
0.408636 0.981135 0.140058 226 215 202
0.387149 0.972751 0.142536 228 217 203
0.374385 0.963766 0.139229 231 221 208
0.376073 0.981351 0.140370 95 83 73
0.380121 0.974511 0.124072 142 129 118
-0.552781 1.042218 0.163448 134 143 133
-0.542234 1.049344 0.163089 101 107 99
-0.544066 1.035806 0.160892 101 112 91
-0.544172 1.026784 0.156019 103 117 94
0.438674 1.042427 0.025102 90 88 83
0.438409 1.044615 0.033864 68 67 62
0.239928 0.378914 -0.012919 34 32 29
0.226190 0.394064 -0.012975 21 19 18
0.317226 0.995494 0.509269 204 185 171
0.289308 0.994740 0.506204 176 157 143
0.310367 1.004630 0.517852 237 225 213
0.299202 0.997817 0.511893 231 218 203
0.085199 0.981494 0.205771 97 105 108
0.069760 0.982951 0.190987 171 176 177
0.152744 0.995756 0.473738 184 180 174
0.150385 0.995760 0.487868 158 149 141
0.586630 0.977566 -0.091113 158 154 158
-0.401401 1.013721 0.112538 77 69 58
-0.397292 1.011878 0.072749 49 47 41
0.337366 1.196924 -0.102163 56 56 57
0.090416 0.981914 0.255521 84 101 107
0.121603 1.110767 0.517135 236 228 220
0.083573 1.072689 0.518792 242 238 231
0.084036 1.078979 -0.023979 31 32 44
0.046100 1.082290 -0.010483 58 57 70
0.078342 1.080594 0.001847 52 51 63
0.063697 1.080938 0.011923 66 64 73
-0.607955 1.023681 -0.017671 98 107 99
0.171395 0.979286 0.219134 187 188 192
0.168947 0.979974 0.238021 196 197 199
0.141188 0.978818 0.240256 192 200 206
0.275702 0.985639 0.328310 149 136 123
0.268500 0.985556 0.349521 47 42 41
0.318336 0.530966 0.152576 24 27 29
0.333101 0.532583 0.160476 31 32 35
0.329820 0.535824 0.173658 30 33 39
0.330094 0.520045 0.165499 28 31 31
-0.283881 1.108070 -0.154979 24 27 48
-0.435878 0.939978 0.235880 45 64 32
-0.422156 0.930524 0.239421 43 63 29
0.319315 0.472894 -0.002723 36 34 29
0.325025 0.461248 -0.007435 20 21 18
-0.140001 1.181139 0.004812 9 8 16
-0.151546 1.172238 0.006350 17 16 25
-0.131302 1.169200 0.009468 14 19 15
-0.142443 1.159872 0.010851 47 55 47
-0.158756 1.176887 0.001721 9 10 17
-0.071190 1.146710 0.518309 248 243 235
-0.080896 1.141542 0.519178 242 233 224
-0.082682 1.117100 0.518842 243 236 227
0.309249 0.984568 0.285521 177 166 154
0.311628 0.464423 -0.086484 41 39 32
0.295708 0.488470 -0.101174 23 22 19
0.323423 0.481231 -0.103034 19 19 21
0.312802 0.461800 -0.113620 30 29 24
0.333137 0.462175 -0.096928 18 19 21
-0.526970 0.916426 0.287411 75 100 63
-0.536667 0.913862 0.284411 74 95 62
-0.549952 0.936658 0.285129 72 91 62
-0.556478 0.937392 0.281261 98 117 90
-0.206886 0.990182 0.335517 41 82 58
-0.318671 0.953943 0.279599 56 74 36
-0.289951 0.966568 0.274787 70 80 46
-0.326404 0.966783 0.283043 81 99 62
-0.325349 0.974336 0.282202 94 112 73
-0.330449 1.143870 0.009940 34 37 39
-0.316498 1.140471 0.010799 28 30 30
-0.297477 1.139663 0.010224 34 34 37
-0.324329 1.126744 0.011211 39 39 58
0.347757 0.987095 0.416130 188 181 178
-0.332632 0.994184 0.127048 45 42 38
-0.382182 0.996131 0.121564 64 57 50
-0.359362 0.996189 0.133770 40 38 36
-0.388641 1.001896 0.134999 105 93 84
-0.377071 0.996323 0.136787 120 115 103
-0.387153 0.999286 0.150514 143 147 125
0.277434 0.986934 0.356021 109 98 88
0.276002 0.987065 0.367679 105 95 83
-0.353766 1.014620 0.498671 196 185 169
-0.344677 1.028747 0.520568 242 237 231
-0.302685 1.071847 0.524128 233 233 235
0.336476 0.542908 0.223355 27 31 33
0.349836 0.530248 0.227539 24 28 33
0.334529 0.544657 0.204911 28 30 34
0.346410 0.526684 0.230153 25 29 36
-0.374242 1.090351 -0.076890 82 84 75
-0.368557 1.099493 -0.065478 73 71 54
-0.256466 0.981085 0.161114 52 51 51
-0.238627 0.985727 0.164144 63 62 59
-0.228987 0.986666 0.141997 58 58 57
-0.271728 0.976283 0.166280 48 48 46
-0.233251 0.984008 0.178161 67 65 61
-0.541076 1.004360 0.338133 77 97 67
-0.286311 1.108614 0.021281 57 52 57
-0.284471 1.103601 0.021916 81 79 85
0.229402 0.548998 -0.144240 39 36 33
0.224350 0.584179 -0.161724 27 28 30
0.032043 1.112167 0.027280 46 38 39
0.033955 1.117395 0.019392 31 27 31
-0.038053 0.999266 0.439271 209 211 211
-0.075599 0.986467 0.221146 215 180 174
-0.068320 0.986268 0.243428 219 224 227
-0.036808 1.094455 -0.140354 115 120 117
-0.007532 1.092040 -0.127979 114 118 118
-0.013397 1.093183 -0.109979 112 115 116
0.336357 1.175361 -0.132900 77 72 71
0.343007 1.181818 -0.120673 65 63 61
0.313763 1.169665 -0.114928 62 61 60
0.328074 1.181659 -0.109256 57 56 55
0.342062 1.187451 -0.108979 54 53 53
0.366055 0.472696 0.125111 21 24 27
0.343633 0.471436 0.106518 21 21 20
0.360428 0.446457 0.128302 22 22 20
0.364711 0.448202 0.144121 22 21 19
0.369154 0.436921 0.138966 22 21 19
0.352749 0.472049 0.140142 22 22 20
-0.353714 0.916624 0.340543 99 135 79
-0.340933 0.914548 0.340442 108 143 87
-0.375965 0.938764 0.344384 73 106 56
-0.364750 0.948678 0.346679 121 152 101
-0.202925 1.028872 0.059957 220 207 190
-0.190216 1.019852 0.057663 159 144 129
-0.209359 1.009948 0.058846 143 132 116
-0.193043 1.037839 0.059193 229 225 217
-0.360751 1.007234 0.254762 84 92 54
-0.349412 1.002975 0.250014 81 85 47
-0.345668 0.999380 0.260843 91 103 67
-0.352712 1.015457 0.245230 68 74 40
-0.344317 0.991777 0.250613 104 113 85
0.482699 0.965757 -0.194450 208 208 209
-0.453611 1.007866 0.343035 138 159 119
-0.450954 1.020637 0.370137 105 129 81
-0.463416 1.025251 0.337863 130 149 116
-0.469386 1.022349 0.342054 171 187 157
-0.456612 1.023367 0.344536 192 207 177
-0.449645 1.004139 0.362865 96 120 75
-0.459651 1.030077 0.360089 126 149 105
-0.458158 1.017055 0.352055 180 197 171
-0.455435 0.993375 0.351852 142 167 120
-0.454328 1.004774 0.356780 162 182 150
-0.456599 1.018591 0.360774 174 191 162
-0.452906 1.027809 0.369882 108 129 88
-0.457627 1.034419 0.350922 157 169 139
0.003302 0.452235 0.011223 227 223 200
-0.105712 1.001769 0.459960 74 76 73
-0.130372 1.001312 0.451771 206 208 209
0.430392 1.057267 0.596862 197 187 181
-0.189797 0.692432 0.011373 250 240 229
0.547696 0.991892 0.525840 227 217 208
-0.517972 1.061733 0.292693 79 93 55
-0.510458 1.045292 0.308796 83 102 65
-0.519192 1.046484 0.303563 93 117 74
-0.526136 1.039885 0.308659 135 159 121
-0.509562 1.063541 0.307850 78 92 53
-0.517850 1.072084 0.291000 68 82 42
-0.511893 1.072985 0.308003 56 70 37
0.358879 0.981968 0.291138 185 180 176
0.348117 0.984361 0.311874 175 162 150
0.329798 0.984202 0.285521 175 163 154
0.388107 0.996290 0.519077 183 169 157
0.371029 1.073605 0.511535 204 193 184
0.118897 1.197129 -0.213454 78 81 79
0.137905 1.181532 -0.209746 69 70 69
0.122048 1.158759 -0.173393 11 11 23
0.133098 1.166969 -0.180645 11 11 20
0.126251 1.169171 -0.198989 11 11 23
0.201991 0.605006 -0.188913 20 22 25
0.116392 1.192544 -0.176314 91 93 90
0.091650 0.987935 0.361771 67 82 85
-0.357866 1.102831 -0.103729 105 104 80
-0.348630 1.107846 -0.090979 111 110 86
-0.368187 1.097683 -0.088966 81 79 62
0.243783 0.998189 0.059180 174 174 184
0.244600 0.989032 0.049802 179 178 189
0.271888 1.010393 0.065723 99 97 94
0.238553 1.012005 0.060690 67 62 64
0.260671 0.993033 0.064915 125 123 127
0.247948 1.011130 0.064241 101 97 92
0.252627 1.002181 0.068745 176 170 169
0.276941 1.014855 0.071150 71 61 52
0.263224 1.019429 0.080709 110 100 85
-0.218822 0.657077 0.011418 248 238 224
0.137855 0.319421 0.012906 233 227 210
0.107968 0.316339 0.012763 233 228 211
0.366221 0.446679 0.051927 20 21 23
0.383519 0.427666 0.092694 20 22 21
0.018415 0.487273 0.011217 230 229 210
0.185671 1.135513 0.515565 225 219 213
0.051047 1.187807 -0.001674 39 41 51
0.037875 1.173960 0.011236 68 65 68
-0.406755 1.006627 -0.027418 31 32 32
-0.416148 0.997111 -0.028892 46 42 38
0.510497 0.979273 -0.121016 149 144 149
-0.420226 0.997268 -0.041594 41 39 36
-0.405619 1.006472 -0.004929 31 30 29
-0.423460 0.999234 -0.018042 38 35 33
-0.197570 1.084580 -0.006654 25 27 46
0.367476 1.013982 -0.215134 179 181 171
-0.171903 0.990646 0.325271 210 220 216
-0.590537 0.975191 0.503949 42 62 28
-0.015085 0.383817 0.013693 233 228 209
-0.010876 0.363218 0.012836 233 228 208
0.442217 0.994507 0.533869 183 170 157
0.360469 0.437565 0.004370 19 20 22
-0.043720 1.110993 0.018960 59 58 61
0.369920 0.981938 0.136306 165 152 142
0.384124 0.984976 0.132756 152 142 136
0.391853 0.992114 0.125713 102 89 74
-0.129312 0.997258 0.409600 208 209 203
-0.080027 0.998899 0.415680 209 211 209
0.448388 0.921488 0.147951 226 214 202
0.464194 0.937359 0.136857 223 212 199
0.459823 0.949589 0.137680 111 95 80
0.357294 0.445041 -0.182506 19 20 19
0.360885 0.459732 -0.196258 22 23 23
0.353668 0.457440 -0.190073 22 24 23
0.406862 1.084003 0.558374 174 173 174
0.421623 0.495838 0.343833 50 55 57
0.444353 0.475402 0.348069 55 58 57
0.428794 0.467924 0.347932 130 130 123
0.448085 0.464977 0.349457 46 50 52
0.435499 0.466900 0.343226 50 55 55
0.437878 0.473982 0.342501 33 38 43
0.432588 0.452600 0.342687 64 68 64
0.326811 0.988504 0.394271 173 158 141
-0.102860 1.190430 0.006993 28 29 38
-0.090040 1.211276 0.003918 39 35 40
-0.088179 1.199844 0.004838 17 19 27
-0.378627 1.049151 -0.172221 78 82 81
-0.382763 1.009480 -0.137601 75 80 79
-0.379381 1.026735 -0.160819 79 83 82
0.417129 0.504616 0.340567 69 75 78
0.428200 0.498118 0.335024 61 67 68
-0.138392 0.999005 0.429521 218 222 222
-0.421005 0.795243 0.296928 90 117 63
0.439662 1.175584 0.078034 40 36 30
0.454397 1.178435 0.078993 40 33 30
0.530749 0.993314 0.535516 230 217 209
0.544558 0.993223 0.561470 229 219 209
-0.238688 0.460829 0.012709 231 227 205
0.483190 0.980706 0.232546 170 157 145
0.506464 0.978794 0.215349 169 152 136
0.270999 0.573325 -0.199888 19 20 23
0.284257 0.548267 -0.190688 21 22 25
0.263644 0.563085 -0.189753 22 23 26
0.564056 0.990937 0.532869 230 219 210
0.557732 0.994009 0.563122 233 220 211
0.582036 0.991568 0.547487 233 222 212
0.556346 0.991020 0.543286 233 222 213
0.094096 1.093885 -0.168810 23 26 62
0.104810 1.094887 -0.163563 21 22 49
-0.380850 1.097825 0.418838 170 177 168
-0.380714 1.096148 0.435373 149 152 138
-0.340045 1.107386 -0.192729 103 101 83
-0.406117 0.870547 0.009757 194 196 178
0.298939 0.981078 0.181521 169 159 148
0.299689 0.981893 0.208771 170 160 150
0.370335 1.085812 0.000985 55 53 48
-0.522846 0.980895 0.567814 177 193 185
-0.531605 0.980094 0.564809 156 178 166
0.507973 0.991559 0.512521 225 215 204
0.514487 0.993136 0.535587 229 219 210
0.468629 0.994298 0.525504 227 216 205
0.473992 0.991700 0.500632 224 214 203
0.021338 0.995766 0.417396 205 207 206
0.380450 1.173259 -0.073195 41 39 41
-0.448427 1.037644 0.360802 134 142 110
-0.421636 1.039176 0.374498 124 142 107
0.171414 0.985995 0.369361 201 201 203
0.190207 0.986209 0.399566 204 203 208
0.391297 1.161239 0.118335 99 87 75
0.394014 1.136993 0.126712 117 100 87
0.391800 1.160680 0.127353 129 112 100
0.289820 0.550035 0.093509 25 24 20
0.287882 0.553461 0.104812 25 24 20
0.373119 1.120891 0.496155 211 203 192
0.366005 1.113933 0.498953 218 212 197
-0.381694 0.955529 0.293701 50 76 36
-0.377130 0.932066 0.275565 52 77 38
-0.370002 0.955052 0.300956 64 90 41
-0.381597 0.948686 0.299776 96 127 79
-0.366357 0.936206 0.307809 98 127 82
-0.372041 0.946249 0.286345 74 95 57
-0.087357 0.990210 0.303521 219 223 227
-0.062790 0.990503 0.300113 219 223 227
-0.179997 1.040042 0.060583 208 195 181
-0.157219 1.041687 0.059125 237 225 213
-0.001615 0.997089 0.432499 205 205 205
0.016658 0.997160 0.453271 119 116 108
-0.493735 1.036795 0.342042 123 143 109
-0.511803 1.020283 0.347683 182 186 177
-0.490989 1.031070 0.351348 133 150 129
-0.508898 1.017590 0.359388 80 103 67
-0.021561 0.986622 0.221185 178 111 104
-0.033297 0.988004 0.245021 217 198 195
-0.337761 1.065214 0.522283 234 232 231
-0.315099 1.071481 0.523157 232 230 228
-0.328734 1.047964 0.523138 232 233 233
0.256990 0.527854 -0.164376 24 20 18
0.251408 0.535611 -0.150027 15 15 21
-0.250880 0.972801 0.218636 32 38 33
-0.249936 0.963402 0.221813 61 75 52
-0.255771 0.958411 0.238132 47 65 37
-0.246335 0.973503 0.226215 21 31 21
-0.244753 0.975899 0.239172 22 41 22
-0.233544 0.976353 0.244765 26 42 31
-0.188193 0.469804 0.011927 232 230 209
0.371991 0.939447 0.146238 221 211 198
0.389140 0.927410 0.146612 203 192 180
0.532163 0.983994 0.299282 192 176 162
-0.162341 1.004314 0.473731 193 193 185
-0.165898 1.005492 0.494339 190 175 159
-0.138682 1.004243 0.491235 188 172 156
-0.430032 1.022260 0.406451 132 157 118
-0.442932 1.030181 0.427658 175 188 175
-0.457813 1.031092 0.418068 182 198 176
-0.468093 1.031189 0.406814 135 157 123
0.381300 0.978120 0.159680 109 100 92
0.392424 0.994622 0.160761 176 172 165
0.377166 0.980613 0.166748 127 123 117
0.367687 0.978037 0.166302 173 170 166
0.345374 0.996833 0.515243 193 185 178
-0.499546 0.925417 0.387290 65 89 55
-0.482196 0.927998 0.381636 74 99 64
-0.482481 0.937894 0.374735 60 87 51
-0.551662 0.984690 0.285636 126 140 124
-0.540984 0.994929 0.278488 144 159 145
-0.540472 0.987537 0.283987 172 184 174
-0.569307 1.004838 0.294240 131 146 133
-0.576295 0.995662 0.294844 107 120 89
-0.556191 1.009316 0.281699 156 169 156
-0.556603 1.003925 0.284884 159 174 161
-0.422969 1.032300 0.058675 36 35 31
-0.428678 1.029908 0.046422 92 84 69
0.398980 1.169234 0.124602 141 125 112
0.188572 0.429249 -0.011698 40 37 36
0.223402 1.161155 -0.111634 96 96 100
0.204395 1.154510 -0.120775 115 117 120
-0.321282 0.882331 -0.014704 48 44 41
-0.352173 0.900636 -0.029396 35 32 29
-0.338419 0.891352 -0.016512 50 48 43
-0.342260 0.906386 -0.015907 49 46 41
-0.345466 0.897701 -0.022032 51 44 41
-0.347179 0.907772 -0.022219 52 46 39
-0.363144 0.906173 -0.042102 49 43 38
-0.228995 0.986630 0.122395 73 75 76
0.410438 1.028249 0.592584 208 203 202
0.407434 1.066712 0.576800 155 143 137
0.416966 1.056550 0.591625 198 186 180
-0.390042 1.154945 0.013878 26 26 26
-0.428203 1.004497 0.013926 45 41 37
-0.431348 1.007006 -0.003382 62 58 52
-0.413643 1.001882 -0.015121 29 28 28
-0.395339 1.010297 -0.014797 31 32 32
-0.409781 1.008579 0.001474 43 40 36
-0.422452 0.998494 -0.001158 59 56 52
-0.414375 1.006197 0.012608 29 27 26
-0.503570 0.831240 0.507936 170 195 152
-0.508280 0.856072 0.504097 122 138 100
-0.500894 0.849383 0.534375 109 136 80
-0.503425 0.841102 0.508389 50 71 33
-0.519865 0.847214 0.523121 114 143 81
-0.501722 0.856603 0.514091 159 187 145
-0.515300 0.852186 0.514984 135 163 116
-0.500130 0.853648 0.526412 170 196 150
-0.509260 0.835341 -0.007395 175 178 152
-0.495905 0.855206 0.004657 160 160 141
-0.516422 0.829050 0.004232 143 145 123
-0.504981 0.831954 0.010068 150 151 130
-0.508970 0.822883 0.011559 150 152 130
-0.511415 0.839723 -0.001336 170 172 148
-0.487311 0.766423 0.009847 181 182 157
-0.454603 0.762186 0.009741 181 181 156
-0.458849 0.791467 0.009146 179 181 155
-0.176537 0.420008 0.012814 228 224 204
-0.032860 1.038490 0.522354 245 238 234
0.108339 0.990511 0.420480 211 210 215
-0.159206 1.088664 0.025149 95 93 99
-0.158468 1.083923 0.013648 92 91 97
0.111954 1.109139 -0.068833 18 18 30
-0.546927 0.961961 0.550664 96 123 71
-0.526580 0.950494 0.562680 83 108 56
-0.540473 0.991050 0.537278 58 84 40
-0.542688 0.977269 0.541419 137 161 126
-0.551152 0.969459 0.533065 131 156 118
-0.544595 0.974778 0.560155 94 121 71
-0.534605 0.980283 0.547976 57 83 41
-0.556769 0.957855 0.544893 75 99 62
-0.516486 0.969817 0.563062 102 129 75
-0.258644 0.973918 0.144403 71 71 69
-0.240547 0.984198 0.139464 66 66 65
-0.262022 0.982933 0.113129 66 65 61
-0.253324 0.981426 0.123726 65 62 62
0.306688 1.172002 -0.105617 68 66 65
0.486948 0.981593 0.265307 156 146 133
0.449524 0.989469 0.470110 171 157 144
-0.225735 0.985901 0.105572 67 71 70
-0.195232 0.985951 0.101376 55 58 60
0.081601 0.980508 0.144021 92 92 88
0.111381 1.098562 -0.103866 16 18 30
-0.188760 1.065683 0.522334 246 241 233
-0.193642 1.093225 0.521406 249 243 239
-0.339633 1.010193 0.404271 181 174 151
-0.360391 1.011696 0.435100 185 178 155
-0.353708 1.011450 0.425021 181 175 150
0.080628 0.993386 0.443521 176 178 177
0.425135 0.992736 0.522959 181 168 157
0.409886 0.994246 0.563824 180 166 156
0.425372 0.993877 0.552649 181 167 156
0.411972 0.986852 0.341669 167 153 140
0.003390 0.985233 0.228271 215 220 220
-0.007896 0.987315 0.240771 219 196 196
0.349760 0.507344 0.147103 28 31 32
0.339124 0.512275 0.180679 33 35 34
0.347361 0.494685 0.172171 32 34 34
0.338610 0.502686 0.154336 22 22 20
0.365074 0.484802 0.146993 26 27 31
-0.207509 0.994235 0.381716 41 54 47
0.377332 0.975114 0.069144 154 154 153
-0.309323 0.997585 0.329213 154 158 130
-0.304976 0.997358 0.318262 156 161 133
-0.290900 0.992941 0.317498 138 157 124
-0.292082 0.990134 0.304643 152 156 127
0.366896 1.010745 -0.164094 117 111 102
0.405381 1.080391 0.533207 191 184 179
0.403655 1.051167 0.532617 160 157 152
0.405769 1.054464 0.550234 165 165 164
0.406260 1.054754 0.575084 164 166 166
0.105092 0.346333 -0.024266 43 43 41
0.111180 0.337701 -0.031031 40 38 34
0.088395 0.340212 -0.041165 72 68 60
0.098075 0.325393 -0.040765 69 65 56
0.102708 0.355450 -0.021320 50 48 43
0.077310 0.352462 -0.044167 52 50 44
0.092957 0.352971 -0.042722 49 49 44
0.488554 0.982582 0.291436 156 143 130
0.503158 0.981507 0.285398 154 142 127
0.390256 1.204481 0.011947 20 17 19
-0.006965 0.264745 0.012718 229 223 207
-0.008474 0.244547 0.013776 231 226 212
0.396994 1.194995 0.122165 142 126 113
0.360493 0.974134 0.112015 171 158 145
0.342388 0.976027 0.140530 145 135 126
0.357363 0.968463 0.142757 116 105 96
0.342854 0.974290 0.120454 234 207 185
0.367305 0.972087 0.124515 238 218 204
0.344310 0.975951 0.131603 227 203 182
0.363625 0.975187 0.131097 228 211 196
0.362787 0.972629 0.135480 193 184 174
-0.439929 1.029587 0.381338 109 137 87
-0.439804 1.032998 0.372725 125 138 97
-0.438029 1.030972 0.392961 179 187 166
-0.428050 1.033909 0.378439 141 147 110
-0.417671 1.032100 0.381898 137 145 106
-0.425650 1.035619 0.412719 151 152 135
-0.414346 0.972553 0.310106 91 107 72
-0.396461 0.977287 0.320938 92 111 62
-0.388828 0.973011 0.317561 115 133 83
-0.395247 0.968753 0.324473 110 133 87
-0.395673 0.978456 0.311622 121 134 107
-0.000341 1.028672 0.059766 218 206 192
-0.004352 1.018874 0.054737 197 185 176
-0.016055 1.006770 0.057051 209 198 190
-0.015844 1.033909 0.060252 211 201 205
-0.009404 1.043411 0.057221 230 216 202
0.493446 0.919551 0.152182 238 226 213
0.496391 0.925139 0.156734 238 225 214
-0.483241 0.983758 0.271887 93 110 76
-0.474239 0.983883 0.258012 132 141 121
-0.468033 0.957900 0.252440 71 86 60
-0.401714 1.133397 -0.002616 95 89 72
-0.417719 1.127965 0.002344 79 70 59
-0.419798 1.123695 0.012444 94 88 82
0.365593 1.103238 0.032035 67 60 52
0.370001 1.114085 0.031936 96 83 73
-0.285223 0.818618 0.010455 203 195 185
-0.315380 0.806827 0.011379 209 202 193
-0.285401 0.834666 0.011070 201 195 185
0.508103 1.126499 0.079057 41 35 30
0.488456 1.094861 0.083525 42 38 32
0.486162 1.103890 0.084504 47 41 37
0.519319 1.105946 0.082526 43 38 31
-0.387135 1.069273 0.076662 75 86 72
-0.363575 1.052496 0.056787 192 175 157
-0.367448 1.082021 0.053038 206 188 171
-0.353484 1.059389 0.061446 137 130 118
0.103536 0.328134 0.012740 237 234 217
0.116844 0.344564 0.013799 235 232 215
0.386550 0.473395 0.209663 26 29 32
0.375329 0.479672 0.182274 24 28 30
0.386183 0.459549 0.183162 41 45 45
-0.009965 0.312434 0.013151 236 232 220
-0.455301 0.984714 0.294396 93 101 77
-0.430368 0.994966 0.279298 121 136 102
-0.439944 0.992502 0.293352 98 114 83
-0.442118 0.985021 0.286450 127 131 120
-0.451413 0.979079 0.287915 121 127 113
-0.436548 0.980268 0.283230 126 136 117
-0.396199 1.016235 0.056401 60 59 55
-0.379863 1.025970 0.064237 73 70 67
-0.389493 1.013590 0.063343 36 34 33
-0.391258 0.996663 0.094158 56 52 47
-0.376179 1.038377 0.052545 74 73 70
-0.401513 1.022105 0.080506 66 63 53
-0.400407 1.035025 0.067655 38 37 35
0.392004 0.460155 0.198535 23 27 30
-0.030980 0.591192 0.010896 120 111 100
-0.035615 0.566514 0.011957 247 237 222
-0.011755 0.555468 0.010768 110 102 92
-0.309885 0.872317 -0.011814 55 51 47
-0.316156 0.893607 -0.011042 50 45 43
-0.549131 0.962647 0.568964 161 185 126
-0.535985 0.965052 0.569392 95 122 64
-0.523652 0.960572 0.568092 80 108 57
-0.539249 0.951706 0.573103 178 200 146
0.394334 1.076037 0.059809 63 59 48
0.393300 1.082391 0.072189 89 77 63
0.398800 1.081794 0.065946 90 78 62
0.390225 1.069740 0.060294 93 79 64
0.395560 1.106206 0.071328 57 54 49
0.409525 1.091851 0.065514 54 51 45
-0.466739 0.858493 0.012281 144 145 125
-0.433148 0.867242 0.014054 176 179 156
-0.434388 0.886622 0.013121 164 167 146
-0.454293 0.876649 0.010502 144 146 125
0.344486 0.986272 -0.204369 103 110 110
-0.271849 1.116671 0.022433 100 96 95
-0.265822 1.107863 0.028459 86 82 81
-0.255444 1.095728 0.027837 59 55 57
-0.233401 1.106122 0.022878 61 56 57
-0.255047 1.111006 0.025304 45 40 41
-0.241339 1.107280 0.025927 24 16 20
-0.380339 1.116419 0.381169 89 98 83
0.362099 1.000087 -0.143313 119 118 113
0.238370 0.556543 -0.096124 61 59 54
0.236847 0.550803 -0.097690 22 22 29
0.253212 0.542949 -0.078451 64 60 55
0.246634 0.543346 -0.094232 20 20 27
0.248426 0.541260 -0.118359 18 18 25
0.558155 0.986126 -0.000167 151 149 149
0.571134 0.995377 0.014583 144 139 134
0.571128 0.988674 0.007890 144 140 140
-0.034811 1.010147 0.514855 244 236 226
-0.044417 1.027041 0.522497 244 237 229
-0.034807 1.017251 0.520184 244 237 228
-0.052162 1.004516 0.501859 173 159 144
-0.073016 0.386546 0.012684 233 232 214
-0.163365 0.404882 0.012566 228 226 207
0.093951 1.184518 -0.009732 101 98 94
0.082263 1.195981 -0.004719 70 64 52
0.057693 1.204039 0.001476 61 56 48
0.068149 1.192259 -0.001686 31 30 36
0.076519 1.177014 -0.003169 26 25 32
0.062816 1.173878 -0.006400 22 24 33
-0.460879 0.824076 0.342133 99 123 68
-0.456352 0.819510 0.337917 82 110 52
-0.524263 1.033686 0.325344 105 118 90
-0.501132 1.037861 0.326511 103 122 95
-0.511307 1.026652 0.327180 82 99 65
-0.513800 1.033253 0.342045 127 148 116
-0.506299 1.019769 0.319545 85 107 68
-0.504118 1.041491 0.313207 67 86 59
-0.498155 1.040913 0.317912 69 90 60
-0.504377 1.013021 0.330888 95 111 84
-0.501461 1.043361 0.335114 130 144 129
-0.507039 1.025710 0.338158 128 143 124
-0.506704 1.034390 0.334502 78 93 67
-0.506535 1.029850 0.308589 94 114 78
-0.416701 0.988200 -0.123866 203 192 171
-0.420117 0.993939 -0.108403 207 195 174
0.139675 0.334973 0.013796 235 232 219
0.155813 0.333557 0.014282 236 232 219
-0.392002 1.016965 -0.018627 35 36 39
-0.389420 1.015166 -0.038855 33 35 36
-0.386910 1.031115 -0.035658 35 36 40
-0.394072 1.011227 -0.025502 35 36 40
-0.387584 1.029137 -0.016502 35 37 40
-0.392457 1.006968 -0.042552 35 36 41
-0.164745 1.096933 -0.119979 22 26 53
-0.179403 1.096067 -0.104104 25 27 56
-0.401697 0.949166 -0.152582 63 64 65
-0.405217 0.958657 -0.157319 26 28 46
-0.405706 0.941661 -0.140784 28 30 53
-0.341682 1.005913 0.347242 165 165 139
-0.324678 1.005348 0.350137 164 163 138
0.363918 0.963214 -0.142589 119 117 115
0.384894 0.966589 -0.164979 112 110 105
0.394143 0.981639 -0.135630 103 99 95
0.400109 0.983983 -0.159604 121 120 116
-0.183109 1.141893 0.005589 108 102 108
-0.203484 1.148482 -0.001106 23 25 34
-0.196081 1.122412 0.010754 166 160 163
0.264144 0.540603 -0.064998 29 31 34
-0.299766 0.686281 0.010399 185 193 177
-0.316190 0.708252 0.010088 208 210 187
-0.290549 0.715504 0.010212 208 213 192
-0.387649 0.994901 -0.152957 28 30 36
0.340857 0.472295 0.000268 20 21 23
0.317508 0.483241 0.012953 25 22 19
-0.102381 0.244655 0.013526 229 223 204
0.531519 0.977639 0.136706 96 82 68
0.521563 0.960450 0.135363 80 67 55
0.504720 1.025531 0.017892 96 90 86
0.534511 1.012986 0.019239 89 87 82
0.432653 0.499250 0.332474 42 46 47
0.302493 0.522963 0.074523 22 21 18
0.285195 0.542019 0.062293 26 24 22
0.294847 0.544807 0.081975 30 33 35
0.293549 0.530400 0.050880 31 27 25
0.294448 0.543513 0.057659 44 48 50
0.287691 0.545913 0.054653 52 56 58
0.286931 0.544961 0.077582 28 31 33
0.309890 1.163651 -0.127110 106 97 95
0.311328 1.159712 -0.137105 104 103 101
0.193217 1.033699 0.519701 239 230 220
0.213706 1.053281 0.518769 238 227 216
0.087541 0.409020 0.011716 231 231 213
0.076809 0.388998 0.012374 232 229 210
0.051724 0.426498 0.011482 232 231 212
0.363661 1.008512 -0.064272 123 118 110
0.361022 1.001489 -0.107211 129 123 115
-0.216176 1.005686 0.473338 199 200 190
-0.244918 1.009357 0.494240 193 182 167
-0.393245 1.001221 -0.052103 33 34 37
-0.398511 0.974140 -0.060386 210 199 180
-0.399822 0.971354 -0.076302 152 143 129
-0.401361 0.968806 -0.073712 111 102 92
-0.399058 0.963696 -0.075707 92 84 76
-0.404229 0.990657 -0.067391 172 163 142
-0.403741 0.968911 -0.058217 167 159 146
-0.391681 0.995915 -0.075019 30 31 32
-0.390597 0.968007 -0.051986 196 185 168
-0.401276 0.963280 -0.053600 64 56 52
-0.405490 0.975006 -0.054914 179 167 152
-0.501823 0.821788 0.241236 99 114 67
-0.489213 0.818797 0.243559 112 124 75
0.587183 0.978061 -0.155979 153 148 154
0.369186 0.464282 0.108885 21 22 22
0.230485 1.177036 -0.094460 94 89 90
0.238905 1.160831 -0.111643 111 106 104
0.235220 1.169515 -0.102975 98 94 93
0.187833 1.149356 -0.113788 98 101 99
-0.105149 0.987506 0.179951 187 194 190
-0.138260 0.987235 0.168717 53 56 54
0.104130 1.171530 -0.030658 58 56 58
0.104430 1.184029 -0.040704 51 49 48
0.104648 1.179376 -0.019742 64 63 60
0.176412 1.149612 -0.103981 60 57 51
0.162973 1.148309 -0.104082 82 84 82
0.169051 1.157063 -0.093223 57 55 42
0.158431 1.155215 -0.071329 58 56 51
0.142089 0.298641 -0.031922 38 38 31
0.151145 0.296548 -0.024879 36 36 30
0.132885 0.314585 -0.024370 40 39 38
0.144588 0.323280 -0.015467 40 39 38
0.561905 1.010269 0.045824 117 113 106
0.573331 1.007559 0.021391 130 124 116
0.563775 1.005806 0.024561 130 126 120
0.552116 1.006612 0.021004 109 104 99
0.199261 0.582316 -0.126244 84 80 76
0.191711 0.591138 -0.142154 48 48 49
-0.350279 1.001356 0.091972 59 57 55
-0.339974 0.997760 0.096783 42 40 38
0.111932 1.007042 0.516643 244 233 221
0.121474 1.002795 0.510708 242 230 219
0.328631 0.432015 -0.134558 24 25 27
0.327432 0.437899 -0.147249 18 20 19
0.321284 0.449160 -0.141793 17 19 18
-0.367364 0.847062 0.312320 81 114 57
0.368550 0.431567 0.130345 22 21 20
0.359496 0.440052 0.111958 21 21 20
0.376623 0.454676 0.127439 20 22 21
0.383989 0.439482 0.122719 20 22 21
-0.182607 1.086393 0.024186 63 61 67
-0.490567 0.898273 0.392984 65 93 50
-0.479317 0.886040 0.391385 63 85 46
-0.482060 0.876366 0.408625 59 77 40
-0.500944 0.894839 0.395685 63 92 45
-0.494008 0.882830 0.403655 61 83 42
-0.487149 0.887742 0.390458 49 66 31
-0.354417 1.079759 0.059204 147 145 126
-0.271347 0.871515 -0.008444 38 35 33
-0.259518 0.865735 -0.001167 38 34 32
-0.285097 0.883562 -0.003816 50 47 42
0.161434 0.639905 -0.207371 22 25 26
0.387846 1.069861 0.514009 205 196 189
0.402947 1.079015 0.524883 191 182 176
0.398774 1.084441 0.518705 199 190 181
0.397926 1.108526 0.515928 205 197 188
-0.103385 1.094083 -0.200384 46 50 83
-0.072783 1.094066 -0.206578 47 52 84
-0.088377 1.094416 -0.180229 42 46 80
0.346746 0.975398 -0.003347 92 91 88
0.337207 0.985018 -0.002127 85 84 78
0.353962 0.971536 -0.011585 106 106 104
0.357470 0.968757 0.004180 91 90 88
0.334896 0.989782 0.005433 118 113 105
0.134474 0.396772 0.002209 82 79 64
0.115361 0.407578 0.009135 216 210 195
0.142990 0.398569 -0.000065 53 59 49
0.333762 0.470557 -0.134090 18 19 21
0.296116 0.495108 -0.159704 29 28 27
0.325096 0.487510 -0.149479 19 19 21
0.307355 0.479201 -0.159534 18 16 19
0.321956 0.452531 -0.157620 24 24 26
0.063228 1.095117 -0.156479 25 28 62
0.167258 1.084388 0.517781 239 230 221
0.212607 0.399220 -0.015787 144 137 131
0.197852 0.417111 -0.019256 137 133 125
0.207672 0.408293 -0.011738 22 20 22
0.581092 0.982312 0.311914 191 174 160
0.598669 0.980014 0.282659 192 175 159
0.393868 0.990293 0.452467 174 160 147
0.374563 0.991347 0.463264 96 87 77
-0.548237 0.899623 0.395414 70 90 50
-0.528936 0.894598 0.399652 73 94 51
-0.533667 0.886830 0.403520 68 83 49
0.083678 0.981691 0.176021 114 116 112
0.454258 0.479832 0.338779 65 70 72
0.445160 0.488278 0.345099 69 75 78
-0.263119 1.023520 0.064255 231 215 196
-0.287718 1.005263 0.066694 176 165 148
-0.282064 1.025383 0.070018 120 125 101
-0.266661 1.004026 0.061397 159 147 127
-0.254640 1.005610 0.060690 169 154 139
-0.275161 1.030724 0.079600 113 118 92
-0.088601 0.985786 0.111542 157 161 155
0.380127 1.071714 -0.085476 82 82 81
-0.558634 0.977259 0.209752 100 113 86
-0.547704 0.977232 0.221702 78 95 61
-0.532140 0.970086 0.224789 70 86 53
-0.164816 0.989939 0.283646 210 216 212
-0.142377 0.990834 0.296224 218 223 226
0.471944 1.037612 0.605169 218 210 207
0.316040 0.538134 0.119156 67 71 70
0.325338 0.538471 0.146230 31 35 37
0.304865 0.555971 0.144601 32 34 36
0.304862 0.550498 0.142681 27 32 34
0.315551 0.547059 0.142916 33 36 38
0.308684 0.542112 0.130991 29 32 33
0.299759 0.545064 0.117998 46 50 48
-0.249102 0.979421 0.184276 28 34 29
-0.265579 0.979008 0.198157 29 34 32
-0.249690 0.980508 0.210888 31 40 32
-0.229371 0.981493 0.195479 64 63 61
-0.249150 0.983877 0.199428 32 41 34
-0.261038 0.973987 0.207129 64 77 54
-0.061148 1.219872 0.004761 24 23 36
-0.055139 1.229243 0.004797 22 21 33
-0.049920 1.225320 0.000400 31 26 33
-0.040204 1.218698 0.002318 23 20 34
0.357539 0.422423 -0.123979 18 20 19
0.346617 0.447942 -0.133229 18 20 19
0.331796 0.418264 -0.115873 25 25 22
0.329027 0.422283 -0.096806 29 27 23
0.323159 0.440420 -0.109086 29 27 23
0.460435 1.039280 0.605249 236 231 228
0.455756 1.050361 0.605541 243 238 237
0.556938 1.020097 0.054201 96 87 75
-0.562871 0.981292 0.334045 144 151 143
-0.562699 1.002520 0.328053 119 127 119
-0.561489 0.972045 0.335080 152 162 155
-0.557172 1.018715 0.323486 150 165 143
-0.556544 0.986365 0.344497 137 145 137
-0.569224 1.002988 0.321434 165 181 158
-0.571791 0.994032 0.328510 156 161 157
-0.557607 1.007035 0.329665 109 134 97
-0.536759 0.868712 0.536682 85 108 69
-0.529112 0.868776 0.529497 113 138 90
-0.523339 0.861892 0.537710 87 111 68
0.068210 1.049241 0.520766 244 238 230
0.072932 1.025568 0.523353 241 233 224
0.062227 1.033993 0.521944 241 233 223
0.062038 1.015827 0.521495 241 233 224
-0.250860 1.110792 0.521545 246 236 226
-0.381193 1.014388 0.450194 171 168 153
-0.405279 1.028983 0.460268 177 173 156
-0.396393 1.020795 0.445046 179 173 154
-0.436207 1.009809 0.026694 57 53 46
0.339393 0.982023 -0.133105 124 117 108
0.349056 0.972697 -0.143633 64 63 61
0.341088 0.989221 -0.127903 92 93 91
0.347847 0.973207 -0.118432 68 69 67
0.354332 0.996754 -0.116208 138 146 140
0.340724 0.981352 -0.108910 88 86 84
0.357115 0.996197 -0.135405 130 138 132
0.347641 0.992793 -0.142027 123 118 116
0.118507 0.609846 -0.109497 47 45 42
0.136923 0.605532 -0.099999 49 47 45
-0.145438 1.115895 0.020244 29 26 29
-0.563786 0.976415 0.492990 99 122 78
-0.552357 0.990128 0.494495 82 109 59
-0.567512 0.985410 0.499039 90 111 69
0.368938 0.962079 -0.169979 112 111 110
0.364459 0.961976 -0.173195 143 143 142
-0.396653 0.976758 0.352858 110 141 93
-0.386868 0.982042 0.351195 51 76 35
-0.399251 1.002643 0.358917 159 175 156
-0.407572 0.986347 0.359144 92 135 78
-0.401127 0.967329 0.356474 95 133 81
-0.131291 1.095703 -0.156479 29 33 68
-0.044877 0.513564 0.011111 232 231 206
-0.463825 0.915100 0.263146 121 133 93
-0.486210 0.904237 0.254311 119 132 106
-0.472466 0.901949 0.259489 135 143 128
-0.463506 0.882618 0.243161 117 124 110
-0.453982 0.887897 0.267084 121 135 104
-0.463600 0.892356 0.254869 120 130 110
-0.456840 0.900384 0.264590 100 120 75
0.204966 1.103900 0.516071 234 225 217
0.168109 1.099790 0.516416 235 226 218
0.180830 1.094637 0.517054 226 218 212
-0.257354 0.992573 0.340322 37 71 50
0.299610 0.992200 0.466859 191 188 182
0.312739 0.990299 0.492832 180 164 153
-0.565706 0.967615 0.197681 131 159 117
-0.561406 0.969859 0.185050 138 140 137
-0.427787 1.099682 -0.037609 121 112 99
-0.426544 1.074405 -0.026545 122 113 101
-0.533636 0.927791 0.402874 126 154 108
-0.560996 0.934375 0.414720 94 116 80
-0.549374 0.930505 0.416155 115 144 102
-0.536278 0.925224 0.413956 73 98 58
-0.529923 0.910011 0.421725 54 68 45
-0.569508 0.930221 0.415671 82 105 66
-0.556420 0.923424 0.418553 111 134 96
-0.551001 0.924865 0.403113 123 140 108
-0.251238 0.524314 0.013230 203 205 184
-0.258992 0.499960 0.012200 221 218 194
-0.317212 0.533725 0.011242 221 218 194
0.479436 0.947001 0.137675 102 87 71
0.489485 0.970144 0.136701 98 84 68
0.500233 0.938216 0.136496 235 223 209
0.405057 0.995219 0.537514 181 169 156
0.395757 1.000989 0.539548 178 166 154
0.403105 0.999521 0.558411 179 165 154
0.401812 1.025732 0.558450 172 170 170
-0.048461 1.018276 0.055832 176 167 159
-0.027498 1.018438 0.054479 179 169 167
-0.030691 1.025579 0.057536 233 223 212
-0.039284 0.998720 0.051415 205 209 210
-0.058346 0.999341 0.051976 205 209 210
-0.049934 1.007028 0.057069 109 106 109
-0.515222 0.963078 0.499184 113 140 89
-0.065500 0.984788 0.086222 190 201 195
-0.037381 0.992656 0.052288 215 216 222
-0.073899 1.005969 0.055897 179 181 182
-0.068173 0.991283 0.055589 217 217 219
0.110581 1.228133 -0.051496 35 35 38
0.254691 0.364082 -0.012963 34 30 30
0.234637 0.353733 -0.019052 31 31 34
-0.467841 0.903741 0.297172 108 132 83
-0.475518 0.912409 0.302707 99 125 71
-0.347187 0.859830 0.277713 126 159 114
-0.364082 0.862617 0.285417 132 163 116
-0.363919 0.855325 0.305607 72 98 62
-0.352778 0.846053 0.302664 106 135 95
-0.337240 0.841987 0.293761 94 126 82
-0.360527 0.859722 0.297167 119 141 107
0.336182 0.460047 -0.072979 18 19 21
0.321169 0.444387 -0.091949 23 22 19
0.317136 0.451580 -0.097503 14 15 14
0.330124 0.468948 -0.088979 18 19 21
0.345466 0.441800 -0.090636 18 19 21
0.404532 1.039328 0.559662 179 180 182
0.403153 1.034835 0.579064 180 180 185
0.406373 1.036640 0.586082 199 199 201
0.339368 1.021546 0.523202 131 123 115
0.360064 1.042309 0.514546 210 200 194
0.345946 1.035152 0.514929 209 198 192
0.377126 1.028941 0.518752 222 210 199
0.357604 1.024406 0.523249 219 213 208
-0.414473 0.859850 0.010204 185 187 162
-0.391905 0.840054 0.264873 109 141 94
-0.377379 0.851893 0.264146 113 121 105
-0.405320 0.832010 0.274456 109 137 83
-0.044784 0.489541 0.011752 234 230 206
-0.023963 0.464042 0.011787 229 227 204
-0.014181 0.487702 0.011609 230 226 202
-0.367968 1.158465 0.026258 62 54 51
-0.196794 0.447754 0.012978 228 224 204
-0.367097 0.970489 0.346327 131 157 100
0.236962 1.202069 -0.091479 32 34 39
0.250679 1.202513 -0.093549 39 39 47
0.242143 1.227059 -0.095334 25 27 32
-0.189436 0.658702 0.011734 250 240 225
-0.424765 0.940323 0.234147 29 55 20
-0.420017 0.948629 0.238962 68 90 50
0.438535 0.989673 0.450107 178 164 151
0.463975 0.989542 0.448878 177 163 150
0.459219 0.989728 0.462096 169 156 141
0.413453 0.464813 0.284459 45 50 50
-0.471095 0.800522 0.304752 90 109 57
-0.109602 1.079279 0.521081 247 241 234
-0.451261 0.958728 0.315128 73 94 52
-0.457293 0.937335 0.335890 73 103 57
-0.460746 0.928684 0.335957 84 116 67
-0.442297 0.941501 0.339857 76 106 60
-0.461547 0.958839 0.337188 47 74 35
-0.441411 0.955424 0.330768 85 118 73
-0.457450 0.948224 0.335964 59 91 46
-0.437859 0.946412 0.330661 83 116 71
-0.449819 0.949259 0.332603 81 114 67
-0.429663 0.934674 0.336917 70 101 57
0.017855 0.985044 0.193271 196 200 198
0.000065 0.985892 0.162467 155 158 155
-0.121514 0.991503 0.316021 222 227 230
-0.107017 0.988883 0.294469 220 225 229
0.531936 0.962332 -0.196122 204 203 205
0.516455 0.962486 -0.194810 212 210 213
0.517184 0.958954 -0.200654 133 133 133
0.516349 0.980336 -0.182873 173 171 173
0.524150 0.976849 -0.189602 178 176 178
0.337028 0.400657 -0.095014 25 25 25
-0.055203 1.094930 -0.106616 108 110 107
-0.060243 1.095451 -0.137854 110 113 110
-0.524116 0.886420 -0.061253 25 27 25
-0.534625 0.896833 -0.052194 34 31 23
-0.518725 0.897509 -0.067231 25 29 28
-0.541804 0.907591 -0.052393 16 16 14
-0.528257 0.905036 -0.054302 34 39 38
-0.534548 0.888300 -0.054507 23 26 24
-0.541796 0.875537 -0.054623 17 19 17
0.073680 0.997183 0.480021 188 185 178
0.076642 0.996749 0.468410 115 111 105
0.050348 0.997616 0.492508 172 158 146
0.101684 0.996833 0.488075 170 156 147
-0.397507 0.964629 -0.027972 142 133 119
-0.394122 0.966706 -0.011613 93 83 74
-0.399141 0.967911 -0.041733 199 188 170
0.566579 0.982518 0.155408 205 195 182
0.553978 0.975442 0.155767 177 165 151
0.578110 0.983368 0.156118 95 84 72
0.529306 0.981306 -0.052979 156 155 158
-0.544859 0.894972 0.507852 86 110 71
-0.530012 0.878474 0.508130 104 130 92
-0.530934 0.889118 0.513056 150 176 138
-0.543769 0.906798 0.528151 39 58 27
-0.531835 0.898352 0.527277 38 57 26
-0.528525 0.894808 0.521827 39 58 27
-0.545062 0.913731 0.520836 103 124 89
-0.536513 0.905090 0.517127 132 153 118
-0.545723 0.886823 0.514589 83 107 70
-0.530665 0.886816 0.521188 118 144 107
-0.539190 0.898693 0.519077 73 95 59
0.435811 1.123666 0.077578 45 42 34
0.463043 1.129596 0.080018 46 40 35
0.448096 1.121311 0.081283 45 39 32
0.459221 1.108927 0.083913 47 41 34
0.443424 1.106108 0.081407 46 42 35
-0.321480 1.007329 0.378646 76 86 64
-0.267287 0.995981 0.358765 178 177 153
-0.289496 1.003592 0.403677 184 180 158
0.546579 0.989610 0.451979 218 205 194
0.514924 0.989588 0.461938 218 204 192
0.265077 0.552069 -0.135421 21 22 26
0.257107 0.563790 -0.160844 21 22 26
0.001469 0.981877 0.086097 186 189 187
0.345905 0.989870 0.482418 187 183 178
0.358797 0.987986 0.431857 161 159 157
0.352057 0.988351 0.454002 153 142 129
-0.025150 0.425806 0.012664 233 229 209
-0.047274 0.392243 0.013333 232 229 209
0.386250 1.025872 0.067976 105 97 88
-0.499471 1.000746 0.185506 112 127 98
-0.486959 1.002286 0.176335 74 89 57
-0.506678 1.005193 0.156619 131 142 131
-0.485857 1.024603 0.161011 67 88 52
-0.490940 1.006719 0.158708 87 108 71
-0.483638 1.004622 0.167580 73 90 55
-0.500521 1.003835 0.176786 75 91 61
-0.478995 1.010497 0.167822 68 88 57
0.030554 0.994219 0.385521 218 219 224
0.028376 0.995457 0.404021 216 217 221
-0.087630 0.710015 -0.007197 144 139 142
0.402528 0.530906 0.340352 66 72 74
-0.168309 0.986549 0.199299 91 100 96
-0.560444 0.948781 0.589070 159 178 133
-0.559375 0.956262 0.574611 164 182 140
-0.488904 1.035206 0.405167 118 141 101
-0.493259 1.032807 0.417502 154 168 150
-0.488744 1.027416 0.411932 130 149 118
-0.502640 1.036471 0.412691 142 158 136
0.453278 0.976938 0.185641 186 183 180
0.124678 0.977035 0.079772 167 169 161
0.140456 0.976242 0.067727 159 162 149
0.367345 1.113594 -0.192799 178 179 171
0.046490 1.081204 -0.025748 30 31 48
-0.240861 0.996549 0.390340 34 50 41
-0.216631 0.997716 0.401154 37 49 41
0.384713 1.048008 0.120072 106 91 73
-0.511254 0.881271 0.230230 109 134 80
-0.497083 0.875699 0.247544 125 150 93
-0.497599 0.875863 0.233090 128 153 97
-0.485575 0.870967 0.240432 114 143 90
-0.498919 0.872818 0.230599 126 154 95
0.259667 0.531372 -0.120918 17 17 24
0.268611 0.523343 -0.128976 15 16 22
0.399671 0.984871 0.268279 170 158 145
0.383515 0.984416 0.256021 167 156 144
0.445930 0.982985 0.260004 166 156 143
0.387468 0.985605 0.291021 167 155 143
0.433143 0.983794 0.274396 163 153 140
-0.380875 1.094120 0.447346 115 143 97
-0.376641 1.014567 0.472556 181 174 155
0.369583 1.016157 -0.056301 138 142 138
-0.119849 1.114197 0.018269 33 29 31
-0.097483 1.115620 0.020020 42 37 39
-0.084780 1.106138 0.027696 79 69 63
-0.372201 1.096849 -0.043877 73 76 70
-0.383089 1.088575 -0.009285 47 48 47
-0.376007 1.097885 -0.029697 84 86 82
0.203807 1.152289 -0.154584 93 97 98
0.222252 1.156287 -0.138854 116 114 114
0.593616 0.987035 0.468788 219 205 195
-0.537319 0.903853 0.234810 87 105 62
-0.527395 0.893968 0.228875 87 108 59
-0.531943 0.900619 0.233669 87 108 59
0.367267 1.016023 -0.039842 141 141 138
0.358065 1.003296 -0.046729 110 104 98
0.352036 1.000782 -0.025492 141 149 141
0.358546 1.006281 -0.005281 128 125 118
0.183909 0.332575 -0.002375 84 76 67
0.185099 0.332346 0.006926 199 191 177
0.197002 0.318561 0.006284 84 76 67
0.200899 0.305138 0.011719 233 227 209
0.545413 0.996655 0.587110 222 212 211
0.549706 0.992111 0.578308 208 197 191
-0.083981 1.042960 0.058520 239 239 236
-0.090845 1.032572 0.060352 243 237 227
-0.109853 1.041699 0.058999 202 202 202
-0.097141 1.047414 0.060371 228 225 216
0.154168 0.978104 0.098834 185 186 189
-0.412993 0.922377 -0.186643 57 58 55
-0.411376 0.913236 -0.197281 49 46 46
-0.410020 0.930887 -0.196070 50 51 49
-0.393975 1.150979 -0.152862 44 45 56
0.304218 1.019296 0.056139 24 25 26
0.287509 1.014970 0.060358 29 28 31
0.294587 1.004318 0.063377 76 73 71
0.283582 1.000031 0.070020 112 108 105
0.304204 1.019514 0.067805 64 63 61
0.280636 1.020496 0.070266 85 85 87
0.294899 1.019868 0.067954 142 142 145
0.283228 1.032865 0.061414 47 46 45
-0.240132 0.991698 0.323614 41 81 56
0.366687 0.983373 0.310554 145 141 139
0.328210 0.986025 0.338863 173 160 145
0.351220 0.984311 0.340019 166 153 142
-0.320587 0.991459 0.152388 101 100 73
-0.340829 0.996723 0.162680 122 118 97
-0.338353 0.983696 0.314909 89 116 64
-0.304091 0.989128 0.308191 111 138 101
-0.328986 0.999876 0.325678 147 154 123
-0.324886 0.997850 0.318376 131 145 110
0.051168 1.020125 0.054173 149 137 129
0.060238 1.032194 0.061167 197 190 180
0.070103 1.025088 0.056977 221 209 196
-0.157981 0.993408 0.058075 197 203 200
-0.163431 1.010510 0.058251 163 152 140
