ply
format ascii 1.0
element vertex 1292
property float x
property float y
property float z
property uchar red
property uchar green
property uchar blue
end_header
-0.120747 0.681057 -0.069832 0 255 0
-0.135978 0.694024 -0.057832 0 255 0
-0.113936 0.689090 -0.132832 0 255 0
-0.109864 0.694520 -0.201832 0 255 0
-0.117831 0.683632 -0.108832 0 255 0
-0.112271 0.690287 -0.222832 0 255 0
-0.139781 0.708371 -0.011780 0 255 0
-0.153450 0.689274 -0.168832 0 255 0
-0.126763 0.713855 -0.087832 0 255 0
-0.141488 0.659239 -0.126832 0 255 0
-0.139276 0.673200 -0.201832 0 255 0
-0.109451 0.708088 -0.156832 0 255 0
-0.135534 0.658475 -0.165832 0 255 0
-0.110894 0.706833 -0.117832 0 255 0
-0.156392 0.718553 -0.201832 0 255 0
-0.150828 0.661522 -0.153832 0 255 0
-0.152082 0.669059 -0.093832 0 255 0
-0.117720 0.675063 -0.090832 0 255 0
-0.119978 0.699159 -0.011741 0 255 0
-0.161694 0.705767 -0.093832 0 255 0
-0.155978 0.692712 -0.147832 0 255 0
-0.160697 0.672197 -0.224097 0 255 0
-0.166595 0.682244 -0.132832 0 255 0
-0.142246 0.673631 -0.183832 0 255 0
-0.158498 0.705261 -0.188266 0 255 0
-0.103797 0.702672 -0.186832 0 255 0
-0.112837 0.667532 -0.213832 0 255 0
-0.117484 0.695727 -0.038334 0 255 0
-0.157328 0.712645 -0.111832 0 255 0
-0.137462 0.665480 -0.223780 0 255 0
-0.138791 0.676258 -0.135832 0 255 0
-0.169333 0.703940 -0.219832 0 255 0
-0.117692 0.701835 -0.093832 0 255 0
-0.105015 0.678565 -0.142235 0 255 0
-0.131683 0.682789 -0.012152 0 255 0
-0.108657 0.673068 -0.117832 0 255 0
-0.137689 0.692853 -0.075832 0 255 0
-0.157182 0.694393 -0.210832 0 255 0
-0.129317 0.659374 -0.111832 0 255 0
-0.133016 0.693553 -0.039832 0 255 0
-0.124799 0.660437 -0.126832 0 255 0
-0.107332 0.672858 -0.195832 0 255 0
-0.149472 0.679532 -0.078832 0 255 0
-0.144817 0.703094 -0.045832 0 255 0
-0.155606 0.665316 -0.123832 0 255 0
-0.156033 0.692720 -0.108832 0 255 0
-0.104796 0.702830 -0.135832 0 255 0
-0.160347 0.712765 -0.171832 0 255 0
-0.129900 0.674871 -0.105832 0 255 0
-0.102938 0.699498 -0.105832 0 255 0
-0.102607 0.681222 -0.105832 0 255 0
-0.160327 0.712889 -0.141832 0 255 0
-0.103193 0.681314 -0.156832 0 255 0
-0.144729 0.677133 -0.168832 0 255 0
-0.160947 0.670620 -0.159832 0 255 0
-0.167957 0.691572 -0.189832 0 255 0
-0.144474 0.678740 -0.052833 0 255 0
-0.157570 0.702076 -0.123832 0 255 0
-0.132300 0.698074 -0.020376 0 255 0
-0.118308 0.680670 -0.183832 0 255 0
-0.104615 0.700272 -0.168832 0 255 0
-0.141467 0.659374 -0.180832 0 255 0
-0.167240 0.688421 -0.119239 0 255 0
-0.119703 0.662539 -0.147832 0 255 0
-0.129979 0.674372 -0.078832 0 255 0
-0.148706 0.694597 -0.024832 0 255 0
-0.105330 0.676583 -0.171832 0 255 0
-0.122812 0.662088 -0.171832 0 255 0
-0.154450 0.701582 -0.075832 0 255 0
-0.167107 0.697512 -0.159832 0 255 0
-0.116164 0.684884 -0.150832 0 255 0
-0.141489 0.659229 -0.201832 0 255 0
-0.108447 0.676072 -0.224185 0 255 0
-0.125591 0.678786 -0.054832 0 255 0
-0.115460 0.689332 -0.081006 0 255 0
-0.119604 0.663163 -0.198832 0 255 0
-0.133341 0.672327 -0.156832 0 255 0
-0.141560 0.687391 -0.093832 0 255 0
-0.117852 0.683636 -0.210832 0 255 0
-0.121718 0.678173 -0.129832 0 255 0
-0.168740 0.688659 -0.144832 0 255 0
-0.167331 0.687846 -0.102832 0 255 0
-0.127928 0.706494 -0.059328 0 255 0
-0.150188 0.681021 -0.201832 0 255 0
-0.113032 0.695022 -0.180832 0 255 0
-0.148700 0.697634 -0.057832 0 255 0
-0.131591 0.673662 -0.213832 0 255 0
-0.163822 0.675730 -0.147832 0 255 0
-0.111510 0.703894 -0.222832 0 255 0
-0.146987 0.660914 -0.138832 0 255 0
-0.101063 0.690089 -0.132832 0 255 0
-0.148457 0.682408 -0.141832 0 255 0
-0.168036 0.685509 -0.168832 0 255 0
-0.155922 0.721526 -0.153832 0 255 0
-0.162325 0.672455 -0.192832 0 255 0
-0.129899 0.674877 -0.186832 0 255 0
-0.118670 0.688241 -0.096832 0 255 0
-0.143000 0.678507 -0.117832 0 255 0
-0.167240 0.688421 -0.203108 0 255 0
-0.158011 0.699108 -0.222832 0 255 0
-0.106485 0.707640 -0.096832 0 255 0
-0.121726 0.678175 -0.162832 0 255 0
-0.158269 0.706701 -0.207832 0 255 0
-0.113020 0.695021 -0.111832 0 255 0
-0.122198 0.684325 -0.042832 0 255 0
-0.144168 0.680672 -0.039832 0 255 0
-0.157192 0.694328 -0.180832 0 255 0
-0.155388 0.686544 -0.227245 0 255 0
-0.162057 0.675451 -0.099832 0 255 0
-0.103444 0.678317 -0.129832 0 255 0
-0.114316 0.686113 -0.120832 0 255 0
-0.154707 0.690838 -0.081832 0 255 0
-0.103609 0.684417 -0.198832 0 255 0
-0.165011 0.702497 -0.147832 0 255 0
-0.157521 0.702068 -0.165832 0 255 0
-0.125879 0.661902 -0.099832 0 255 0
-0.145237 0.712272 -0.086506 0 255 0
-0.102050 0.693282 -0.216832 0 255 0
-0.125003 0.663506 -0.222832 0 255 0
-0.125255 0.660509 -0.159832 0 255 0
-0.117939 0.692857 -0.066832 0 255 0
-0.138276 0.660338 -0.099832 0 255 0
-0.156016 0.692718 -0.135832 0 255 0
-0.157187 0.694357 -0.198832 0 255 0
-0.148845 0.670321 -0.224096 0 255 0
-0.132152 0.679826 -0.095246 0 255 0
-0.151016 0.694964 -0.098314 0 255 0
-0.126172 0.698402 -0.030832 0 255 0
-0.109923 0.705112 -0.207832 0 255 0
-0.114744 0.704405 -0.081832 0 255 0
-0.109981 0.673277 -0.099832 0 255 0
-0.140250 0.705408 -0.056286 0 255 0
-0.143676 0.681651 -0.012832 0 255 0
-0.150655 0.707055 -0.096832 0 255 0
-0.116352 0.664520 -0.117832 0 255 0
-0.129110 0.679852 -0.030832 0 255 0
-0.169553 0.692988 -0.213832 0 255 0
-0.165626 0.679434 -0.216832 0 255 0
-0.155636 0.665795 -0.204832 0 255 0
-0.109662 0.694488 -0.156832 0 255 0
-0.109248 0.697460 -0.126832 0 255 0
-0.111563 0.703902 -0.144832 0 255 0
-0.113960 0.689094 -0.192832 0 255 0
-0.148818 0.697653 -0.036832 0 255 0
-0.163571 0.673229 -0.126832 0 255 0
-0.129572 0.696116 -0.066832 0 255 0
-0.121756 0.678179 -0.117832 0 255 0
-0.158398 0.667535 -0.108832 0 255 0
-0.150112 0.710007 -0.015832 0 255 0
-0.154005 0.686325 -0.156832 0 255 0
-0.158454 0.667180 -0.180832 0 255 0
-0.148457 0.682408 -0.180832 0 255 0
-0.161380 0.711792 -0.129832 0 255 0
-0.126220 0.659753 -0.138832 0 255 0
-0.142258 0.673556 -0.084832 0 255 0
-0.103057 0.690932 -0.174832 0 255 0
-0.109689 0.670194 -0.147832 0 255 0
-0.127928 0.706494 -0.013692 0 255 0
-0.151110 0.685866 -0.057832 0 255 0
-0.138786 0.676300 -0.222832 0 255 0
-0.124198 0.699828 -0.084832 0 255 0
-0.118038 0.701889 -0.060832 0 255 0
-0.102134 0.693296 -0.192832 0 255 0
-0.152571 0.704322 -0.065398 0 255 0
-0.127638 0.697336 -0.048832 0 255 0
-0.152672 0.684508 -0.114832 0 255 0
-0.141818 0.705656 -0.078832 0 255 0
-0.138695 0.696049 -0.012143 0 255 0
-0.119684 0.662665 -0.187557 0 255 0
-0.119997 0.679859 -0.081832 0 255 0
-0.157596 0.702080 -0.102832 0 255 0
-0.160976 0.670433 -0.213832 0 255 0
-0.161584 0.711824 -0.195832 0 255 0
-0.127205 0.691882 -0.009832 0 255 0
-0.165832 0.697310 -0.098093 0 255 0
-0.143682 0.702914 -0.019696 0 255 0
-0.105734 0.674032 -0.183832 0 255 0
-0.167796 0.697622 -0.123832 0 255 0
-0.102435 0.690306 -0.162832 0 255 0
-0.157090 0.714149 -0.101452 0 255 0
-0.111315 0.696321 -0.213832 0 255 0
-0.137562 0.674608 -0.147832 0 255 0
-0.139714 0.699248 -0.066832 0 255 0
-0.158029 0.708224 -0.227316 0 255 0
-0.116169 0.684855 -0.174832 0 255 0
-0.111802 0.693251 -0.141832 0 255 0
-0.163955 0.709162 -0.180664 0 255 0
-0.146017 0.678985 -0.192832 0 255 0
-0.110897 0.682535 -0.090832 0 255 0
-0.108989 0.711009 -0.108832 0 255 0
-0.141454 0.659449 -0.156832 0 255 0
-0.141748 0.676775 -0.210832 0 255 0
-0.107187 0.703208 -0.197699 0 255 0
-0.168197 0.701556 -0.189832 0 255 0
-0.117179 0.707829 -0.015832 0 255 0
-0.157119 0.705042 -0.135832 0 255 0
-0.104152 0.684016 -0.219832 0 255 0
-0.116867 0.692592 -0.018832 0 255 0
-0.118262 0.680664 -0.138832 0 255 0
-0.155995 0.692714 -0.120832 0 255 0
-0.123041 0.679825 -0.099832 0 255 0
-0.106582 0.707028 -0.126832 0 255 0
-0.128919 0.676277 -0.063832 0 255 0
-0.166675 0.682257 -0.192832 0 255 0
-0.158406 0.667483 -0.150832 0 255 0
-0.167931 0.685493 -0.180832 0 255 0
-0.114199 0.716468 -0.206298 0 255 0
-0.156473 0.698865 -0.089147 0 255 0
-0.110503 0.709809 -0.186832 0 255 0
-0.161040 0.670032 -0.171832 0 255 0
-0.110177 0.670270 -0.204832 0 255 0
-0.138574 0.658453 -0.114832 0 255 0
-0.147849 0.679275 -0.066832 0 255 0
-0.166103 0.676420 -0.165832 0 255 0
-0.138506 0.658887 -0.213832 0 255 0
-0.151417 0.676802 -0.087832 0 255 0
-0.148790 0.688536 -0.033832 0 255 0
-0.132355 0.659370 -0.177832 0 255 0
-0.149219 0.687135 -0.018832 0 255 0
-0.111926 0.700922 -0.102832 0 255 0
-0.168675 0.691685 -0.132832 0 255 0
-0.127165 0.672961 -0.087887 0 255 0
-0.150178 0.661903 -0.183832 0 255 0
-0.132152 0.679826 -0.021212 0 255 0
-0.103536 0.690481 -0.207832 0 255 0
-0.108114 0.703356 -0.177832 0 255 0
-0.115512 0.669825 -0.222832 0 255 0
-0.127928 0.706494 -0.023218 0 255 0
-0.116648 0.681830 -0.222832 0 255 0
-0.132700 0.714720 -0.015832 0 255 0
-0.139277 0.673195 -0.126832 0 255 0
-0.144544 0.659120 -0.168832 0 255 0
-0.164359 0.706608 -0.117832 0 255 0
-0.132541 0.658189 -0.198832 0 255 0
-0.114313 0.686113 -0.201832 0 255 0
-0.103659 0.681388 -0.120832 0 255 0
-0.158084 0.699120 -0.156832 0 255 0
-0.156870 0.715543 -0.120832 0 255 0
-0.103138 0.690417 -0.103174 0 255 0
-0.137524 0.703440 -0.039832 0 255 0
-0.104623 0.699764 -0.117832 0 255 0
-0.135512 0.696967 -0.030832 0 255 0
-0.120719 0.684090 -0.060832 0 255 0
-0.134302 0.658905 -0.132832 0 255 0
-0.132348 0.659410 -0.153832 0 255 0
-0.158967 0.702298 -0.176284 0 255 0
-0.119684 0.662665 -0.209803 0 255 0
-0.143570 0.665271 -0.093832 0 255 0
-0.129902 0.674859 -0.201832 0 255 0
-0.129896 0.674896 -0.132832 0 255 0
-0.138795 0.676242 -0.108832 0 255 0
-0.135750 0.676287 -0.054832 0 255 0
-0.147115 0.700421 -0.011429 0 255 0
-0.109255 0.670970 -0.108832 0 255 0
-0.139409 0.691539 -0.084832 0 255 0
-0.144361 0.660271 -0.192832 0 255 0
-0.128297 0.694402 -0.075832 0 255 0
-0.136770 0.698782 -0.048832 0 255 0
-0.123503 0.676904 -0.153832 0 255 0
-0.152746 0.664863 -0.102027 0 255 0
-0.158600 0.696165 -0.189832 0 255 0
-0.111063 0.706860 -0.165832 0 255 0
-0.149200 0.661265 -0.117832 0 255 0
-0.114500 0.695396 -0.087832 0 255 0
-0.122242 0.704043 -0.036832 0 255 0
-0.158745 0.703701 -0.198832 0 255 0
-0.139162 0.673923 -0.075832 0 255 0
-0.121792 0.687703 -0.033832 0 255 0
-0.155813 0.665349 -0.219832 0 255 0
-0.160216 0.705533 -0.216832 0 255 0
-0.112968 0.666706 -0.168832 0 255 0
-0.112068 0.667533 -0.189832 0 255 0
-0.160931 0.670719 -0.117832 0 255 0
-0.136303 0.672802 -0.165832 0 255 0
-0.164246 0.675797 -0.138832 0 255 0
-0.101713 0.693229 -0.183832 0 255 0
-0.168114 0.702075 -0.210832 0 255 0
-0.152969 0.663459 -0.162832 0 255 0
-0.157503 0.702065 -0.111832 0 255 0
-0.123507 0.676879 -0.207832 0 255 0
-0.119233 0.696005 -0.075832 0 255 0
-0.149694 0.661343 -0.129832 0 255 0
-0.121982 0.667327 -0.093832 0 255 0
-0.145987 0.678980 -0.129832 0 255 0
-0.131864 0.658518 -0.219832 0 255 0
-0.127686 0.697343 -0.057832 0 255 0
-0.144406 0.659990 -0.147832 0 255 0
-0.106853 0.675819 -0.162832 0 255 0
-0.154022 0.686327 -0.207832 0 255 0
-0.113399 0.692043 -0.102832 0 255 0
-0.148484 0.682412 -0.162832 0 255 0
-0.169733 0.691853 -0.110317 0 255 0
-0.103792 0.699634 -0.222832 0 255 0
-0.121714 0.678173 -0.171832 0 255 0
-0.153020 0.663134 -0.144832 0 255 0
-0.155164 0.687951 -0.216832 0 255 0
-0.102177 0.687228 -0.141832 0 255 0
-0.121010 0.692639 -0.045832 0 255 0
-0.165754 0.679073 -0.120832 0 255 0
-0.132384 0.658601 -0.120832 0 255 0
-0.156564 0.707992 -0.147832 0 255 0
-0.144326 0.660493 -0.219989 0 255 0
-0.164941 0.706280 -0.165832 0 255 0
-0.162153 0.708877 -0.105832 0 255 0
-0.102616 0.684260 -0.168832 0 255 0
-0.168758 0.691699 -0.153832 0 255 0
-0.136443 0.691093 -0.066832 0 255 0
-0.138341 0.679108 -0.033832 0 255 0
-0.161088 0.714783 -0.207832 0 255 0
-0.130597 0.670468 -0.224202 0 255 0
-0.138785 0.676310 -0.174832 0 255 0
-0.158009 0.699108 -0.141832 0 255 0
-0.153833 0.677185 -0.224132 0 255 0
-0.112994 0.695016 -0.171832 0 255 0
-0.135823 0.675827 -0.192832 0 255 0
-0.104570 0.700553 -0.153832 0 255 0
-0.119577 0.663338 -0.132832 0 255 0
-0.112082 0.700947 -0.186832 0 255 0
-0.122800 0.687456 -0.015832 0 255 0
-0.166724 0.685302 -0.210832 0 255 0
-0.109957 0.709722 -0.135832 0 255 0
-0.120508 0.708356 -0.087832 0 255 0
-0.104899 0.698477 -0.096832 0 255 0
-0.149236 0.687029 -0.099832 0 255 0
-0.139564 0.709742 -0.021832 0 255 0
-0.121756 0.678179 -0.216832 0 255 0
-0.157559 0.711187 -0.164294 0 255 0
-0.148876 0.661213 -0.204832 0 255 0
-0.114199 0.716468 -0.140281 0 255 0
-0.157327 0.712654 -0.183832 0 255 0
-0.117574 0.662331 -0.219832 0 255 0
-0.115388 0.708968 -0.096832 0 255 0
-0.114479 0.667915 -0.141832 0 255 0
-0.112713 0.668318 -0.123832 0 255 0
-0.101730 0.699307 -0.209955 0 255 0
-0.110655 0.688570 -0.210832 0 255 0
-0.125083 0.660482 -0.180832 0 255 0
-0.123410 0.696666 -0.092324 0 255 0
-0.123355 0.697012 -0.018832 0 255 0
-0.168998 0.696496 -0.183832 0 255 0
-0.108072 0.672974 -0.216832 0 255 0
-0.103081 0.678259 -0.189832 0 255 0
-0.162252 0.681556 -0.223509 0 255 0
-0.102387 0.695162 -0.123832 0 255 0
-0.106062 0.681769 -0.096832 0 255 0
-0.109318 0.670577 -0.174832 0 255 0
-0.104694 0.699776 -0.143831 0 255 0
-0.138548 0.677802 -0.101263 0 255 0
-0.140602 0.675089 -0.159832 0 255 0
-0.130270 0.700790 -0.039832 0 255 0
-0.157265 0.674691 -0.092853 0 255 0
-0.157188 0.694352 -0.162832 0 255 0
-0.161198 0.714800 -0.150832 0 255 0
-0.142838 0.717968 -0.093832 0 255 0
-0.125147 0.675679 -0.180832 0 255 0
-0.120935 0.684124 -0.051832 0 255 0
-0.136834 0.688619 -0.012832 0 255 0
-0.133340 0.672330 -0.141832 0 255 0
-0.116166 0.684874 -0.159832 0 255 0
-0.126423 0.706255 -0.066832 0 255 0
-0.107523 0.672888 -0.135832 0 255 0
-0.169721 0.694889 -0.198832 0 255 0
-0.156943 0.695902 -0.170363 0 255 0
-0.149931 0.682642 -0.173332 0 255 0
-0.145090 0.694025 -0.092236 0 255 0
-0.105139 0.675548 -0.150832 0 255 0
-0.152671 0.684517 -0.147832 0 255 0
-0.156576 0.707994 -0.117832 0 255 0
-0.134545 0.674131 -0.180832 0 255 0
-0.132205 0.688946 -0.081832 0 255 0
-0.126765 0.685047 -0.093832 0 255 0
-0.103138 0.690417 -0.223794 0 255 0
-0.111797 0.693278 -0.120832 0 255 0
-0.165406 0.675981 -0.156832 0 255 0
-0.158040 0.699113 -0.204832 0 255 0
-0.158091 0.717345 -0.177832 0 255 0
-0.110396 0.702122 -0.111832 0 255 0
-0.165321 0.675967 -0.186832 0 255 0
-0.147790 0.703565 -0.072832 0 255 0
-0.153890 0.686306 -0.075832 0 255 0
-0.160955 0.670569 -0.201832 0 255 0
-0.145971 0.694164 -0.015832 0 255 0
-0.102514 0.694355 -0.138832 0 255 0
-0.165832 0.697310 -0.220015 0 255 0
-0.112498 0.697975 -0.150832 0 255 0
-0.109272 0.697464 -0.192832 0 255 0
-0.156080 0.710953 -0.213832 0 255 0
-0.136145 0.659196 -0.186832 0 255 0
-0.148062 0.703607 -0.027832 0 255 0
-0.126879 0.703290 -0.078832 0 255 0
-0.149941 0.701752 -0.081832 0 255 0
-0.160844 0.690445 -0.220895 0 255 0
-0.166570 0.682239 -0.141832 0 255 0
-0.116198 0.665492 -0.153832 0 255 0
-0.135437 0.659085 -0.206089 0 255 0
-0.140310 0.714529 -0.015832 0 255 0
-0.151633 0.710248 -0.090240 0 255 0
-0.105955 0.678714 -0.204832 0 255 0
-0.141427 0.697976 -0.081832 0 255 0
-0.129894 0.674908 -0.162832 0 255 0
-0.156152 0.720076 -0.209280 0 255 0
-0.106532 0.707347 -0.171832 0 255 0
-0.158568 0.696159 -0.129832 0 255 0
-0.118242 0.680660 -0.192832 0 255 0
-0.150187 0.681024 -0.120832 0 255 0
-0.133346 0.672289 -0.111832 0 255 0
-0.164483 0.705824 -0.126832 0 255 0
-0.153480 0.683204 -0.084832 0 255 0
-0.114401 0.686127 -0.216832 0 255 0
-0.125247 0.704251 -0.051832 0 255 0
-0.153466 0.689277 -0.141832 0 255 0
-0.125182 0.675685 -0.192832 0 255 0
-0.114342 0.686117 -0.141832 0 255 0
-0.144005 0.681703 -0.098246 0 255 0
-0.123503 0.676904 -0.108832 0 255 0
-0.118228 0.680658 -0.123832 0 255 0
-0.150954 0.685842 -0.135832 0 255 0
-0.120716 0.694501 -0.027832 0 255 0
-0.121924 0.699468 -0.042832 0 255 0
-0.120195 0.662745 -0.111832 0 255 0
-0.112740 0.687330 -0.180832 0 255 0
-0.129894 0.674903 -0.150832 0 255 0
-0.125163 0.675681 -0.123832 0 255 0
-0.164350 0.706664 -0.141832 0 255 0
-0.133943 0.687699 -0.090832 0 255 0
-0.126437 0.677558 -0.072832 0 255 0
-0.163807 0.690915 -0.095208 0 255 0
-0.148600 0.697618 -0.048832 0 255 0
-0.137529 0.703410 -0.024832 0 255 0
-0.113482 0.667757 -0.198832 0 255 0
-0.107948 0.672955 -0.126832 0 255 0
-0.126172 0.660052 -0.201832 0 255 0
-0.125449 0.681802 -0.036832 0 255 0
-0.105857 0.678699 -0.111832 0 255 0
-0.164786 0.703910 -0.156832 0 255 0
-0.117126 0.686558 -0.072832 0 255 0
-0.115961 0.695486 -0.096832 0 255 0
-0.110620 0.700715 -0.092820 0 255 0
-0.166989 0.685344 -0.111832 0 255 0
-0.155105 0.665237 -0.114832 0 255 0
-0.158486 0.666983 -0.165832 0 255 0
-0.154009 0.686326 -0.198832 0 255 0
-0.108529 0.700384 -0.162832 0 255 0
-0.136479 0.701773 -0.015832 0 255 0
-0.125596 0.660563 -0.117832 0 255 0
-0.144923 0.703111 -0.063832 0 255 0
-0.168305 0.694664 -0.168832 0 255 0
-0.141585 0.677805 -0.045832 0 255 0
-0.119543 0.663548 -0.162832 0 255 0
-0.126947 0.674330 -0.114832 0 255 0
-0.152993 0.663313 -0.135832 0 255 0
-0.151016 0.694964 -0.064015 0 255 0
-0.164893 0.703236 -0.172270 0 255 0
-0.116299 0.664857 -0.174832 0 255 0
-0.168648 0.679532 -0.172795 0 255 0
-0.144723 0.677166 -0.144832 0 255 0
-0.164340 0.709223 -0.201832 0 255 0
-0.160968 0.670485 -0.132832 0 255 0
-0.166994 0.679270 -0.105832 0 255 0
-0.109433 0.697490 -0.135832 0 255 0
-0.155161 0.716882 -0.147832 0 255 0
-0.147113 0.685233 -0.027832 0 255 0
-0.165217 0.703287 -0.102832 0 255 0
-0.134840 0.658990 -0.105832 0 255 0
-0.101304 0.696201 -0.111832 0 255 0
-0.167665 0.685735 -0.126832 0 255 0
-0.152192 0.687541 -0.177832 0 255 0
-0.119366 0.664672 -0.099832 0 255 0
-0.125898 0.681873 -0.018832 0 255 0
-0.125705 0.660580 -0.150832 0 255 0
-0.120071 0.679395 -0.147832 0 255 0
-0.112742 0.687317 -0.111832 0 255 0
-0.128555 0.664185 -0.093832 0 255 0
-0.129322 0.659347 -0.168832 0 255 0
-0.126137 0.679448 -0.045832 0 255 0
-0.161049 0.669974 -0.144832 0 255 0
-0.144584 0.678044 -0.060832 0 255 0
-0.158566 0.666477 -0.195832 0 255 0
-0.163170 0.681702 -0.096832 0 255 0
-0.103997 0.696628 -0.198832 0 255 0
-0.102326 0.687252 -0.150832 0 255 0
-0.149529 0.685176 -0.039832 0 255 0
-0.133333 0.672372 -0.084832 0 255 0
-0.102696 0.681235 -0.177832 0 255 0
-0.115468 0.665034 -0.204832 0 255 0
-0.161288 0.669254 -0.186832 0 255 0
-0.147150 0.682202 -0.045832 0 255 0
-0.106397 0.700046 -0.204832 0 255 0
-0.168996 0.688699 -0.162832 0 255 0
-0.144862 0.676286 -0.072832 0 255 0
-0.125218 0.685254 -0.009832 0 255 0
-0.102785 0.696436 -0.159832 0 255 0
-0.161684 0.711840 -0.222832 0 255 0
-0.110735 0.688583 -0.126832 0 255 0
-0.155958 0.665372 -0.156832 0 255 0
-0.169443 0.694845 -0.117832 0 255 0
-0.104140 0.681463 -0.135832 0 255 0
-0.147245 0.661247 -0.174832 0 255 0
-0.149891 0.663714 -0.222832 0 255 0
-0.166000 0.679112 -0.198832 0 255 0
-0.165355 0.703309 -0.183832 0 255 0
-0.124369 0.660369 -0.216832 0 255 0
-0.165030 0.702369 -0.195832 0 255 0
-0.119978 0.699159 -0.068317 0 255 0
-0.131597 0.702512 -0.030832 0 255 0
-0.133088 0.673916 -0.072832 0 255 0
-0.102149 0.687224 -0.189832 0 255 0
-0.150351 0.691820 -0.051832 0 255 0
-0.140030 0.706799 -0.048832 0 255 0
-0.168363 0.688598 -0.174832 0 255 0
-0.168795 0.697779 -0.104384 0 255 0
-0.111630 0.703913 -0.132832 0 255 0
-0.168203 0.682339 -0.150832 0 255 0
-0.102221 0.687235 -0.126832 0 255 0
-0.108005 0.672964 -0.156832 0 255 0
-0.167770 0.688505 -0.195832 0 255 0
-0.135277 0.679274 -0.027832 0 255 0
-0.111198 0.676508 -0.093832 0 255 0
-0.136524 0.671406 -0.227266 0 255 0
-0.102005 0.687200 -0.111832 0 255 0
-0.143003 0.678507 -0.198832 0 255 0
-0.106718 0.706172 -0.104741 0 255 0
-0.154918 0.695581 -0.072832 0 255 0
-0.122982 0.661012 -0.105832 0 255 0
-0.166185 0.697366 -0.141832 0 255 0
-0.138553 0.658589 -0.171832 0 255 0
-0.144258 0.660921 -0.102832 0 255 0
-0.148749 0.694604 -0.042832 0 255 0
-0.109977 0.694538 -0.165832 0 255 0
-0.142220 0.699645 -0.027832 0 255 0
-0.109211 0.709604 -0.202621 0 255 0
-0.144392 0.660084 -0.210832 0 255 0
-0.157326 0.712664 -0.135832 0 255 0
-0.147341 0.660632 -0.159832 0 255 0
-0.144704 0.706113 -0.090832 0 255 0
-0.110354 0.691561 -0.150832 0 255 0
-0.134561 0.674133 -0.207832 0 255 0
-0.149931 0.682642 -0.224321 0 255 0
-0.103175 0.687386 -0.213832 0 255 0
-0.158606 0.696165 -0.114832 0 255 0
-0.109888 0.694524 -0.186832 0 255 0
-0.144731 0.677115 -0.219832 0 255 0
-0.147208 0.680661 -0.207832 0 255 0
-0.133005 0.693622 -0.051832 0 255 0
-0.144718 0.677206 -0.177832 0 255 0
-0.125146 0.693903 -0.081832 0 255 0
-0.118279 0.680667 -0.204832 0 255 0
-0.157502 0.702065 -0.150832 0 255 0
-0.138523 0.658779 -0.195832 0 255 0
-0.138495 0.658958 -0.150832 0 255 0
-0.168233 0.694652 -0.147832 0 255 0
-0.138481 0.659045 -0.138832 0 255 0
-0.152193 0.687533 -0.105832 0 255 0
-0.157046 0.705030 -0.159832 0 255 0
-0.145965 0.678976 -0.111832 0 255 0
-0.114835 0.683158 -0.129832 0 255 0
-0.148720 0.700674 -0.093832 0 255 0
-0.112496 0.688863 -0.089527 0 255 0
-0.157976 0.670200 -0.099832 0 255 0
-0.155143 0.716879 -0.171832 0 255 0
-0.161787 0.672370 -0.105832 0 255 0
-0.138306 0.679331 -0.018832 0 255 0
-0.107798 0.709379 -0.180832 0 255 0
-0.155623 0.665879 -0.186832 0 255 0
-0.119359 0.662612 -0.123832 0 255 0
-0.159477 0.693266 -0.090832 0 255 0
-0.103641 0.693534 -0.168832 0 255 0
-0.132300 0.698074 -0.012373 0 255 0
-0.149777 0.683608 -0.051832 0 255 0
-0.157808 0.709618 -0.201832 0 255 0
-0.156565 0.689768 -0.114832 0 255 0
-0.110091 0.673295 -0.141832 0 255 0
-0.107994 0.709412 -0.192832 0 255 0
-0.120625 0.690150 -0.039832 0 255 0
-0.112391 0.708705 -0.102832 0 255 0
-0.103138 0.690417 -0.201218 0 255 0
-0.107002 0.704377 -0.216832 0 255 0
-0.144009 0.700853 -0.039832 0 255 0
-0.116902 0.695635 -0.081832 0 255 0
-0.155557 0.695682 -0.102832 0 255 0
-0.122101 0.699495 -0.054832 0 255 0
-0.159303 0.711463 -0.189832 0 255 0
-0.114617 0.675472 -0.225832 0 255 0
-0.154010 0.686325 -0.120832 0 255 0
-0.158580 0.696162 -0.216832 0 255 0
-0.152931 0.663702 -0.108832 0 255 0
-0.117563 0.689665 -0.060832 0 255 0
-0.126990 0.712419 -0.011452 0 255 0
-0.142805 0.699737 -0.075832 0 255 0
-0.126945 0.674353 -0.138832 0 255 0
-0.103818 0.678375 -0.216832 0 255 0
-0.122963 0.661137 -0.192832 0 255 0
-0.136305 0.672786 -0.186832 0 255 0
-0.139274 0.673214 -0.153832 0 255 0
-0.154686 0.690973 -0.129832 0 255 0
-0.145882 0.669851 -0.090026 0 255 0
-0.153469 0.689277 -0.183832 0 255 0
-0.104065 0.681453 -0.147832 0 255 0
-0.139753 0.699254 -0.057832 0 255 0
-0.164232 0.709206 -0.150832 0 255 0
-0.164424 0.706200 -0.111139 0 255 0
-0.132858 0.675373 -0.126832 0 255 0
-0.144242 0.680206 -0.123832 0 255 0
-0.117859 0.683637 -0.165832 0 255 0
-0.127557 0.700360 -0.024832 0 255 0
-0.110472 0.682467 -0.224166 0 255 0
-0.112562 0.697985 -0.219832 0 255 0
-0.151164 0.713211 -0.098293 0 255 0
-0.147208 0.680652 -0.135832 0 255 0
-0.121708 0.669059 -0.223975 0 255 0
-0.155951 0.692708 -0.204832 0 255 0
-0.137600 0.674614 -0.216832 0 255 0
-0.123502 0.676912 -0.186832 0 255 0
-0.167429 0.687226 -0.216832 0 255 0
-0.156598 0.707996 -0.174832 0 255 0
-0.147211 0.680636 -0.186832 0 255 0
-0.157808 0.709617 -0.123832 0 255 0
-0.155990 0.692714 -0.156832 0 255 0
-0.120077 0.679356 -0.177832 0 255 0
-0.116178 0.684793 -0.102832 0 255 0
-0.109928 0.705083 -0.150832 0 255 0
-0.114334 0.686117 -0.186832 0 255 0
-0.159217 0.700723 -0.210832 0 255 0
-0.147362 0.660503 -0.123832 0 255 0
-0.129285 0.659579 -0.144832 0 255 0
-0.133854 0.707432 -0.016791 0 255 0
-0.155640 0.713920 -0.195832 0 255 0
-0.122003 0.705555 -0.011761 0 255 0
-0.103788 0.696596 -0.129832 0 255 0
-0.169352 0.694830 -0.207832 0 255 0
-0.166169 0.682176 -0.204832 0 255 0
-0.137854 0.682180 -0.096832 0 255 0
-0.155065 0.707754 -0.101230 0 255 0
-0.102614 0.696409 -0.177832 0 255 0
-0.150418 0.698748 -0.069832 0 255 0
-0.153041 0.701359 -0.098301 0 255 0
-0.149756 0.722100 -0.101172 0 255 0
-0.129898 0.674886 -0.219832 0 255 0
-0.110620 0.700715 -0.119301 0 255 0
-0.147389 0.660336 -0.198832 0 255 0
-0.144429 0.659846 -0.132832 0 255 0
-0.162946 0.702928 -0.222832 0 255 0
-0.164316 0.706886 -0.189832 0 255 0
-0.119625 0.693029 -0.012832 0 255 0
-0.162497 0.705894 -0.132832 0 255 0
-0.106808 0.675812 -0.105832 0 255 0
-0.132317 0.678788 -0.036832 0 255 0
-0.161118 0.699601 -0.093832 0 255 0
-0.143065 0.687629 -0.011344 0 255 0
-0.158265 0.706736 -0.180832 0 255 0
-0.106454 0.675756 -0.210832 0 255 0
-0.160859 0.709531 -0.099832 0 255 0
-0.147495 0.706555 -0.084832 0 255 0
-0.133968 0.677077 -0.048832 0 255 0
-0.150233 0.680730 -0.072832 0 255 0
-0.108743 0.712566 -0.128442 0 255 0
-0.105582 0.705992 -0.114832 0 255 0
-0.152455 0.685880 -0.063832 0 255 0
-0.167149 0.700556 -0.165832 0 255 0
-0.134354 0.658912 -0.159832 0 255 0
-0.132157 0.660620 -0.099832 0 255 0
-0.155425 0.705484 -0.090832 0 255 0
-0.120648 0.662817 -0.138832 0 255 0
-0.144566 0.681792 -0.033832 0 255 0
-0.119421 0.680847 -0.075832 0 255 0
-0.119360 0.662613 -0.180832 0 255 0
-0.105349 0.678619 -0.195832 0 255 0
-0.135904 0.675321 -0.060832 0 255 0
-0.104077 0.684491 -0.204954 0 255 0
-0.132328 0.659542 -0.126832 0 255 0
-0.144575 0.681794 -0.018832 0 255 0
-0.138481 0.678221 -0.039832 0 255 0
-0.104505 0.675448 -0.177832 0 255 0
-0.102517 0.694339 -0.153832 0 255 0
-0.100307 0.699081 -0.216832 0 255 0
-0.164979 0.675913 -0.132832 0 255 0
-0.118412 0.701949 -0.087832 0 255 0
-0.103852 0.681419 -0.162832 0 255 0
-0.132454 0.658748 -0.138832 0 255 0
-0.144578 0.675720 -0.078832 0 255 0
-0.167346 0.685400 -0.186832 0 255 0
-0.119562 0.696057 -0.060832 0 255 0
-0.155366 0.665279 -0.210832 0 255 0
-0.103715 0.702659 -0.123832 0 255 0
-0.169411 0.682690 -0.162832 0 255 0
-0.108595 0.694319 -0.090149 0 255 0
-0.117563 0.686627 -0.066832 0 255 0
-0.144424 0.659878 -0.186832 0 255 0
-0.167405 0.697559 -0.129832 0 255 0
-0.165572 0.679044 -0.210832 0 255 0
-0.125904 0.700098 -0.012110 0 255 0
-0.150692 0.691875 -0.057832 0 255 0
-0.169078 0.688712 -0.138832 0 255 0
-0.127991 0.682205 -0.024832 0 255 0
-0.107599 0.672900 -0.189832 0 255 0
-0.138533 0.658718 -0.120832 0 255 0
-0.152956 0.663538 -0.198832 0 255 0
-0.167987 0.702881 -0.120832 0 255 0
-0.168913 0.691723 -0.126832 0 255 0
-0.153020 0.663135 -0.177832 0 255 0
-0.156839 0.715731 -0.126832 0 255 0
-0.155780 0.665344 -0.129832 0 255 0
-0.141458 0.659429 -0.108832 0 255 0
-0.161825 0.711862 -0.216832 0 255 0
-0.142918 0.669381 -0.223968 0 255 0
-0.154771 0.671259 -0.223968 0 255 0
-0.126237 0.659642 -0.132832 0 255 0
-0.102425 0.687268 -0.156832 0 255 0
-0.148606 0.694581 -0.030832 0 255 0
-0.165665 0.679059 -0.126832 0 255 0
-0.158111 0.699124 -0.135832 0 255 0
-0.160942 0.670648 -0.207832 0 255 0
-0.109788 0.694508 -0.207832 0 255 0
-0.144877 0.703103 -0.051832 0 255 0
-0.157058 0.705032 -0.129832 0 255 0
-0.138785 0.676302 -0.141832 0 255 0
-0.117873 0.683639 -0.114832 0 255 0
-0.139956 0.668912 -0.090026 0 255 0
-0.144007 0.700867 -0.033832 0 255 0
-0.138511 0.658859 -0.219832 0 255 0
-0.157561 0.702075 -0.117832 0 255 0
-0.141452 0.659461 -0.162832 0 255 0
-0.161100 0.714785 -0.201832 0 255 0
-0.139276 0.673204 -0.120832 0 255 0
-0.154014 0.686326 -0.162832 0 255 0
-0.111622 0.703911 -0.138832 0 255 0
-0.133013 0.693568 -0.045832 0 255 0
-0.131535 0.664542 -0.223791 0 255 0
-0.167760 0.697615 -0.153832 0 255 0
-0.110954 0.667357 -0.219832 0 255 0
-0.103818 0.702675 -0.192832 0 255 0
-0.133386 0.710396 -0.011665 0 255 0
-0.141525 0.702572 -0.012832 0 255 0
-0.161583 0.711824 -0.117832 0 255 0
-0.116398 0.683406 -0.084857 0 255 0
-0.138328 0.679193 -0.012832 0 255 0
-0.122189 0.699510 -0.048832 0 255 0
-0.164564 0.709258 -0.174832 0 255 0
-0.123070 0.679636 -0.063832 0 255 0
-0.115782 0.668121 -0.096752 0 255 0
-0.156326 0.680618 -0.089230 0 255 0
-0.154859 0.698610 -0.081832 0 255 0
-0.165155 0.706315 -0.213832 0 255 0
-0.112602 0.669022 -0.102832 0 255 0
-0.159236 0.668929 -0.126832 0 255 0
-0.121147 0.702382 -0.078832 0 255 0
-0.144407 0.659985 -0.114832 0 255 0
-0.110620 0.700715 -0.173336 0 255 0
-0.142744 0.708840 -0.017099 0 255 0
-0.112917 0.667668 -0.111832 0 255 0
-0.168284 0.691623 -0.180832 0 255 0
-0.123993 0.673810 -0.165832 0 255 0
-0.112266 0.690318 -0.159832 0 255 0
-0.149700 0.684101 -0.192832 0 255 0
-0.158123 0.699127 -0.183832 0 255 0
-0.155973 0.692711 -0.222832 0 255 0
-0.156181 0.689706 -0.087832 0 255 0
-0.110374 0.691563 -0.216832 0 255 0
-0.116642 0.681862 -0.198832 0 255 0
-0.149700 0.684100 -0.153832 0 255 0
-0.129433 0.677815 -0.099832 0 255 0
-0.166106 0.703428 -0.177832 0 255 0
-0.116258 0.665112 -0.192832 0 255 0
-0.124600 0.660406 -0.165832 0 255 0
-0.131510 0.673650 -0.195832 0 255 0
-0.119753 0.662230 -0.156832 0 255 0
-0.112277 0.690246 -0.174832 0 255 0
-0.141751 0.676752 -0.189832 0 255 0
-0.130520 0.690132 -0.072832 0 255 0
-0.156575 0.707993 -0.195832 0 255 0
-0.157505 0.702066 -0.192832 0 255 0
-0.108839 0.700433 -0.210832 0 255 0
-0.112557 0.697984 -0.144832 0 255 0
-0.109152 0.671621 -0.165832 0 255 0
-0.110478 0.709805 -0.123832 0 255 0
-0.120690 0.694664 -0.033832 0 255 0
-0.138788 0.676286 -0.114832 0 255 0
-0.149697 0.664941 -0.096832 0 255 0
-0.124349 0.690740 -0.092328 0 255 0
-0.125904 0.700098 -0.065315 0 255 0
-0.123632 0.676086 -0.084832 0 255 0
-0.136283 0.701742 -0.033832 0 255 0
-0.123535 0.676703 -0.078832 0 255 0
-0.132374 0.692010 -0.012832 0 255 0
-0.112258 0.690372 -0.198832 0 255 0
-0.156943 0.695902 -0.152328 0 255 0
-0.136762 0.698780 -0.042832 0 255 0
-0.126165 0.698454 -0.036832 0 255 0
-0.154918 0.689506 -0.152291 0 255 0
-0.131705 0.691905 -0.063832 0 255 0
-0.107292 0.702543 -0.099832 0 255 0
-0.126143 0.698591 -0.072832 0 255 0
-0.126218 0.703185 -0.042832 0 255 0
-0.118241 0.680661 -0.153832 0 255 0
-0.149931 0.682642 -0.131289 0 255 0
-0.108340 0.695928 -0.222832 0 255 0
-0.141810 0.705655 -0.072832 0 255 0
-0.129905 0.674837 -0.177832 0 255 0
-0.111799 0.693267 -0.129832 0 255 0
-0.156015 0.692717 -0.174832 0 255 0
-0.164671 0.675864 -0.222832 0 255 0
-0.158742 0.703719 -0.144832 0 255 0
-0.154691 0.690944 -0.192832 0 255 0
-0.148230 0.700596 -0.021832 0 255 0
-0.111333 0.696207 -0.105832 0 255 0
-0.111034 0.717273 -0.201832 0 255 0
-0.119830 0.680912 -0.104301 0 255 0
-0.121064 0.711481 -0.017282 0 255 0
-0.123879 0.693702 -0.023381 0 255 0
-0.144718 0.677199 -0.162832 0 255 0
-0.141602 0.705622 -0.036832 0 255 0
-0.106982 0.704502 -0.141832 0 255 0
-0.159591 0.711509 -0.177832 0 255 0
-0.147907 0.676246 -0.224239 0 255 0
-0.112040 0.700940 -0.180832 0 255 0
-0.129347 0.659183 -0.105832 0 255 0
-0.143682 0.702914 -0.083295 0 255 0
-0.156198 0.710972 -0.105832 0 255 0
-0.108990 0.711000 -0.114832 0 255 0
-0.124131 0.702855 -0.060832 0 255 0
-0.168515 0.691660 -0.219832 0 255 0
-0.142997 0.707241 -0.060832 0 255 0
-0.122003 0.705555 -0.092267 0 255 0
-0.127208 0.703342 -0.018832 0 255 0
-0.116476 0.692530 -0.042832 0 255 0
-0.103643 0.702648 -0.180832 0 255 0
-0.130637 0.697810 -0.033832 0 255 0
-0.157265 0.674691 -0.220617 0 255 0
-0.108735 0.700416 -0.147832 0 255 0
-0.109270 0.697463 -0.114832 0 255 0
-0.148566 0.700650 -0.042832 0 255 0
-0.144867 0.703102 -0.057832 0 255 0
-0.156833 0.715769 -0.153832 0 255 0
-0.109515 0.670166 -0.183832 0 255 0
-0.108977 0.711083 -0.168832 0 255 0
-0.109448 0.708109 -0.219832 0 255 0
-0.158273 0.706676 -0.108832 0 255 0
-0.152600 0.684969 -0.069832 0 255 0
-0.109876 0.705405 -0.183832 0 255 0
-0.153440 0.718019 -0.099832 0 255 0
-0.160268 0.705541 -0.168832 0 255 0
-0.160387 0.705560 -0.153832 0 255 0
-0.109299 0.697469 -0.177832 0 255 0
-0.156838 0.665512 -0.174832 0 255 0
-0.111880 0.673578 -0.220516 0 255 0
-0.111522 0.703895 -0.213832 0 255 0
-0.113968 0.689096 -0.147832 0 255 0
-0.159971 0.708531 -0.138832 0 255 0
-0.113636 0.692080 -0.063832 0 255 0
-0.113474 0.692055 -0.204832 0 255 0
-0.148636 0.661175 -0.189832 0 255 0
-0.106619 0.706795 -0.132832 0 255 0
-0.109213 0.671238 -0.210832 0 255 0
-0.125143 0.660492 -0.186832 0 255 0
-0.110673 0.712873 -0.099832 0 255 0
-0.141746 0.676782 -0.204832 0 255 0
-0.109863 0.705485 -0.189832 0 255 0
-0.149127 0.687714 -0.012832 0 255 0
-0.106565 0.707135 -0.120832 0 255 0
-0.104618 0.700252 -0.174832 0 255 0
-0.103912 0.685530 -0.099832 0 255 0
-0.113908 0.689086 -0.153832 0 255 0
-0.114304 0.686111 -0.207832 0 255 0
-0.144731 0.677118 -0.138832 0 255 0
-0.133344 0.672301 -0.135832 0 255 0
-0.118257 0.690848 -0.075832 0 255 0
-0.138783 0.676317 -0.168832 0 255 0
-0.129307 0.659437 -0.183832 0 255 0
-0.114489 0.704365 -0.099832 0 255 0
-0.156031 0.692720 -0.186832 0 255 0
-0.136301 0.672812 -0.171832 0 255 0
-0.139322 0.702224 -0.045832 0 255 0
-0.116197 0.665503 -0.126832 0 255 0
-0.140240 0.696294 -0.072832 0 255 0
-0.126944 0.674355 -0.156832 0 255 0
-0.126948 0.674334 -0.210832 0 255 0
-0.123504 0.676895 -0.135832 0 255 0
-0.127886 0.668410 -0.090832 0 255 0
-0.147211 0.680636 -0.147832 0 255 0
-0.101583 0.681059 -0.125608 0 255 0
-0.152677 0.684481 -0.213832 0 255 0
-0.141751 0.676751 -0.150832 0 255 0
-0.135505 0.697011 -0.036832 0 255 0
-0.146366 0.705147 -0.015832 0 255 0
-0.160243 0.705536 -0.114832 0 255 0
-0.139278 0.702216 -0.051832 0 255 0
-0.103787 0.686321 -0.177832 0 255 0
-0.121702 0.678171 -0.141832 0 255 0
-0.125154 0.675680 -0.174832 0 255 0
-0.114826 0.683157 -0.135832 0 255 0
-0.118270 0.680665 -0.132832 0 255 0
-0.160254 0.705539 -0.120832 0 255 0
-0.104626 0.700195 -0.111832 0 255 0
-0.149698 0.684107 -0.108832 0 255 0
-0.152669 0.684526 -0.219832 0 255 0
-0.120072 0.679390 -0.111832 0 255 0
-0.107008 0.704337 -0.159832 0 255 0
-0.148523 0.691531 -0.095224 0 255 0
-0.141906 0.694955 -0.087832 0 255 0
-0.129318 0.659369 -0.162832 0 255 0
-0.148262 0.661116 -0.165832 0 255 0
-0.145994 0.678981 -0.213832 0 255 0
-0.119357 0.692986 -0.093832 0 255 0
-0.129521 0.677260 -0.057832 0 255 0
-0.132920 0.674978 -0.066832 0 255 0
-0.138944 0.694475 -0.063832 0 255 0
-0.140028 0.706807 -0.042832 0 255 0
-0.105484 0.675602 -0.123155 0 255 0
-0.163732 0.672214 -0.180832 0 255 0
-0.111338 0.670455 -0.153832 0 255 0
-0.116657 0.681772 -0.144832 0 255 0
-0.121187 0.693277 -0.051832 0 255 0
-0.150481 0.698340 -0.075832 0 255 0
-0.108718 0.700413 -0.156832 0 255 0
-0.154542 0.698559 -0.066832 0 255 0
-0.147343 0.676157 -0.084832 0 255 0
-0.104224 0.702739 -0.128888 0 255 0
-0.137558 0.664872 -0.093832 0 255 0
-0.163124 0.672582 -0.153832 0 255 0
-0.152571 0.704322 -0.071314 0 255 0
-0.155149 0.710806 -0.093832 0 255 0
-0.160804 0.709878 -0.210832 0 255 0
-0.148041 0.713749 -0.090832 0 255 0
-0.163489 0.673745 -0.198832 0 255 0
-0.161167 0.669234 -0.177104 0 255 0
-0.134333 0.658910 -0.111832 0 255 0
-0.116108 0.666061 -0.147832 0 255 0
-0.103048 0.678253 -0.183832 0 255 0
-0.120217 0.662749 -0.204832 0 255 0
-0.164350 0.706667 -0.219832 0 255 0
-0.104547 0.700699 -0.213832 0 255 0
-0.149229 0.688606 -0.024832 0 255 0
-0.132474 0.658616 -0.148770 0 255 0
-0.130583 0.697802 -0.027832 0 255 0
-0.163953 0.672714 -0.174832 0 255 0
-0.150252 0.661431 -0.148904 0 255 0
-0.116054 0.665127 -0.135832 0 255 0
-0.118797 0.687437 -0.054832 0 255 0
-0.125923 0.694027 -0.015832 0 255 0
-0.129417 0.677921 -0.051832 0 255 0
-0.166717 0.691719 -0.099832 0 255 0
-0.144805 0.700054 -0.015832 0 255 0
-0.102370 0.695270 -0.102832 0 255 0
-0.114990 0.692294 -0.050389 0 255 0
-0.134324 0.704470 -0.012327 0 255 0
-0.163062 0.672572 -0.165832 0 255 0
-0.163562 0.673288 -0.216832 0 255 0
-0.162869 0.696841 -0.223868 0 255 0
-0.135527 0.696873 -0.015832 0 255 0
-0.131611 0.702428 -0.015832 0 255 0
-0.164774 0.703988 -0.207832 0 255 0
-0.152945 0.701968 -0.087832 0 255 0
-0.121711 0.699434 -0.033832 0 255 0
-0.169180 0.697840 -0.192832 0 255 0
-0.123986 0.673857 -0.198832 0 255 0
-0.169100 0.697827 -0.213832 0 255 0
-0.124051 0.684618 -0.030832 0 255 0
-0.125198 0.693912 -0.087832 0 255 0
-0.112792 0.667817 -0.117832 0 255 0
-0.133078 0.658711 -0.171832 0 255 0
-0.125598 0.660563 -0.207832 0 255 0
-0.111800 0.693259 -0.135832 0 255 0
-0.120171 0.690078 -0.021832 0 255 0
-0.160757 0.702581 -0.180832 0 255 0
-0.154555 0.691794 -0.075832 0 255 0
-0.151458 0.672999 -0.090832 0 255 0
-0.135819 0.675850 -0.159832 0 255 0
-0.116646 0.681838 -0.216832 0 255 0
-0.169733 0.691853 -0.105480 0 255 0
-0.139017 0.674838 -0.197295 0 255 0
-0.162192 0.708883 -0.162832 0 255 0
-0.168737 0.678971 -0.159832 0 255 0
-0.120814 0.684104 -0.099832 0 255 0
-0.126135 0.660291 -0.174832 0 255 0
-0.108298 0.703384 -0.168832 0 255 0
-0.110931 0.706839 -0.174832 0 255 0
-0.136838 0.698792 -0.021832 0 255 0
-0.155622 0.713917 -0.141832 0 255 0
-0.120076 0.679364 -0.210832 0 255 0
-0.163894 0.709544 -0.123832 0 255 0
-0.156943 0.695902 -0.125312 0 255 0
-0.131872 0.710156 -0.045832 0 255 0
-0.129898 0.674881 -0.144832 0 255 0
-0.159050 0.668899 -0.219832 0 255 0
-0.129364 0.706721 -0.051832 0 255 0
-0.125686 0.709176 -0.087832 0 255 0
-0.157183 0.694380 -0.141832 0 255 0
-0.137287 0.704938 -0.020290 0 255 0
-0.133338 0.672339 -0.147832 0 255 0
-0.146466 0.704517 -0.078832 0 255 0
-0.101418 0.696219 -0.117832 0 255 0
-0.141747 0.676777 -0.129832 0 255 0
-0.133263 0.701264 -0.024832 0 255 0
-0.155147 0.692580 -0.063832 0 255 0
-0.163555 0.673329 -0.120832 0 255 0
-0.126144 0.698583 -0.078832 0 255 0
-0.110968 0.706845 -0.111832 0 255 0
-0.106571 0.687925 -0.221062 0 255 0
-0.168178 0.682495 -0.102541 0 255 0
-0.107979 0.679034 -0.220493 0 255 0
-0.103240 0.689775 -0.195832 0 255 0
-0.161931 0.702766 -0.097509 0 255 0
-0.150188 0.681015 -0.126832 0 255 0
-0.147213 0.680626 -0.057832 0 255 0
-0.106561 0.707163 -0.186832 0 255 0
-0.134968 0.662048 -0.220426 0 255 0
-0.144474 0.678740 -0.158325 0 255 0
-0.119684 0.662665 -0.214535 0 255 0
-0.122708 0.701101 -0.090832 0 255 0
-0.148523 0.691531 -0.020437 0 255 0
-0.148491 0.682414 -0.168832 0 255 0
-0.156708 0.697383 -0.147832 0 255 0
-0.144005 0.681703 -0.028824 0 255 0
-0.160168 0.708562 -0.144832 0 255 0
-0.130128 0.673430 -0.167310 0 255 0
-0.121239 0.672023 -0.090036 0 255 0
-0.125191 0.675686 -0.219832 0 255 0
-0.159681 0.678617 -0.093832 0 255 0
-0.118287 0.680667 -0.159832 0 255 0
-0.156708 0.697382 -0.108832 0 255 0
-0.156711 0.697368 -0.120832 0 255 0
-0.141391 0.663065 -0.222832 0 255 0
-0.126244 0.659600 -0.195832 0 255 0
-0.116398 0.683406 -0.179295 0 255 0
-0.110150 0.703678 -0.128381 0 255 0
-0.148473 0.682411 -0.114832 0 255 0
-0.103222 0.696505 -0.186832 0 255 0
-0.163594 0.673082 -0.210832 0 255 0
-0.156713 0.697350 -0.174832 0 255 0
-0.157090 0.714149 -0.116365 0 255 0
-0.157529 0.702070 -0.171832 0 255 0
-0.157090 0.714149 -0.224265 0 255 0
-0.135930 0.659162 -0.180832 0 255 0
-0.114393 0.686126 -0.222832 0 255 0
-0.126887 0.703291 -0.072832 0 255 0
-0.116106 0.666078 -0.210832 0 255 0
-0.115460 0.689332 -0.085958 0 255 0
-0.156591 0.689772 -0.210832 0 255 0
-0.155756 0.713939 -0.201832 0 255 0
-0.116172 0.684831 -0.192832 0 255 0
-0.116175 0.665637 -0.186832 0 255 0
-0.135359 0.747157 -0.171832 255 0 0
-0.114788 0.789459 -0.125392 255 0 0
-0.149728 0.779806 -0.218157 255 0 0
-0.153678 0.754870 -0.123832 255 0 0
-0.110373 0.749273 -0.213832 255 0 0
-0.112266 0.746537 -0.132832 255 0 0
-0.146072 0.783711 -0.150832 255 0 0
-0.147606 0.739984 -0.213832 255 0 0
-0.113551 0.778089 -0.171832 255 0 0
-0.151498 0.777049 -0.183832 255 0 0
-0.157068 0.756670 -0.153832 255 0 0
-0.109289 0.752140 -0.183832 255 0 0
-0.145357 0.788226 -0.122558 255 0 0
-0.113944 0.775611 -0.204832 255 0 0
-0.140607 0.738876 -0.141832 255 0 0
-0.155288 0.750313 -0.189832 255 0 0
-0.113339 0.771006 -0.144832 255 0 0
-0.127716 0.765367 -0.123832 255 0 0
-0.112764 0.744707 -0.159832 255 0 0
-0.131734 0.749620 -0.195832 255 0 0
-0.135008 0.757680 -0.222832 255 0 0
-0.157347 0.759751 -0.210832 255 0 0
-0.154841 0.771505 -0.135832 255 0 0
-0.128399 0.741879 -0.213832 255 0 0
-0.147769 0.764309 -0.168832 255 0 0
-0.137206 0.753524 -0.153832 255 0 0
-0.120048 0.737072 -0.180832 255 0 0
-0.136643 0.747360 -0.124597 255 0 0
-0.117445 0.762543 -0.162832 255 0 0
-0.116579 0.739794 -0.198832 255 0 0
-0.123253 0.736013 -0.147832 255 0 0
-0.153249 0.746952 -0.168832 255 0 0
-0.115110 0.768249 -0.221322 255 0 0
-0.146296 0.782301 -0.200301 255 0 0
-0.116409 0.768455 -0.186832 255 0 0
-0.145196 0.760864 -0.198832 255 0 0
-0.121802 0.754122 -0.144832 255 0 0
-0.143901 0.759066 -0.138832 255 0 0
-0.144011 0.739194 -0.183832 255 0 0
-0.117861 0.759573 -0.201832 255 0 0
-0.110842 0.764536 -0.129832 255 0 0
-0.131011 0.782917 -0.128111 255 0 0
-0.141407 0.755638 -0.183832 255 0 0
-0.145211 0.769979 -0.123374 255 0 0
-0.149728 0.779806 -0.167557 255 0 0
-0.146207 0.739763 -0.156832 255 0 0
-0.153768 0.747036 -0.138832 255 0 0
-0.121759 0.754115 -0.174832 255 0 0
-0.157001 0.762734 -0.180832 255 0 0
-0.146046 0.739737 -0.198832 255 0 0
-0.122566 0.740348 -0.123832 255 0 0
-0.123268 0.735919 -0.165832 255 0 0
-0.154099 0.771386 -0.156030 255 0 0
-0.144815 0.782066 -0.135832 255 0 0
-0.108730 0.755089 -0.150832 255 0 0
-0.138667 0.753756 -0.209293 255 0 0
-0.118101 0.777834 -0.132832 255 0 0
-0.147420 0.764254 -0.222832 255 0 0
-0.154099 0.771386 -0.203951 255 0 0
-0.118539 0.774866 -0.156832 255 0 0
-0.120420 0.753903 -0.124536 255 0 0
-0.121394 0.757094 -0.216832 255 0 0
-0.125279 0.751635 -0.159832 255 0 0
-0.111589 0.764653 -0.174832 255 0 0
-0.125882 0.745656 -0.135832 255 0 0
-0.112939 0.743605 -0.146860 255 0 0
-0.129049 0.746157 -0.183832 255 0 0
-0.121376 0.757091 -0.189832 255 0 0
-0.154623 0.748903 -0.204832 255 0 0
-0.109301 0.764291 -0.210832 255 0 0
-0.151007 0.752558 -0.219832 255 0 0
-0.108568 0.752026 -0.169164 255 0 0
-0.146391 0.762524 -0.150832 255 0 0
-0.107935 0.754963 -0.195832 255 0 0
-0.157202 0.759729 -0.141832 255 0 0
-0.156042 0.765620 -0.192832 255 0 0
-0.146555 0.742307 -0.129832 255 0 0
-0.144069 0.738827 -0.168832 255 0 0
-0.139260 0.759924 -0.126832 255 0 0
-0.145918 0.765509 -0.210832 255 0 0
-0.139727 0.747064 -0.219832 255 0 0
-0.130932 0.745063 -0.147832 255 0 0
-0.116557 0.739939 -0.210832 255 0 0
-0.108784 0.767246 -0.156832 255 0 0
-0.108098 0.754988 -0.139353 255 0 0
-0.125272 0.751634 -0.204832 255 0 0
-0.147939 0.771925 -0.144832 255 0 0
-0.135953 0.751715 -0.135832 255 0 0
-0.141411 0.755609 -0.165832 255 0 0
-0.117477 0.762549 -0.138832 255 0 0
-0.117461 0.762547 -0.150832 255 0 0
-0.146239 0.773179 -0.192832 255 0 0
-0.113626 0.743715 -0.174832 255 0 0
-0.156378 0.756997 -0.165832 255 0 0
-0.135382 0.774497 -0.122777 255 0 0
-0.147209 0.767258 -0.180832 255 0 0
-0.117869 0.770003 -0.123832 255 0 0
-0.125415 0.741542 -0.192832 255 0 0
-0.118864 0.744544 -0.220095 255 0 0
-0.153869 0.747051 -0.150832 255 0 0
-0.111008 0.767599 -0.195832 255 0 0
-0.152192 0.745075 -0.180832 255 0 0
-0.157678 0.756767 -0.198832 255 0 0
-0.121636 0.781432 -0.123832 255 0 0
-0.118974 0.738486 -0.138832 255 0 0
-0.154099 0.771386 -0.214344 255 0 0
-0.126402 0.739663 -0.156832 255 0 0
-0.113980 0.743770 -0.189832 255 0 0
-0.155445 0.762894 -0.129832 255 0 0
-0.140231 0.743877 -0.207832 255 0 0
-0.126276 0.742681 -0.174832 255 0 0
-0.110916 0.770622 -0.165832 255 0 0
-0.156504 0.768730 -0.168832 255 0 0
-0.144226 0.766786 -0.132832 255 0 0
-0.139074 0.744708 -0.162832 255 0 0
-0.146296 0.782301 -0.176331 255 0 0
-0.130247 0.749385 -0.221094 255 0 0
-0.109545 0.761292 -0.186832 255 0 0
-0.112140 0.746516 -0.204832 255 0 0
-0.155716 0.753418 -0.177832 255 0 0
-0.139048 0.744703 -0.189832 255 0 0
-0.144880 0.779038 -0.126832 255 0 0
-0.120352 0.763004 -0.129832 255 0 0
-0.109589 0.758262 -0.159832 255 0 0
-0.129551 0.753785 -0.126832 255 0 0
-0.127953 0.744691 -0.165832 255 0 0
-0.125260 0.742520 -0.202801 255 0 0
-0.156724 0.768765 -0.144832 255 0 0
-0.142714 0.757434 -0.216832 255 0 0
-0.145916 0.765523 -0.159832 255 0 0
-0.142660 0.757425 -0.174832 255 0 0
-0.123153 0.755828 -0.135832 255 0 0
-0.145063 0.751731 -0.122582 255 0 0
-0.116900 0.776125 -0.216832 255 0 0
-0.154404 0.750173 -0.159832 255 0 0
-0.146391 0.762525 -0.189832 255 0 0
-0.151984 0.774089 -0.174832 255 0 0
-0.140230 0.754003 -0.192832 255 0 0
-0.111061 0.755458 -0.130607 255 0 0
-0.139797 0.741785 -0.150832 255 0 0
-0.108124 0.754821 -0.204832 255 0 0
-0.137195 0.753523 -0.144832 255 0 0
-0.117945 0.759585 -0.180832 255 0 0
-0.126494 0.773090 -0.128200 255 0 0
-0.110592 0.758421 -0.217452 255 0 0
-0.110072 0.761708 -0.144832 255 0 0
-0.149978 0.778224 -0.207832 255 0 0
-0.113326 0.771004 -0.135832 255 0 0
-0.155106 0.753322 -0.132832 255 0 0
-0.112032 0.779911 -0.126832 255 0 0
-0.116613 0.739583 -0.153832 255 0 0
-0.149591 0.742320 -0.189832 255 0 0
-0.116114 0.771445 -0.177832 255 0 0
-0.151026 0.780012 -0.144832 255 0 0
-0.149560 0.742514 -0.144832 255 0 0
-0.154189 0.774438 -0.195832 255 0 0
-0.139155 0.744721 -0.198832 255 0 0
-0.153058 0.746922 -0.213832 255 0 0
-0.117486 0.762550 -0.210832 255 0 0
-0.136854 0.746030 -0.180832 255 0 0
-0.120206 0.755255 -0.165832 255 0 0
-0.148861 0.776632 -0.159832 255 0 0
-0.156684 0.762684 -0.159832 255 0 0
-0.139186 0.744725 -0.132832 255 0 0
-0.113555 0.758890 -0.123560 255 0 0
-0.149516 0.781151 -0.192832 255 0 0
-0.116666 0.777607 -0.164297 255 0 0
-0.150667 0.773880 -0.129285 255 0 0
-0.136320 0.768571 -0.128174 255 0 0
-0.124147 0.787905 -0.127832 255 0 0
-0.119481 0.759829 -0.224109 255 0 0
-0.127052 0.750385 -0.213832 255 0 0
-0.137706 0.787015 -0.126832 255 0 0
-0.146618 0.761090 -0.124082 255 0 0
-0.114830 0.770018 -0.210832 255 0 0
-0.118751 0.738451 -0.171832 255 0 0
-0.116360 0.747184 -0.123832 255 0 0
-0.123262 0.735955 -0.213832 255 0 0
-0.146718 0.770218 -0.201832 255 0 0
-0.150198 0.776843 -0.151847 255 0 0
-0.123634 0.752787 -0.195832 255 0 0
-0.107782 0.757976 -0.174832 255 0 0
-0.120549 0.781260 -0.171832 255 0 0
-0.123622 0.752856 -0.183832 255 0 0
-0.119718 0.758334 -0.156832 255 0 0
-0.146708 0.770216 -0.153832 255 0 0
-0.138924 0.752137 -0.201832 255 0 0
-0.126115 0.756296 -0.222832 255 0 0
-0.149500 0.742894 -0.204832 255 0 0
-0.152544 0.762028 -0.217712 255 0 0
-0.139756 0.741778 -0.174832 255 0 0
-0.141631 0.754224 -0.224016 255 0 0
-0.150290 0.743447 -0.162832 255 0 0
-0.134743 0.750096 -0.186832 255 0 0
-0.113968 0.775464 -0.150832 255 0 0
-0.128694 0.749138 -0.141832 255 0 0
-0.115359 0.766680 -0.201832 255 0 0
-0.118249 0.741409 -0.129832 255 0 0
-0.112939 0.743605 -0.167201 255 0 0
-0.120027 0.737203 -0.204832 255 0 0
-0.119372 0.738550 -0.189832 255 0 0
-0.117403 0.762537 -0.192832 255 0 0
-0.149864 0.770716 -0.165832 255 0 0
-0.143899 0.759079 -0.207832 255 0 0
-0.125291 0.751637 -0.150832 255 0 0
-0.142687 0.757430 -0.156832 255 0 0
-0.134709 0.750091 -0.159832 255 0 0
-0.127063 0.750314 -0.189832 255 0 0
-0.121353 0.757088 -0.207832 255 0 0
-0.117904 0.759579 -0.171832 255 0 0
-0.114494 0.752964 -0.220205 255 0 0
-0.157042 0.756666 -0.186832 255 0 0
-0.146941 0.739879 -0.177258 255 0 0
-0.158001 0.765930 -0.207138 255 0 0
-0.149835 0.770712 -0.186832 255 0 0
-0.155026 0.771533 -0.180832 255 0 0
-0.127060 0.750329 -0.177832 255 0 0
-0.149018 0.776656 -0.138832 255 0 0
-0.151928 0.746743 -0.131455 255 0 0
-0.147730 0.764303 -0.141832 255 0 0
-0.141071 0.738576 -0.192832 255 0 0
-0.138919 0.752171 -0.177832 255 0 0
-0.125729 0.739556 -0.220000 255 0 0
-0.111270 0.746379 -0.195832 255 0 0
-0.146966 0.739713 -0.138832 255 0 0
-0.135977 0.744218 -0.141832 255 0 0
-0.108245 0.761086 -0.135832 255 0 0
-0.140595 0.741583 -0.123832 255 0 0
-0.134727 0.750094 -0.213832 255 0 0
-0.119974 0.737540 -0.159832 255 0 0
-0.153679 0.747021 -0.195832 255 0 0
-0.151605 0.767954 -0.125476 255 0 0
-0.109375 0.761266 -0.168832 255 0 0
-0.156118 0.753482 -0.144832 255 0 0
-0.129029 0.746154 -0.156832 255 0 0
-0.156353 0.753519 -0.213832 255 0 0
-0.137877 0.777929 -0.128307 255 0 0
-0.108297 0.761095 -0.201832 255 0 0
-0.142728 0.757436 -0.147832 255 0 0
-0.155500 0.765534 -0.150832 255 0 0
-0.125267 0.751633 -0.168832 255 0 0
-0.123088 0.742175 -0.144832 255 0 0
-0.139754 0.766077 -0.121979 255 0 0
-0.122444 0.760298 -0.123319 255 0 0
-0.135235 0.756249 -0.122757 255 0 0
-0.155413 0.765519 -0.174832 255 0 0
-0.125642 0.745617 -0.126832 255 0 0
-0.113707 0.743727 -0.138832 255 0 0
-0.114419 0.772615 -0.192832 255 0 0
-0.110543 0.761450 -0.153832 255 0 0
-0.110070 0.764413 -0.162832 255 0 0
