ply
format ascii 1.0
element vertex 1236
property float x
property float y
property float z
property uchar red
property uchar green
property uchar blue
end_header
-0.777441 0.026293 -0.089480 255 0 0
-0.801031 0.025786 0.135520 255 0 0
-0.806880 0.030096 0.246521 255 0 0
-0.872282 0.056266 0.047475 255 0 0
-0.820237 0.055823 -0.092480 255 0 0
-0.760067 0.021456 -0.071479 255 0 0
-0.720109 0.065147 0.123520 255 0 0
-0.809717 0.009230 -0.050480 255 0 0
-0.687624 0.145831 0.034922 255 0 0
-0.727383 0.131935 0.105520 255 0 0
-0.843839 0.080891 0.138520 255 0 0
-0.717565 0.004978 0.041276 255 0 0
-0.860523 0.039443 -0.017480 255 0 0
-0.782561 0.031061 0.168983 255 0 0
-0.723835 0.116723 0.171520 255 0 0
-0.748120 0.032942 0.201520 255 0 0
-0.828743 0.044659 0.144521 255 0 0
-0.837762 0.088800 0.194140 255 0 0
-0.720195 0.131285 0.138520 255 0 0
-0.699150 0.019466 0.037115 255 0 0
-0.839345 0.116739 0.210521 255 0 0
-0.784740 0.157273 0.243520 255 0 0
-0.799374 0.024110 0.102520 255 0 0
-0.769477 0.157095 0.237520 255 0 0
-0.685244 0.099319 0.072129 255 0 0
-0.817275 -0.002390 0.048520 255 0 0
-0.830822 0.071990 0.147520 255 0 0
-0.770362 0.030737 0.120520 255 0 0
-0.708491 0.076519 0.132520 255 0 0
-0.749862 0.184903 0.054520 255 0 0
-0.767263 0.189609 0.048520 255 0 0
-0.873618 0.087220 0.045520 255 0 0
-0.711285 0.135525 -0.062860 255 0 0
-0.749646 0.134478 0.111521 255 0 0
-0.883722 0.089017 0.015520 255 0 0
-0.700135 0.016608 0.024521 255 0 0
-0.872557 0.077794 0.045520 255 0 0
-0.731141 0.127477 0.162521 255 0 0
-0.724894 0.129217 -0.073252 255 0 0
-0.840514 0.104720 0.143085 255 0 0
-0.756152 0.025448 0.229522 255 0 0
-0.706100 0.128289 0.090521 255 0 0
-0.709455 0.043126 0.087731 255 0 0
-0.740585 0.135619 -0.092480 255 0 0
-0.739335 0.147853 0.237520 255 0 0
-0.869119 0.116934 0.063520 255 0 0
-0.682861 0.052808 -0.023216 255 0 0
-0.755026 0.146171 0.210521 255 0 0
-0.720497 0.178762 0.006521 255 0 0
-0.832291 -0.000886 0.012520 255 0 0
-0.716049 0.062929 -0.077480 255 0 0
-0.784650 0.022304 0.246521 255 0 0
-0.720644 0.048206 0.138520 255 0 0
-0.706984 0.083614 0.132520 255 0 0
-0.769505 -0.008518 -0.029757 255 0 0
-0.737878 0.125843 0.240098 255 0 0
-0.802568 0.037939 0.120520 255 0 0
-0.815941 0.032739 0.144521 255 0 0
-0.765159 0.016174 -0.066501 255 0 0
-0.738985 0.034067 0.131879 255 0 0
-0.720641 0.091508 0.250463 255 0 0
-0.830397 0.068832 0.213521 255 0 0
-0.822567 0.067168 0.156520 255 0 0
-0.823506 0.018295 -0.053480 255 0 0
-0.840298 0.120165 0.099520 255 0 0
-0.712801 0.172652 0.033520 255 0 0
-0.801383 0.014659 -0.056480 255 0 0
-0.713786 0.004174 0.006521 255 0 0
-0.707414 0.023874 -0.038480 255 0 0
-0.766522 0.156467 0.135520 255 0 0
-0.792861 -0.002967 0.066520 255 0 0
-0.744016 0.173152 0.072520 255 0 0
-0.725956 0.138644 0.137172 255 0 0
-0.726326 0.108052 0.250400 255 0 0
-0.733074 0.134022 0.155129 255 0 0
-0.741735 0.126662 0.207520 255 0 0
-0.692583 0.113148 0.081520 255 0 0
-0.875782 0.057010 0.024521 255 0 0
-0.815042 0.136110 0.234520 255 0 0
-0.690114 0.033114 0.042521 255 0 0
-0.720748 0.073129 0.216520 255 0 0
-0.749938 0.025820 0.144521 255 0 0
-0.713089 0.102171 -0.074480 255 0 0
-0.821774 0.120739 0.237520 255 0 0
-0.749124 0.188375 0.045520 255 0 0
-0.867389 0.036824 -0.002480 255 0 0
-0.699801 0.160687 0.030371 255 0 0
-0.761536 -0.014311 -0.002480 255 0 0
-0.732491 0.035754 0.143327 255 0 0
-0.726786 0.048168 0.228521 255 0 0
-0.691256 0.060726 -0.047480 255 0 0
-0.732844 0.169592 -0.040107 255 0 0
-0.711660 0.071197 0.231521 255 0 0
-0.682453 0.052721 0.048520 255 0 0
-0.758947 0.026721 -0.083480 255 0 0
-0.753162 0.010648 -0.050480 255 0 0
-0.674189 0.118439 0.000520 255 0 0
-0.723022 0.138020 -0.061022 255 0 0
-0.778777 0.149871 0.109273 255 0 0
-0.721230 0.160884 0.075521 255 0 0
-0.750894 0.035754 0.162521 255 0 0
-0.806151 0.035511 0.174520 255 0 0
-0.811282 0.040233 0.206216 255 0 0
-0.722809 0.009160 0.061414 255 0 0
-0.711619 0.104926 0.150520 255 0 0
-0.734674 0.140916 0.150520 255 0 0
-0.873017 0.067233 0.054520 255 0 0
-0.874125 0.050524 0.003520 255 0 0
-0.706336 0.057798 -0.064718 255 0 0
-0.843966 0.088473 0.135520 255 0 0
-0.876987 0.094071 0.051520 255 0 0
-0.765952 0.153279 0.231521 255 0 0
-0.740001 0.173575 -0.041479 255 0 0
-0.907611 0.611514 -0.077480 255 255 0
-0.871570 0.506921 -0.083480 255 255 0
-0.942340 0.540412 -0.080480 255 255 0
-0.867917 0.662609 -0.083480 255 255 0
-0.941088 0.662827 -0.083480 255 255 0
-0.864954 0.566901 -0.077394 255 255 0
-0.864635 0.618973 -0.080480 255 255 0
-0.907907 0.566830 -0.084668 255 255 0
-0.914816 0.505466 -0.080480 255 255 0
-0.942936 0.589611 -0.082036 255 255 0
-0.905739 0.649179 -0.084774 255 255 0
-0.942518 0.626326 -0.080480 255 255 0
-0.889800 0.536589 -0.077480 255 255 0
-0.880813 0.593297 -0.089480 255 255 0
-0.942920 0.509865 -0.083480 255 255 0
-0.880577 0.637696 -0.090977 255 255 0
-0.915392 0.531617 -0.084840 255 255 0
-0.865039 0.533182 -0.083480 255 255 0
-0.932631 0.565951 -0.077990 255 255 0
-0.918213 0.590490 -0.084800 255 255 0
-0.894413 0.514889 -0.090465 255 255 0
-0.879494 0.556217 -0.092480 255 255 0
-0.928226 0.644391 -0.077480 255 255 0
-0.887806 0.574826 -0.078023 255 255 0
-0.886822 0.620622 -0.077480 255 255 0
-0.929768 0.608281 -0.076888 255 255 0
-0.886261 0.654240 -0.077886 255 255 0
-0.915975 0.629885 -0.084913 255 255 0
-0.920454 0.551095 -0.084885 255 255 0
-0.899360 0.592616 -0.078131 255 255 0
-0.932273 0.524342 -0.092480 255 255 0
-0.863892 0.588145 -0.080480 255 255 0
-0.866560 0.640851 -0.077480 255 255 0
-0.921474 0.661725 -0.084810 255 255 0
-0.895106 0.554908 -0.077108 255 255 0
-0.877575 0.521951 -0.092480 255 255 0
-0.871632 0.549918 -0.076385 255 255 0
-0.897198 0.635095 -0.077480 255 255 0
-0.901968 0.522629 -0.077000 255 255 0
-0.875076 0.605857 -0.076834 255 255 0
-0.890343 0.504823 -0.077480 255 255 0
-0.927938 0.515882 -0.078124 255 255 0
-0.893307 0.606665 -0.084792 255 255 0
-0.884019 0.520495 -0.077480 255 255 0
-0.874821 0.578200 -0.087683 255 255 0
-0.877827 0.621777 -0.090949 255 255 0
-0.899685 0.663227 -0.079584 255 255 0
-0.941363 0.524869 -0.076887 255 255 0
-0.878404 0.539090 -0.089480 255 255 0
-0.943448 0.644926 -0.081434 255 255 0
-0.918511 0.516945 -0.090690 255 255 0
-0.920249 0.575587 -0.077480 255 255 0
-0.907029 0.542107 -0.076966 255 255 0
-0.943161 0.611128 -0.083480 255 255 0
-0.942388 0.555757 -0.083480 255 255 0
-0.943121 0.574315 -0.084763 255 255 0
-0.926649 0.622953 -0.076364 255 255 0
-0.881497 0.561217 -0.077985 255 255 0
-0.926507 0.537046 -0.076641 255 255 0
-0.879768 0.655927 -0.090861 255 255 0
-0.929952 0.592985 -0.076927 255 255 0
-0.880577 0.637696 -0.076690 255 255 0
-0.901926 0.623832 -0.084872 255 255 0
-0.902479 0.577944 -0.077618 255 255 0
-0.918029 0.605786 -0.084945 255 255 0
-0.877723 0.607837 -0.092480 255 255 0
-0.865605 0.520552 -0.077480 255 255 0
-0.881752 0.588874 -0.076439 255 255 0
-0.930646 0.633004 -0.084815 255 255 0
-0.888990 0.547474 -0.086480 255 255 0
-0.913479 0.641623 -0.076918 255 255 0
-0.866897 0.601051 -0.086248 255 255 0
-0.918149 0.561935 -0.077480 255 255 0
-0.914954 0.519255 -0.078263 255 255 0
-0.869462 0.632267 -0.086951 255 255 0
-0.929996 0.506197 -0.086480 255 255 0
-0.902359 0.506362 -0.083480 255 255 0
-0.905228 0.521724 -0.089480 255 255 0
-0.883595 0.508063 -0.089480 255 255 0
-0.866826 0.558098 -0.086498 255 255 0
-0.891804 0.584876 -0.084949 255 255 0
-0.932816 0.550655 -0.076716 255 255 0
-0.890924 0.560153 -0.087979 255 255 0
-0.929513 0.580623 -0.084668 255 255 0
-0.877705 0.532807 -0.077480 255 255 0
-0.913619 0.655397 -0.077480 255 255 0
-0.871254 0.647983 -0.086480 255 255 0
-0.910473 0.598046 -0.077250 255 255 0
-0.907468 0.554469 -0.077811 255 255 0
-0.891918 0.526627 -0.084720 255 255 0
-0.891691 0.643126 -0.084686 255 255 0
-0.932149 0.654793 -0.084963 255 255 0
-0.940442 0.601349 -0.076897 255 255 0
-0.888317 0.630141 -0.084769 255 255 0
-0.876069 0.572331 -0.076901 255 255 0
-0.915534 0.617524 -0.084951 255 255 0
-0.934062 0.544786 -0.087977 255 255 0
-0.873644 0.627022 -0.077024 255 255 0
-0.933765 0.618332 -0.084723 255 255 0
-0.898225 0.540236 -0.084741 255 255 0
-0.898713 0.566803 -0.077480 255 255 0
-0.877033 0.567797 -0.092480 255 255 0
-0.888686 0.599549 -0.077049 255 255 0
-0.921035 0.649363 -0.084891 255 255 0
-0.869320 0.546360 -0.086984 255 255 0
-0.911282 0.579815 -0.084634 255 255 0
-0.874978 0.654908 -0.077480 255 255 0
-0.933622 0.532425 -0.084867 255 255 0
-0.897305 0.616716 -0.077636 255 255 0
-0.905300 0.636817 -0.084823 255 255 0
-0.882535 0.549169 -0.077480 255 255 0
-0.867499 0.526067 -0.092480 255 255 0
-0.865715 0.577752 -0.077480 255 255 0
-0.871078 0.595806 -0.076858 255 255 0
-0.896313 0.650242 -0.077895 255 255 0
-0.928010 0.558835 -0.084809 255 255 0
-0.903358 0.602667 -0.084760 255 255 0
-0.894413 0.514889 -0.077012 255 255 0
-0.891365 0.572515 -0.087970 255 255 0
-0.880363 0.508836 -0.076874 255 255 0
-0.909113 0.662164 -0.084675 255 255 0
-0.922509 0.526996 -0.078251 255 255 0
-0.882633 0.613597 -0.084876 255 255 0
-0.938684 0.580760 -0.077480 255 255 0
-0.939976 0.516970 -0.092480 255 255 0
-0.910402 0.555092 -0.087974 255 255 0
-0.924153 0.634691 -0.076463 255 255 0
-0.881639 0.647123 -0.084716 255 255 0
-0.919716 0.612279 -0.076840 255 255 0
-0.908419 0.622145 -0.076769 255 255 0
-0.922212 0.600541 -0.076863 255 255 0
-0.890882 0.661356 -0.084947 255 255 0
-0.938642 0.653105 -0.076977 255 255 0
-0.933949 0.603036 -0.084835 255 255 0
-0.925515 0.570573 -0.084873 255 255 0
-0.872131 0.614432 -0.086480 255 255 0
-0.916993 0.544225 -0.077480 255 255 0
-0.939124 0.564264 -0.087967 255 255 0
-0.942385 0.635499 -0.084944 255 255 0
-0.900352 0.559090 -0.084691 255 255 0
-0.910332 0.512139 -0.087424 255 255 0
-0.865170 0.606818 -0.077480 255 255 0
-0.912969 0.586308 -0.077272 255 255 0
-0.904808 0.532434 -0.077480 255 255 0
-0.933846 0.507936 -0.077480 255 255 0
-0.867054 0.515208 -0.086480 255 255 0
-0.907398 0.511515 -0.076733 255 255 0
-0.920636 0.506951 -0.089480 255 255 0
-0.924102 0.505865 -0.077480 255 255 0
-0.935892 0.637186 -0.077774 255 255 0
-0.881455 0.662419 -0.079735 255 255 0
-0.926087 0.654452 -0.077480 255 255 0
-0.864133 0.628479 -0.077480 255 255 0
-0.870331 0.540441 -0.077480 255 255 0
-0.939706 0.524517 -0.086480 255 255 0
-0.883184 0.567709 -0.084782 255 255 0
-0.920084 0.581687 -0.087963 255 255 0
-0.924819 0.530554 -0.087979 255 255 0
-0.903542 0.587371 -0.084885 255 255 0
-0.922396 0.585245 -0.077878 255 255 0
-0.931935 0.525932 -0.077734 255 255 0
-0.873573 0.584068 -0.076880 255 255 0
-0.874863 0.523002 -0.077480 255 255 0
-0.882490 0.527690 -0.084895 255 255 0
-0.919971 0.639936 -0.084688 255 255 0
-0.927938 0.515882 -0.090484 255 255 0
-0.876140 0.615284 -0.077016 255 255 0
-0.925586 0.613526 -0.084875 255 255 0
-0.925260 0.542915 -0.084765 255 255 0
-0.899289 0.549663 -0.084886 255 255 0
-0.892868 0.594303 -0.084780 255 255 0
-0.883625 0.580071 -0.084888 255 255 0
-0.882193 0.601236 -0.084660 255 255 0
-0.871703 0.592872 -0.087247 255 255 0
-0.930277 0.663596 -0.082206 255 255 0
-0.894043 0.545481 -0.078210 255 255 0
-0.909482 0.631572 -0.078297 255 255 0
-0.934645 0.643055 -0.084957 255 255 0
-0.870823 0.568149 -0.084521 255 255 0
-0.903345 0.530580 -0.086480 255 255 0
-0.916088 0.571636 -0.084795 255 255 0
-0.871562 0.559105 -0.077480 255 255 0
-0.885743 0.519181 -0.086480 255 255 0
-0.916484 0.562519 -0.086480 255 255 0
-0.904491 0.655048 -0.077766 255 255 0
-0.886190 0.611286 -0.076811 255 255 0
-0.877501 0.551166 -0.084801 255 255 0
-0.875771 0.645876 -0.076720 255 255 0
-0.904053 0.642686 -0.077990 255 255 0
-0.878890 0.631204 -0.084867 255 255 0
-0.898367 0.626143 -0.076712 255 255 0
-0.926394 0.595296 -0.084909 255 255 0
-0.897789 0.601484 -0.077480 255 255 0
-0.931117 0.574830 -0.077480 255 255 0
-0.889501 0.565985 -0.077480 255 255 0
-0.901486 0.611471 -0.084861 255 255 0
-0.890556 0.590745 -0.076535 255 255 0
-0.882448 0.628893 -0.076904 255 255 0
-0.917704 0.535175 -0.076546 255 255 0
-0.917222 0.624016 -0.076858 255 255 0
-0.893123 0.621961 -0.084945 255 255 0
-0.870313 0.512834 -0.076823 255 255 0
-0.909339 0.545665 -0.084885 255 255 0
-0.942058 0.564888 -0.079504 255 255 0
-0.937946 0.613087 -0.076466 255 255 0
-0.940300 0.515442 -0.077016 255 255 0
-0.935821 0.594232 -0.084684 255 255 0
-0.923715 0.622329 -0.084711 255 255 0
-0.923757 0.521127 -0.084734 255 255 0
-0.863938 0.551350 -0.080480 255 255 0
-0.879881 0.597677 -0.076953 255 255 0
-0.870428 0.623271 -0.086480 255 255 0
-0.896267 0.530619 -0.077480 255 255 0
-0.911708 0.573772 -0.077480 255 255 0
-0.922764 0.554653 -0.076513 255 255 0
-0.885691 0.644917 -0.077480 255 255 0
-0.867114 0.653237 -0.080480 255 255 0
-0.872439 0.531688 -0.087516 255 255 0
-0.936076 0.621890 -0.077026 255 255 0
-0.936557 0.533049 -0.076881 255 255 0
-0.908164 0.594488 -0.084826 255 255 0
-0.900792 0.571452 -0.084751 255 255 0
-0.897999 0.656735 -0.084940 255 255 0
-0.892427 0.581942 -0.077015 255 255 0
-0.931271 0.630069 -0.076882 255 255 0
-0.934687 0.541852 -0.077220 255 255 0
-0.912856 0.644557 -0.084796 255 255 0
-0.898921 0.580255 -0.084853 255 255 0
-0.883696 0.623024 -0.084872 255 255 0
-0.934318 0.572444 -0.084823 255 255 0
-0.937437 0.557772 -0.077102 255 255 0
-0.913082 0.528059 -0.077686 255 255 0
-0.895791 0.522834 -0.092480 255 255 0
-0.876182 0.514081 -0.090482 255 255 0
-0.876324 0.599988 -0.090672 255 255 0
-0.889820 0.651929 -0.084835 255 255 0
-0.931197 0.584048 -0.077480 255 255 0
-0.880690 0.579447 -0.077379 255 255 0
-0.887112 0.534807 -0.084894 255 255 0
-0.910913 0.610407 -0.084762 255 255 0
-0.887728 0.528804 -0.077480 255 255 0
-0.943272 0.654090 -0.083480 255 255 0
-0.937048 0.508617 -0.089480 255 255 0
-0.914432 0.605021 -0.077480 255 255 0
-0.918166 0.648435 -0.077480 255 255 0
-0.916456 0.541044 -0.084781 255 255 0
-0.914982 0.663412 -0.079427 255 255 0
-0.916864 0.593270 -0.077480 255 255 0
-0.925531 0.546040 -0.077480 255 255 0
-0.867435 0.641037 -0.086480 255 255 0
-0.897120 0.632012 -0.084753 255 255 0
-0.875587 0.661172 -0.084852 255 255 0
-0.908895 0.562186 -0.077480 255 255 0
-0.879454 0.541976 -0.077480 255 255 0
-0.889517 0.636530 -0.077480 255 255 0
-0.892708 0.508393 -0.086480 255 255 0
-0.943050 0.531362 -0.084818 255 255 0
-0.910771 0.524501 -0.084828 255 255 0
-0.925056 0.567408 -0.077480 255 255 0
-0.912836 0.521872 -0.092480 255 255 0
-0.872070 0.562280 -0.090319 255 255 0
-0.908277 0.536238 -0.084862 255 255 0
-0.942865 0.546658 -0.084904 255 255 0
-0.923460 0.522519 -0.092480 255 255 0
-0.877872 0.584982 -0.089480 255 255 0
-0.867704 0.582821 -0.084428 255 255 0
-0.885992 0.554504 -0.086480 255 255 0
-0.880026 0.560904 -0.086480 255 255 0
-0.869504 0.531064 -0.077680 255 255 0
-0.902644 0.548308 -0.077480 255 255 0
-0.879025 0.644995 -0.092480 255 255 0
-0.890141 0.627461 -0.077480 255 255 0
-0.913918 0.653985 -0.084933 255 255 0
-0.894059 0.609892 -0.077480 255 255 0
-0.935125 0.554214 -0.084800 255 255 0
-0.871149 0.523333 -0.086480 255 255 0
-0.932559 0.522998 -0.084674 255 255 0
-0.939623 0.547482 -0.077480 255 255 0
-0.942568 0.620203 -0.084787 255 255 0
-0.900905 0.513202 -0.087202 255 255 0
-0.903724 0.586516 -0.077480 255 255 0
-0.913925 0.617181 -0.077480 255 255 0
-0.878932 0.530001 -0.090961 255 255 0
-0.929441 0.537670 -0.087979 255 255 0
-0.942479 0.598715 -0.083480 255 255 0
-0.920774 0.514359 -0.077480 255 255 0
-0.937068 0.588364 -0.076573 255 255 0
-0.938315 0.582495 -0.084604 255 255 0
-0.883512 0.515639 -0.092480 255 255 0
-0.871774 0.635825 -0.076600 255 255 0
-0.937318 0.644901 -0.077480 255 255 0
-0.884687 0.589498 -0.084651 255 255 0
-0.868575 0.613676 -0.077480 255 255 0
-0.865752 0.573205 -0.083480 255 255 0
-0.880277 0.505751 -0.083480 255 255 0
-0.882306 0.542986 -0.084836 255 255 0
-0.899218 0.506710 -0.077027 255 255 0
-0.867633 0.539868 -0.084411 255 255 0
-0.942875 0.635603 -0.077480 255 255 0
-0.898849 0.537302 -0.077406 255 255 0
-0.934360 0.658822 -0.077480 255 255 0
-0.886467 0.556139 -0.077480 255 255 0
-0.871987 0.605961 -0.086480 255 255 0
-0.867031 0.610281 -0.083480 255 255 0
-0.875189 0.547608 -0.090661 255 255 0
-0.903549 0.605775 -0.077480 255 255 0
-0.892540 0.523693 -0.077332 255 255 0
-0.928246 0.558885 -0.077480 255 255 0
-0.865210 0.594559 -0.084289 255 255 0
-0.871418 0.620414 -0.077480 255 255 0
-0.877085 0.554145 -0.077480 255 255 0
-0.914234 0.552840 -0.077480 255 255 0
-0.873899 0.654679 -0.087346 255 255 0
-0.916711 0.568701 -0.077402 255 255 0
-0.864628 0.560698 -0.080480 255 255 0
-0.906109 0.661865 -0.077480 255 255 0
-0.884159 0.604720 -0.077480 255 255 0
-0.894299 0.573139 -0.076533 255 255 0
-0.937876 0.570133 -0.076519 255 255 0
-0.887176 0.505646 -0.083480 255 255 0
-0.897560 0.644373 -0.081451 255 255 0
-0.900905 0.513202 -0.078126 255 255 0
-0.933949 0.603036 -0.077986 255 255 0
-0.918909 0.630509 -0.077935 255 255 0
-0.931455 0.614773 -0.077965 255 255 0
-0.888851 0.519841 -0.092480 255 255 0
-0.911211 0.536862 -0.077941 255 255 0
-0.875260 0.590561 -0.077833 255 255 0
-0.921403 0.618771 -0.077793 255 255 0
-0.897974 0.656852 -0.077480 255 255 0
-0.908673 0.649803 -0.076948 255 255 0
-0.892612 0.566646 -0.084863 255 255 0
-0.908326 0.591455 -0.077480 255 255 0
-0.883512 0.638320 -0.084933 255 255 0
-0.937763 0.628383 -0.084796 255 255 0
-0.864010 0.624974 -0.083480 255 255 0
-0.882703 0.656550 -0.084831 255 255 0
-0.865356 0.646729 -0.083480 255 255 0
-0.908789 0.504970 -0.077480 255 255 0
-0.873282 0.565604 -0.077480 255 255 0
-0.936010 0.511463 -0.083480 255 255 0
-0.874084 0.639383 -0.090567 255 255 0
-0.938755 0.594856 -0.077265 255 255 0
-0.879003 0.572954 -0.087966 255 255 0
-0.871007 0.552853 -0.087205 255 255 0
-0.924522 0.604099 -0.084752 255 255 0
-0.933255 0.563017 -0.084619 255 255 0
-0.928152 0.644742 -0.084787 255 255 0
-0.896099 0.521382 -0.084927 255 255 0
-0.941096 0.518678 -0.083480 255 255 0
-0.925331 0.585869 -0.084809 255 255 0
-0.908461 0.520942 -0.078113 255 255 0
-0.906732 0.615653 -0.084638 255 255 0
-0.898112 0.598485 -0.084939 255 255 0
-0.929881 0.550032 -0.084653 255 255 0
-0.917264 0.522814 -0.084619 255 255 0
-0.910728 0.625703 -0.084821 255 255 0
-0.888686 0.599549 -0.084864 255 255 0
-0.891436 0.615468 -0.084862 255 255 0
-0.923573 0.536423 -0.084635 255 255 0
-0.925656 0.656479 -0.084791 255 255 0
-0.913409 0.598670 -0.084906 255 255 0
-0.896539 0.533743 -0.084666 255 255 0
-0.932078 0.611839 -0.084662 255 255 0
-0.919900 0.596983 -0.084754 255 255 0
-0.912969 0.586308 -0.084653 255 255 0
-0.935309 0.538918 -0.084882 255 255 0
-0.877203 0.624711 -0.084945 255 255 0
-0.924153 0.634691 -0.084808 255 255 0
-0.882562 0.570644 -0.076896 255 255 0
-0.921332 0.575818 -0.084920 255 255 0
-0.896313 0.650242 -0.084976 255 255 0
-0.934134 0.587740 -0.084794 255 255 0
-0.909595 0.573323 -0.084734 255 255 0
-0.895106 0.554908 -0.084831 255 255 0
-0.885609 0.513018 -0.076917 255 255 0
-0.900352 0.559090 -0.077147 255 255 0
-0.928959 0.626511 -0.084848 255 255 0
-0.936118 0.520687 -0.077776 255 255 0
-0.911793 0.635130 -0.084935 255 255 0
-0.898808 0.638504 -0.084675 255 255 0
-0.936330 0.649547 -0.084855 255 255 0
-0.890004 0.636633 -0.084861 255 255 0
-0.886814 0.608352 -0.084955 255 255 0
-0.923828 0.564080 -0.084859 255 255 0
-0.885934 0.583629 -0.077419 255 255 0
-0.881017 0.650058 -0.077847 255 255 0
-0.904533 0.553845 -0.084729 255 255 0
-0.919971 0.639936 -0.076877 255 255 0
-0.869278 0.647563 -0.076761 255 255 0
-0.890117 0.578384 -0.084867 255 255 0
-0.903613 0.630325 -0.084828 255 255 0
-0.907426 0.655672 -0.084656 255 255 0
-0.897048 0.589058 -0.084772 255 255 0
-0.875956 0.630580 -0.090779 255 255 0
-0.866386 0.545736 -0.077976 255 255 0
-0.914514 0.506894 -0.087053 255 255 0
-0.877827 0.621777 -0.077969 255 255 0
-0.863928 0.634158 -0.080480 255 255 0
-0.926611 0.522123 -0.077480 255 255 0
-0.889862 0.550726 -0.077067 255 255 0
-0.888799 0.541299 -0.084841 255 255 0
-0.916272 0.556340 -0.084877 255 255 0
-0.922970 0.606836 -0.077480 255 255 0
-0.925696 0.579812 -0.077480 255 255 0
-0.914320 0.512987 -0.077480 255 255 0
-0.917150 0.581063 -0.076751 255 255 0
-0.879444 0.606785 -0.086480 255 255 0
-0.923067 0.591521 -0.077480 255 255 0
-0.893123 0.621961 -0.078170 255 255 0
-0.943192 0.617268 -0.079257 255 255 0
-0.883554 0.537117 -0.077161 255 255 0
-0.891691 0.643126 -0.077284 255 255 0
-0.891507 0.658422 -0.079449 255 255 0
-0.919119 0.658376 -0.077480 255 255 0
-0.942752 0.604907 -0.081488 255 255 0
-0.875846 0.515657 -0.077480 255 255 0
-0.934431 0.514194 -0.090424 255 255 0
-0.865485 0.514875 -0.080480 255 255 0
-0.903335 0.631634 -0.077480 255 255 0
-0.901975 0.620776 -0.077480 255 255 0
-0.871887 0.577576 -0.077290 255 255 0
-0.865613 0.527170 -0.080480 255 255 0
-0.937415 0.630022 -0.077480 255 255 0
-0.880363 0.527238 -0.077480 255 255 0
-0.904349 0.569141 -0.078216 255 255 0
-0.942427 0.534296 -0.079454 255 255 0
-0.932773 0.651858 -0.078305 255 255 0
-0.888721 0.512809 -0.089480 255 255 0
-0.888395 0.543195 -0.077480 255 255 0
-0.891967 0.560375 -0.077480 255 255 0
-0.864911 0.600629 -0.080480 255 255 0
-0.908470 0.506470 -0.083480 255 255 0
-0.880322 0.610039 -0.077960 255 255 0
-0.908415 0.582273 -0.077480 255 255 0
-0.934431 0.514194 -0.078017 255 255 0
-0.897673 0.586124 -0.077055 255 255 0
-0.929774 0.531607 -0.077480 255 255 0
-0.866309 0.521184 -0.083480 255 255 0
-0.870200 0.571083 -0.077844 255 255 0
-0.901486 0.611471 -0.077103 255 255 0
-0.903982 0.599733 -0.077123 255 255 0
-0.920447 0.507836 -0.083480 255 255 0
-0.890306 0.649638 -0.077480 255 255 0
-0.913847 0.611031 -0.077785 255 255 0
-0.882123 0.615993 -0.077480 255 255 0
-0.869391 0.589314 -0.077269 255 255 0
-0.916343 0.599293 -0.077807 255 255 0
-0.928081 0.601788 -0.077440 255 255 0
-0.925586 0.613526 -0.077417 255 255 0
-0.891436 0.615468 -0.077093 255 255 0
-0.920822 0.520503 -0.077645 255 255 0
-0.872653 0.660548 -0.079642 255 255 0
-0.939195 0.607218 -0.076201 255 255 0
-0.902804 0.648555 -0.078205 255 255 0
-0.930023 0.635938 -0.077067 255 255 0
-0.906220 0.560338 -0.084825 255 255 0
-0.909226 0.603915 -0.084630 255 255 0
-0.908716 0.548600 -0.077919 255 255 0
-0.904095 0.541483 -0.084643 255 255 0
-0.907214 0.526811 -0.078005 255 255 0
-0.869832 0.601675 -0.076795 255 255 0
-0.878450 0.618842 -0.084971 255 255 0
-0.900239 0.617340 -0.084848 255 255 0
-0.914727 0.635754 -0.076837 255 255 0
-0.899105 0.564959 -0.084729 255 255 0
-0.919716 0.612279 -0.084895 255 255 0
-0.915606 0.660477 -0.084844 255 255 0
-0.925402 0.628822 -0.076443 255 255 0
-0.922467 0.628198 -0.084747 255 255 0
-0.914585 0.549847 -0.084879 255 255 0
-0.896751 0.662604 -0.084917 255 255 0
-0.919787 0.655232 -0.084879 255 255 0
-0.905413 0.578568 -0.084677 255 255 0
-0.908235 0.637441 -0.078328 255 255 0
-0.903244 0.660917 -0.084644 255 255 0
-0.881243 0.533559 -0.084925 255 255 0
-0.902295 0.593240 -0.084859 255 255 0
-0.922141 0.557587 -0.084853 255 255 0
-0.935892 0.637186 -0.084979 255 255 0
-0.904053 0.642686 -0.084841 255 255 0
-0.884871 0.574202 -0.084873 255 255 0
-0.929399 0.638873 -0.084801 255 255 0
-0.917222 0.624016 -0.084898 255 255 0
-0.909523 0.530369 -0.084846 255 255 0
-0.897786 0.527875 -0.084625 255 255 0
-0.926904 0.650611 -0.084805 255 255 0
-0.883440 0.595367 -0.084619 255 255 0
-0.884390 0.663043 -0.084800 255 255 0
-0.924409 0.662348 -0.079783 255 255 0
-0.864608 0.539225 -0.077480 255 255 0
-0.878819 0.588250 -0.084732 255 255 0
-0.864563 0.545349 -0.083480 255 255 0
-0.923663 0.511906 -0.089480 255 255 0
-0.938017 0.656040 -0.084939 255 255 0
-0.877754 0.643230 -0.086480 255 255 0
-0.872000 0.519326 -0.090527 255 255 0
-0.878583 0.523793 -0.086480 255 255 0
-0.901968 0.522629 -0.084844 255 255 0
-0.942141 0.552637 -0.077480 255 255 0
-0.894043 0.545481 -0.084674 255 255 0
-0.937946 0.613087 -0.084785 255 255 0
-0.872950 0.587003 -0.087444 255 255 0
-0.867449 0.555164 -0.078148 255 255 0
-0.873503 0.541115 -0.087498 255 255 0
-0.899658 0.519071 -0.090777 255 255 0
-0.910842 0.567454 -0.076824 255 255 0
-0.883993 0.549479 -0.084770 255 255 0
-0.881341 0.597988 -0.092480 255 255 0
-0.863634 0.581956 -0.080480 255 255 0
-0.874495 0.507589 -0.078791 255 255 0
-0.883738 0.521821 -0.090948 255 255 0
-0.913283 0.558772 -0.077480 255 255 0
-0.896401 0.505529 -0.083480 255 255 0
-0.941628 0.641472 -0.077480 255 255 0
-0.941136 0.641368 -0.084944 255 255 0
-0.942498 0.577250 -0.079284 255 255 0
-0.909084 0.518008 -0.090666 255 255 0
-0.880134 0.545592 -0.089480 255 255 0
-0.939195 0.607218 -0.084925 255 255 0
-0.877429 0.508212 -0.087427 255 255 0
-0.942420 0.583367 -0.080480 255 255 0
-0.938849 0.507834 -0.080480 255 255 0
-0.925794 0.573699 -0.077480 255 255 0
-0.940740 0.527803 -0.081426 255 255 0
-0.934263 0.520293 -0.089480 255 255 0
-0.936581 0.662801 -0.080480 255 255 0
-0.898168 0.518754 -0.077480 255 255 0
-0.939139 0.570402 -0.083480 255 255 0
-0.904457 0.626353 -0.077480 255 255 0
-0.890577 0.511007 -0.077480 255 255 0
-0.916201 0.513387 -0.087385 255 255 0
-0.932678 0.536871 -0.077480 255 255 0
-0.873319 0.556411 -0.090504 255 255 0
-0.890373 0.606041 -0.078001 255 255 0
-0.878339 0.597350 -0.086480 255 255 0
-0.908887 0.605511 -0.077480 255 255 0
-0.875260 0.590561 -0.090688 255 255 0
-0.936374 0.548345 -0.084765 255 255 0
-0.928378 0.528243 -0.084800 255 255 0
-0.867407 0.656366 -0.084734 255 255 0
-0.916921 0.524426 -0.077480 255 255 0
-0.924459 0.532250 -0.077480 255 255 0
-0.878081 0.649434 -0.087858 255 255 0
-0.936628 0.576002 -0.076508 255 255 0
-0.922509 0.526996 -0.084850 255 255 0
-0.890996 0.603107 -0.087979 255 255 0
-0.887366 0.562464 -0.084868 255 255 0
-0.906370 0.617353 -0.077480 255 255 0
-0.873134 0.571707 -0.087624 255 255 0
-0.876763 0.612350 -0.087835 255 255 0
-0.938691 0.515100 -0.086480 255 255 0
-0.941061 0.561609 -0.083480 255 255 0
-0.933945 0.596901 -0.077480 255 255 0
-0.930759 0.545898 -0.077480 255 255 0
-0.885178 0.659337 -0.077480 255 255 0
-0.889627 0.516939 -0.077480 255 255 0
-0.943305 0.559019 -0.079504 255 255 0
-0.864704 0.533111 -0.077480 255 255 0
-0.870129 0.528130 -0.084536 255 255 0
-0.870368 0.607923 -0.077480 255 255 0
-0.882051 0.515329 -0.087521 255 255 0
-0.901988 0.637970 -0.077480 255 255 0
-0.929976 0.506290 -0.080480 255 255 0
-0.867465 0.564368 -0.083480 255 255 0
-0.879151 0.566852 -0.077480 255 255 0
-0.879467 0.657346 -0.077480 255 255 0
-0.940186 0.536887 -0.083480 255 255 0
-0.866713 0.616347 -0.084312 255 255 0
-0.874135 0.528981 -0.077480 255 255 0
-0.929185 0.510013 -0.077121 255 255 0
-0.893620 0.662910 -0.080480 255 255 0
-0.871510 0.519222 -0.077480 255 255 0
-0.868951 0.576952 -0.084575 255 255 0
-0.933836 0.661285 -0.084925 255 255 0
-0.904462 0.510892 -0.084486 255 255 0
-0.862610 0.557202 -0.083480 255 255 0
-0.901599 0.553221 -0.077233 255 255 0
-0.900537 0.543794 -0.076816 255 255 0
-0.906250 0.574626 -0.077480 255 255 0
-0.920311 0.547998 -0.077480 255 255 0
-0.881089 0.515124 -0.077480 255 255 0
-0.869976 0.656912 -0.077480 255 255 0
-0.874382 0.565838 -0.087696 255 255 0
-0.873644 0.627022 -0.087561 255 255 0
-0.923970 0.649987 -0.078084 255 255 0
-0.909737 0.659230 -0.079626 255 255 0
-0.900721 0.528498 -0.076892 255 255 0
-0.917815 0.587338 -0.077480 255 255 0
-0.908876 0.643712 -0.077480 255 255 0
-0.922325 0.542291 -0.077046 255 255 0
-0.942200 0.650795 -0.079527 255 255 0
-0.878444 0.633301 -0.077480 255 255 0
-0.867152 0.628709 -0.084292 255 255 0
-0.873088 0.510357 -0.089480 255 255 0
-0.890231 0.520134 -0.084648 255 255 0
-0.911739 0.519947 -0.086480 255 255 0
-0.932120 0.510636 -0.086614 255 255 0
-0.929087 0.553767 -0.077480 255 255 0
-0.895105 0.540484 -0.077480 255 255 0
-0.896820 0.579808 -0.077480 255 255 0
-0.885572 0.632624 -0.077480 255 255 0
-0.867704 0.582821 -0.077933 255 255 0
-0.871908 0.602116 -0.089480 255 255 0
-0.878831 0.551449 -0.089480 255 255 0
-0.885968 0.506960 -0.077480 255 255 0
-0.865465 0.622216 -0.076946 255 255 0
-0.888848 0.656498 -0.083480 255 255 0
-0.941186 0.632177 -0.080480 255 255 0
-0.894642 0.629241 -0.077480 255 255 0
-0.877813 0.548165 -0.077480 255 255 0
-0.879172 0.579125 -0.089480 255 255 0
-0.897218 0.524687 -0.077480 255 255 0
-0.898593 0.509644 -0.084485 255 255 0
-0.912089 0.561585 -0.084882 255 255 0
-0.902408 0.534991 -0.084943 255 255 0
-0.870625 0.525169 -0.077480 255 255 0
-0.926297 0.509178 -0.086480 255 255 0
-0.938383 0.538890 -0.077480 255 255 0
-0.879104 0.637383 -0.086480 255 255 0
-0.922578 0.625155 -0.077480 255 255 0
-0.872881 0.642195 -0.077480 255 255 0
-0.881512 0.633297 -0.089480 255 255 0
-0.883518 0.530976 -0.077480 255 255 0
-0.915687 0.580752 -0.086480 255 255 0
-0.890690 0.553970 -0.086480 255 255 0
-0.866457 0.588690 -0.084409 255 255 0
-0.865281 0.637512 -0.084202 255 255 0
-0.903260 0.562775 -0.077480 255 255 0
-0.913149 0.628746 -0.077480 255 255 0
-0.877173 0.560297 -0.092480 255 255 0
-0.942434 0.591975 -0.077480 255 255 0
-0.937549 0.551661 -0.077480 255 255 0
-0.937500 0.528611 -0.086480 255 255 0
-0.867195 0.527506 -0.088076 255 255 0
-0.883543 0.594886 -0.077480 255 255 0
-0.919124 0.557350 -0.077480 255 255 0
-0.880044 0.603846 -0.092480 255 255 0
-0.869545 0.631880 -0.077480 255 255 0
-0.887740 0.661714 -0.080480 255 255 0
-0.923151 0.517931 -0.092480 255 255 0
-0.935319 0.609461 -0.077480 255 255 0
-0.923676 0.643790 -0.077480 255 255 0
-0.912430 0.580060 -0.077480 255 255 0
-0.903324 0.538253 -0.077480 255 255 0
-0.869352 0.509563 -0.086480 255 255 0
-0.938950 0.656238 -0.080480 255 255 0
-0.872232 0.534711 -0.077480 255 255 0
-0.913652 0.647794 -0.077480 255 255 0
-0.878676 0.566751 -0.086480 255 255 0
-0.930462 0.648300 -0.076644 255 255 0
-0.943115 0.568180 -0.083480 255 255 0
-0.886232 0.510084 -0.083833 255 255 0
-0.917600 0.521234 -0.089480 255 255 0
-0.874946 0.541422 -0.077480 255 255 0
-1.273211 0.651863 0.012520 255 125 0
-1.118338 0.471446 -0.035480 255 125 0
-1.105900 0.651853 -0.053480 255 125 0
-1.276845 0.490474 -0.008479 255 125 0
-1.080781 0.563704 -0.005480 255 125 0
-1.289059 0.577305 -0.039798 255 125 0
-1.231575 0.660164 -0.066959 255 125 0
-1.199159 0.451943 -0.008479 255 125 0
-1.149412 0.642700 0.019786 255 125 0
-1.222241 0.682716 -0.008479 255 125 0
-1.128565 0.601464 -0.023479 255 125 0
-1.240344 0.612956 -0.023479 255 125 0
-1.235225 0.476919 -0.044479 255 125 0
-1.094946 0.523777 -0.042974 255 125 0
-1.126332 0.679129 -0.011479 255 125 0
-1.099291 0.628979 0.009521 255 125 0
-1.287741 0.540220 -0.004678 255 125 0
-1.275022 0.635662 -0.050480 255 125 0
-1.167982 0.468759 -0.042935 255 125 0
-1.289329 0.611099 -0.005480 255 125 0
-1.228398 0.644154 0.018520 255 125 0
-1.099936 0.500301 -0.004500 255 125 0
-1.148687 0.458524 -0.004457 255 125 0
-1.090027 0.590206 -0.039521 255 125 0
-1.242150 0.466122 -0.004683 255 125 0
-1.253500 0.664824 -0.029480 255 125 0
-1.288548 0.521990 -0.039955 255 125 0
-1.127055 0.618016 -0.059479 255 125 0
-1.253633 0.614112 0.012520 255 125 0
-1.239685 0.622016 -0.060030 255 125 0
-1.098190 0.623947 -0.026479 255 125 0
-1.131549 0.611300 0.010605 255 125 0
-1.283191 0.576058 -0.005113 255 125 0
-1.202754 0.463883 -0.042742 255 125 0
-1.081051 0.554561 -0.038480 255 125 0
-1.100395 0.534136 -0.008479 255 125 0
-1.088493 0.599081 -0.005480 255 125 0
-1.123073 0.680039 -0.045938 255 125 0
-1.268720 0.637389 -0.017480 255 125 0
-1.222853 0.679779 -0.041479 255 125 0
-1.116439 0.657160 0.012520 255 125 0
-1.228122 0.644095 -0.038480 255 125 0
-1.119030 0.648510 -0.023479 255 125 0
-1.129199 0.485052 -0.008479 255 125 0
-1.270062 0.493525 -0.039698 255 125 0
-1.276412 0.607944 -0.035480 255 125 0
-1.133564 0.651599 -0.065480 255 125 0
-1.238876 0.640247 -0.009117 255 125 0
-1.110713 0.499525 -0.032480 255 125 0
-1.174181 0.468452 -0.014480 255 125 0
-1.279890 0.550820 -0.032480 255 125 0
-1.241166 0.665270 0.003520 255 125 0
-1.222747 0.458931 -0.023479 255 125 0
-1.142745 0.665819 0.006521 255 125 0
-1.142552 0.458529 -0.035480 255 125 0
-1.274290 0.516926 -0.014480 255 125 0
-1.250017 0.486832 -0.020480 255 125 0
-1.119627 0.624101 -0.009935 255 125 0
-1.252275 0.600157 -0.044479 255 125 0
-1.181422 0.448813 -0.032480 255 125 0
-1.123763 0.633506 0.021520 255 125 0
-1.262738 0.608515 -0.011479 255 125 0
-1.103707 0.626851 -0.051497 255 125 0
-1.253733 0.628069 -0.039481 255 125 0
-1.224360 0.658630 -0.017480 255 125 0
-1.087699 0.516103 -0.020480 255 125 0
-1.097497 0.576459 -0.020480 255 125 0
-1.112256 0.601065 -0.001863 255 125 0
-1.275087 0.628606 0.006521 255 125 0
-1.252522 0.640080 0.015520 255 125 0
-1.290332 0.592911 -0.020480 255 125 0
-1.104258 0.645370 -0.005480 255 125 0
-1.081777 0.542447 -0.018111 255 125 0
-1.107407 0.483487 -0.017480 255 125 0
-1.101182 0.601778 -0.023479 255 125 0
-1.145273 0.474592 -0.020480 255 125 0
-1.244259 0.600492 -0.002480 255 125 0
-1.136361 0.480440 -0.044479 255 125 0
-1.113814 0.668870 -0.029480 255 125 0
-1.162149 0.452908 -0.023479 255 125 0
-1.235478 0.624189 0.006521 255 125 0
-1.239708 0.643491 -0.056480 255 125 0
-1.258977 0.632251 -0.063964 255 125 0
-1.261082 0.672570 0.003520 255 125 0
-1.193028 0.466353 -0.023479 255 125 0
-1.241558 0.468908 -0.026479 255 125 0
-1.102590 0.641948 -0.035480 255 125 0
-1.127934 0.642738 0.003520 255 125 0
-1.292221 0.533573 -0.023479 255 125 0
-1.179080 0.449650 -0.005480 255 125 0
-1.237156 0.662764 -0.041479 255 125 0
-1.122952 0.658545 -0.044479 255 125 0
-1.247056 0.645052 -0.027073 255 125 0
-1.278069 0.568835 -0.023479 255 125 0
-1.094394 0.569665 -0.039973 255 125 0
-1.113661 0.608881 -0.047480 255 125 0
-1.221104 0.664072 0.003520 255 125 0
-1.251287 0.596284 -0.023479 255 125 0
-1.113644 0.662700 -0.008479 255 125 0
-1.095592 0.542316 -0.032480 255 125 0
-1.123002 0.637086 -0.055999 255 125 0
-1.258196 0.477206 -0.035480 255 125 0
-1.128352 0.466470 -0.014480 255 125 0
-1.249952 0.624199 -0.008479 255 125 0
-1.253365 0.658661 -0.010170 255 125 0
-1.219922 0.455264 -0.004547 255 125 0
-1.276302 0.596062 -0.005480 255 125 0
-1.282545 0.506949 -0.029480 255 125 0
-1.265561 0.500275 -0.020480 255 125 0
-1.131110 0.598938 -0.004429 255 125 0
-1.276836 0.626846 -0.032480 255 125 0
-1.105937 0.515356 -0.014480 255 125 0
-1.144025 0.624751 0.015520 255 125 0
-1.260355 0.481475 -0.005480 255 125 0
-1.095004 0.618867 -0.008479 255 125 0
-1.092811 0.504966 -0.035480 255 125 0
-1.236328 0.621303 -0.041479 255 125 0
-1.280969 0.557183 -0.008479 255 125 0
-1.114615 0.618821 0.012520 255 125 0
-1.125665 0.487368 -0.026479 255 125 0
-1.229771 0.675115 -0.023479 255 125 0
-1.082004 0.567031 -0.023479 255 125 0
-1.275982 0.589860 -0.032480 255 125 0
-1.088964 0.580779 -0.004725 255 125 0
-1.132244 0.651319 0.019143 255 125 0
-1.220627 0.466375 -0.041479 255 125 0
-1.085519 0.524840 -0.004194 255 125 0
-1.262352 0.645237 -0.000190 255 125 0
-1.255344 0.613077 -0.056480 255 125 0
-1.261077 0.622373 -0.023479 255 125 0
-1.289574 0.509940 -0.008479 255 125 0
-1.096092 0.609897 -0.038480 255 125 0
-1.222035 0.661203 -0.050480 255 125 0
-1.093710 0.551117 -0.008479 255 125 0
-1.085423 0.589227 -0.020480 255 125 0
-1.184525 0.463075 -0.042776 255 125 0
-1.151751 0.472970 -0.038480 255 125 0
-1.120662 0.489372 -0.042876 255 125 0
-1.204806 0.454228 -0.026479 255 125 0
-1.244615 0.626131 0.021520 255 125 0
-1.273407 0.622085 -0.011479 255 125 0
-1.292376 0.553474 -0.020480 255 125 0
-1.275609 0.525148 -0.029480 255 125 0
-1.128013 0.678022 -0.029480 255 125 0
-1.083615 0.530570 -0.032480 255 125 0
-1.210629 0.470122 -0.026479 255 125 0
-1.106547 0.483304 -0.035480 255 125 0
-1.247496 0.657414 0.016801 255 125 0
-1.129892 0.626283 0.003520 255 125 0
-1.111547 0.633259 -0.023479 255 125 0
-1.112950 0.641084 0.010772 255 125 0
-1.157930 0.472757 -0.009991 255 125 0
-1.292476 0.561232 -0.038480 255 125 0
-1.243526 0.628967 -0.026479 255 125 0
-1.095419 0.557615 -0.026479 255 125 0
-1.261480 0.641984 -0.035480 255 125 0
-1.116189 0.495986 -0.011479 255 125 0
-1.098403 0.496908 -0.020480 255 125 0
-1.227663 0.647064 0.000520 255 125 0
-1.141633 0.679296 -0.002480 255 125 0
-1.113156 0.611253 -0.017480 255 125 0
-1.098719 0.527646 -0.023479 255 125 0
-1.161830 0.468839 -0.026479 255 125 0
-1.288157 0.538262 -0.038480 255 125 0
-1.274651 0.601845 -0.020480 255 125 0
-1.233466 0.672834 -0.053480 255 125 0
-1.222047 0.664273 -0.032480 255 125 0
-1.122334 0.669079 0.003520 255 125 0
-1.237573 0.675239 -0.008479 255 125 0
-1.158421 0.456020 -0.041479 255 125 0
-1.254284 0.611044 -0.032480 255 125 0
-1.256667 0.628693 0.005134 255 125 0
-1.147549 0.458282 -0.020480 255 125 0
-1.164608 0.455774 -0.007053 255 125 0
-1.277634 0.584077 -0.017480 255 125 0
-1.116506 0.476220 -0.005480 255 125 0
-1.115658 0.635525 -0.041479 255 125 0
-1.274726 0.506784 -0.002480 255 125 0
-1.290860 0.525548 -0.010041 255 125 0
-1.290317 0.592907 -0.038480 255 125 0
-1.238793 0.480744 -0.011479 255 125 0
-1.278587 0.538275 -0.017480 255 125 0
-1.247014 0.651178 -0.044479 255 125 0
-1.241930 0.647030 0.006521 255 125 0
-1.292617 0.574994 -0.024934 255 125 0
-1.226468 0.467758 -0.011479 255 125 0
-1.255391 0.490406 -0.042883 255 125 0
-1.241315 0.657627 -0.020480 255 125 0
-1.119258 0.654693 -0.060976 255 125 0
-1.177103 0.469132 -0.029480 255 125 0
-1.125292 0.662109 -0.020480 255 125 0
-1.241444 0.610122 -0.050480 255 125 0
-1.269836 0.610023 0.001851 255 125 0
-1.119010 0.648506 -0.008479 255 125 0
-1.264554 0.483153 -0.020480 255 125 0
-1.189711 0.451909 -0.020480 255 125 0
-1.263351 0.617846 -0.044479 255 125 0
-1.110029 0.654829 -0.035480 255 125 0
-1.082592 0.579424 -0.032480 255 125 0
-1.104732 0.513589 -0.038480 255 125 0
-1.225318 0.473164 -0.026479 255 125 0
-1.127991 0.613610 -0.003929 255 125 0
-1.187459 0.463699 -0.010188 255 125 0
-1.241452 0.634660 -0.044479 255 125 0
-1.231575 0.660164 0.013297 255 125 0
-1.130997 0.657187 0.005487 255 125 0
-1.244596 0.483470 -0.035480 255 125 0
-1.099998 0.632196 -0.011479 255 125 0
-1.139699 0.471949 -0.007254 255 125 0
-1.131744 0.466091 -0.029480 255 125 0
-1.209541 0.460812 -0.014480 255 125 0
-1.117148 0.595971 -0.014480 255 125 0
-1.106203 0.615113 -0.000179 255 125 0
-1.239877 0.612856 -0.008479 255 125 0
-1.116485 0.667743 -0.053480 255 125 0
-1.106287 0.621265 -0.038480 255 125 0
-1.252945 0.473050 -0.014480 255 125 0
-1.258793 0.647547 -0.018968 255 125 0
-1.104906 0.645508 -0.020480 255 125 0
-1.217189 0.453690 -0.035480 255 125 0
-1.244070 0.673533 -0.023479 255 125 0
-1.287621 0.518726 -0.023479 255 125 0
-1.093458 0.566399 -0.011479 255 125 0
-1.135363 0.636646 0.014223 255 125 0
-1.262167 0.660533 0.010669 255 125 0
-1.087467 0.601930 -0.026479 255 125 0
-1.085334 0.540136 -0.004817 255 125 0
-1.289003 0.606424 -0.023479 255 125 0
-1.227578 0.650113 -0.056934 255 125 0
-1.254796 0.637497 -0.010373 255 125 0
-1.130117 0.632465 -0.066879 255 125 0
-1.148304 0.654732 0.012520 255 125 0
-1.090897 0.510648 -0.005480 255 125 0
-1.097883 0.588809 -0.011479 255 125 0
-1.242124 0.607200 0.009521 255 125 0
-1.097904 0.588813 -0.026479 255 125 0
-1.275115 0.635682 -0.005480 255 125 0
-1.235775 0.661057 -0.008479 255 125 0
-1.242817 0.604280 -0.035480 255 125 0
-1.266533 0.639991 0.013112 255 125 0
-1.289498 0.589666 -0.007293 255 125 0
-1.291553 0.565567 -0.007351 255 125 0
-1.256833 0.604192 0.000520 255 125 0
-1.174977 0.450272 -0.020480 255 125 0
-1.278553 0.496869 -0.020480 255 125 0
-1.107291 0.638853 -0.056480 255 125 0
-1.263570 0.495212 -0.008343 255 125 0
-1.220074 0.669988 -0.011479 255 125 0
-1.101723 0.607329 -0.011479 255 125 0
-1.269718 0.505719 -0.032480 255 125 0
-1.257701 0.493964 -0.030380 255 125 0
-1.241187 0.643805 0.021739 255 125 0
-1.118305 0.636088 -0.002480 255 125 0
-1.195325 0.455546 -0.035480 255 125 0
-1.092873 0.612280 -0.020480 255 125 0
-1.108923 0.486877 -0.004565 255 125 0
-1.119297 0.473746 -0.020480 255 125 0
-1.236382 0.651985 -0.032142 255 125 0
-1.275242 0.617306 -0.023479 255 125 0
-1.136292 0.480426 -0.029480 255 125 0
-1.110227 0.658907 -0.020480 255 125 0
-1.117862 0.646834 -0.047480 255 125 0
-1.232372 0.632730 -0.059479 255 125 0
-1.220455 0.683626 -0.026479 255 125 0
-1.233232 0.464792 -0.035480 255 125 0
-1.245993 0.635625 0.001990 255 125 0
-1.278272 0.642486 0.005049 255 125 0
-1.102870 0.500925 -0.042642 255 125 0
-1.276145 0.623632 -0.045953 255 125 0
-1.079906 0.551250 -0.008659 255 125 0
-1.131989 0.623661 0.020366 255 125 0
-1.173410 0.457645 -0.039194 255 125 0
-1.120436 0.605870 0.006817 255 125 0
-1.263405 0.620924 -0.002480 255 125 0
-1.263968 0.608776 -0.024439 255 125 0
-1.276330 0.608336 -0.009060 255 125 0
-1.117277 0.620732 -0.050480 255 125 0
-1.106472 0.651975 0.006521 255 125 0
-1.251712 0.615372 -0.017480 255 125 0
-1.095585 0.542315 -0.017480 255 125 0
-1.249288 0.627125 -0.053480 255 125 0
-1.115465 0.672544 -0.017480 255 125 0
-1.230435 0.635386 0.009521 255 125 0
-1.125936 0.608851 -0.050480 255 125 0
-1.253715 0.599295 -0.011479 255 125 0
-1.100828 0.597114 -0.035480 255 125 0
-1.080819 0.554511 -0.023479 255 125 0
-1.085958 0.537202 -0.042894 255 125 0
-1.082421 0.576321 -0.014480 255 125 0
-1.125567 0.668302 -0.037012 255 125 0
-1.082655 0.567170 -0.035946 255 125 0
-1.236457 0.658135 -0.053480 255 125 0
-1.105299 0.611854 -0.029480 255 125 0
-1.087390 0.516037 -0.034050 255 125 0
-1.084288 0.527645 -0.017480 255 125 0
-1.108439 0.503586 -0.017480 255 125 0
-1.274469 0.638611 -0.035480 255 125 0
-1.093955 0.557303 -0.039932 255 125 0
-1.233481 0.672837 -0.035480 255 125 0
-1.226869 0.674499 0.000520 255 125 0
-1.263909 0.630233 -0.032480 255 125 0
-1.266055 0.656675 -0.002480 255 125 0
-1.237005 0.649050 -0.067008 255 125 0
-1.278986 0.523686 -0.005480 255 125 0
-1.104152 0.516532 -0.026479 255 125 0
-1.121873 0.656822 -0.032480 255 125 0
-1.230642 0.650122 -0.011479 255 125 0
-1.081777 0.542447 -0.030730 255 125 0
-1.098505 0.521466 -0.007084 255 125 0
-1.114975 0.672184 -0.041479 255 125 0
-1.099877 0.494155 -0.032480 255 125 0
-1.279806 0.556936 -0.020480 255 125 0
-1.279524 0.538474 -0.029480 255 125 0
-1.230072 0.638376 -0.048884 255 125 0
-1.278477 0.578123 -0.032480 255 125 0
-1.139013 0.460747 -0.011479 255 125 0
-1.137390 0.468391 -0.039716 255 125 0
-1.249844 0.486160 -0.008479 255 125 0
-1.189331 0.454895 -0.002437 255 125 0
-1.108188 0.620202 -0.011479 255 125 0
-1.260849 0.623448 -0.054955 255 125 0
-1.234254 0.633130 0.020486 255 125 0
-1.244468 0.650636 -0.008479 255 125 0
-1.111383 0.662886 0.003520 255 125 0
-1.125338 0.662119 -0.008479 255 125 0
-1.126014 0.608486 -0.014480 255 125 0
-1.250444 0.639639 -0.038480 255 125 0
-1.124301 0.643496 0.015520 255 125 0
-1.257036 0.598101 -0.033462 255 125 0
-1.233648 0.462831 -0.020480 255 125 0
-1.095139 0.580589 -0.035480 255 125 0
-1.111557 0.633209 -0.011479 255 125 0
-1.258346 0.649656 0.012520 255 125 0
-1.109348 0.621916 -0.023479 255 125 0
-1.100554 0.632315 -0.041479 255 125 0
-1.101613 0.638674 0.003520 255 125 0
-1.133937 0.670081 0.000520 255 125 0
-1.268220 0.646484 -0.009963 255 125 0
-1.244699 0.670564 -0.035480 255 125 0
-1.282751 0.563696 -0.032984 255 125 0
-1.279572 0.506503 -0.014480 255 125 0
-1.242084 0.631728 -0.065480 255 125 0
-1.254356 0.625135 0.015712 255 125 0
-1.241303 0.628495 -0.014480 255 125 0
-1.133031 0.662043 0.015520 255 125 0
-1.243534 0.603904 -0.017480 255 125 0
-1.265692 0.633679 0.000520 255 125 0
-1.251167 0.618323 -0.044479 255 125 0
-1.092505 0.506403 -0.023479 255 125 0
-1.235366 0.648702 -0.047480 255 125 0
-1.233492 0.477994 -0.032480 255 125 0
-1.114881 0.494277 -0.023479 255 125 0
-1.117871 0.646787 -0.035480 255 125 0
-1.120644 0.654987 0.000520 255 125 0
-1.118137 0.629918 0.012520 255 125 0
-1.100986 0.635474 -0.026479 255 125 0
-1.288368 0.601694 -0.011479 255 125 0
-1.246254 0.638748 -0.017480 255 125 0
-1.276354 0.629811 -0.020480 255 125 0
-1.291739 0.550271 -0.007414 255 125 0
-1.126091 0.478257 -0.039701 255 125 0
-1.095133 0.609473 -0.002480 255 125 0
-1.152790 0.453656 -0.029480 255 125 0
-1.136285 0.480425 -0.017480 255 125 0
-1.111175 0.662175 -0.044479 255 125 0
-1.127338 0.472389 -0.005123 255 125 0
-1.277731 0.568763 -0.011479 255 125 0
-1.291739 0.550271 -0.036793 255 125 0
-1.259572 0.635445 -0.023479 255 125 0
-1.246929 0.472502 -0.035480 255 125 0
-1.137818 0.646369 0.009521 255 125 0
-1.268048 0.488573 -0.029480 255 125 0
-1.285440 0.601072 -0.032480 255 125 0
-1.193027 0.466358 -0.035480 255 125 0
-1.256605 0.650149 -0.029480 255 125 0
-1.129862 0.604807 -0.033903 255 125 0
-1.224232 0.658603 -0.005480 255 125 0
-1.248108 0.675946 -0.005480 255 125 0
-1.248170 0.660624 -0.038480 255 125 0
-1.240932 0.616147 0.015712 255 125 0
-1.231037 0.460693 -0.004480 255 125 0
-1.155933 0.453293 -0.014480 255 125 0
-1.101249 0.491379 -0.011479 255 125 0
-1.210629 0.470127 -0.038480 255 125 0
-1.260225 0.626383 -0.013368 255 125 0
-1.225255 0.655753 -0.038480 255 125 0
-1.272190 0.512379 -0.024160 255 125 0
-1.227085 0.652432 -0.026479 255 125 0
-1.118296 0.673652 -0.005480 255 125 0
-1.248877 0.665343 -0.017480 255 125 0
-1.235877 0.627341 -0.050480 255 125 0
-1.269756 0.619207 -0.035480 255 125 0
-1.268602 0.505482 -0.011479 255 125 0
-1.279305 0.507757 -0.039775 255 125 0
-1.199036 0.466159 -0.014480 255 125 0
-1.219227 0.672875 -0.026479 255 125 0
-1.097390 0.533497 -0.038480 255 125 0
-1.250526 0.621254 -0.062479 255 125 0
-1.252314 0.476026 -0.026479 255 125 0
-1.291572 0.587040 -0.029480 255 125 0
-1.112922 0.496927 -0.042925 255 125 0
-1.136795 0.615482 0.002069 255 125 0
-1.178052 0.458632 -0.011479 255 125 0
-1.214258 0.453054 -0.020480 255 125 0
-1.291975 0.541121 -0.014480 255 125 0
-1.235895 0.668704 -0.017480 255 125 0
-1.241004 0.644669 -0.038480 255 125 0
-1.136028 0.604653 0.003520 255 125 0
-1.096151 0.619111 0.002108 255 125 0
-1.227105 0.666767 -0.059479 255 125 0
-1.092817 0.569330 -0.029480 255 125 0
-1.097124 0.622384 -0.044479 255 125 0
-1.209600 0.453070 -0.005480 255 125 0
-1.124433 0.615921 0.016933 255 125 0
-1.147439 0.464393 -0.042933 255 125 0
-1.126995 0.668605 -0.047480 255 125 0
-1.225184 0.652672 0.009521 255 125 0
-1.239266 0.628062 -0.002480 255 125 0
-1.280220 0.546743 -0.008479 255 125 0
-1.267342 0.621761 0.008129 255 125 0
-1.234480 0.473346 -0.017480 255 125 0
-1.089956 0.547252 -0.039773 255 125 0
-1.127965 0.642589 -0.065480 255 125 0
-1.107265 0.624540 0.004180 255 125 0
-1.119881 0.680628 -0.035480 255 125 0
-1.267831 0.631066 -0.044479 255 125 0
-1.121938 0.627659 -0.060335 255 125 0
-1.249705 0.473862 -0.004627 255 125 0
-1.114400 0.641392 -0.017480 255 125 0
-1.113752 0.478590 -0.029480 255 125 0
-1.276567 0.497974 -0.032480 255 125 0
-1.252194 0.655346 -0.020480 255 125 0
-1.105893 0.645718 -0.044479 255 125 0
-1.241965 0.481418 -0.025735 255 125 0
-1.119812 0.608805 -0.024942 255 125 0
-1.249228 0.620401 -0.026479 255 125 0
-1.245263 0.465911 -0.014480 255 125 0
-1.097456 0.576449 -0.008479 255 125 0
-1.152061 0.471510 -0.027968 255 125 0
-1.291690 0.528792 -0.032480 255 125 0
-1.080968 0.560677 -0.015364 255 125 0
-1.230464 0.679823 -0.014480 255 125 0
-1.258503 0.607615 -0.041479 255 125 0
-1.236209 0.652792 0.018520 255 125 0
-1.131409 0.597533 -0.014480 255 125 0
-1.107440 0.655248 -0.005480 255 125 0
-1.127550 0.673403 -0.020480 255 125 0
-1.135703 0.461898 -0.020975 255 125 0
-1.222999 0.671657 -0.047480 255 125 0
-1.269000 0.484098 -0.009960 255 125 0
-1.280368 0.517184 -0.033314 255 125 0
-1.165441 0.466281 -0.008479 255 125 0
-1.168458 0.452084 -0.032480 255 125 0
-1.266689 0.615488 -0.017480 255 125 0
-1.109248 0.629644 -0.032480 255 125 0
-1.228631 0.681007 -0.032480 255 125 0
-1.240061 0.655834 0.000520 255 125 0
-1.122067 0.489671 -0.017480 255 125 0
-1.115262 0.644642 -0.057932 255 125 0
-1.183598 0.467435 -0.020480 255 125 0
-1.245469 0.656983 -0.029480 255 125 0
-1.118365 0.491951 -0.032480 255 125 0
-1.277598 0.528864 -0.014480 255 125 0
-1.100999 0.509728 -0.007414 255 125 0
-1.100518 0.598570 -0.006973 255 125 0
-1.085357 0.589213 -0.008479 255 125 0
-1.230062 0.667286 0.006521 255 125 0
-1.105354 0.611866 -0.041479 255 125 0
