ply
format ascii 1.0
element vertex 1224
property float x
property float y
property float z
property uchar red
property uchar green
property uchar blue
end_header
-0.619491 0.110900 -0.066394 0 255 255
-0.659203 0.158986 -0.056577 0 255 255
-0.577045 0.087208 -0.105394 0 255 255
-0.575801 0.086792 -0.112719 0 255 255
-0.705803 0.057530 -0.112880 0 255 255
-0.593358 0.057868 -0.120394 0 255 255
-0.672637 0.024288 -0.121614 0 255 255
-0.577242 0.042985 -0.069394 0 255 255
-0.581990 0.058839 -0.111394 0 255 255
-0.650754 0.080236 -0.067046 0 255 255
-0.592240 0.032187 -0.105394 0 255 255
-0.702843 0.116645 -0.066394 0 255 255
-0.569202 0.049786 -0.061530 0 255 255
-0.628091 -0.012761 -0.056695 0 255 255
-0.660043 0.058036 -0.066394 0 255 255
-0.563782 0.084896 -0.060394 0 255 255
-0.651760 0.029957 -0.066274 0 255 255
-0.618293 0.031413 -0.138394 0 255 255
-0.727880 0.099715 -0.063394 0 255 255
-0.611491 0.027396 -0.117394 0 255 255
-0.568180 0.039953 -0.099394 0 255 255
-0.578526 0.097554 -0.114394 0 255 255
-0.585331 0.048855 -0.122265 0 255 255
-0.564378 0.120931 -0.061791 0 255 255
-0.560624 0.084877 -0.095237 0 255 255
-0.706523 0.027017 -0.057394 0 255 255
-0.567775 0.087270 -0.072394 0 255 255
-0.665936 -0.006425 -0.090394 0 255 255
-0.675238 -0.011847 -0.066394 0 255 255
-0.601897 0.013273 -0.090394 0 255 255
-0.630485 -0.001006 -0.084394 0 255 255
-0.665996 0.025229 -0.069925 0 255 255
-0.553971 0.095305 -0.062588 0 255 255
-0.600937 0.038259 -0.066394 0 255 255
-0.571018 0.034903 -0.057394 0 255 255
-0.726873 0.060742 -0.072394 0 255 255
-0.707498 0.014648 -0.066394 0 255 255
-0.657460 0.022374 -0.118962 0 255 255
-0.683541 -0.003698 -0.075394 0 255 255
-0.612923 0.016962 -0.120394 0 255 255
-0.696360 0.019572 -0.076939 0 255 255
-0.711309 0.040391 -0.057394 0 255 255
-0.555163 0.082285 -0.081394 0 255 255
-0.638022 0.023742 -0.123394 0 255 255
-0.680820 0.052335 -0.138394 0 255 255
-0.604315 0.039390 -0.128851 0 255 255
-0.733301 0.069894 -0.058460 0 255 255
-0.695314 0.003788 -0.075394 0 255 255
-0.648491 0.030273 -0.129394 0 255 255
-0.683105 0.040277 -0.066394 0 255 255
-0.595705 0.102942 -0.124892 0 255 255
-0.623913 0.017475 -0.123394 0 255 255
-0.682327 0.004784 -0.057394 0 255 255
-0.591999 0.095109 -0.066394 0 255 255
-0.582817 0.037460 -0.066394 0 255 255
-0.645919 0.160868 -0.056886 0 255 255
-0.660379 0.023104 -0.066394 0 255 255
-0.726785 0.042095 -0.057394 0 255 255
-0.707495 0.140346 -0.057394 0 255 255
-0.608934 0.148494 -0.054800 0 255 255
-0.671108 0.125008 -0.066394 0 255 255
-0.677538 -0.009268 -0.075394 0 255 255
-0.605299 0.008085 -0.061825 0 255 255
-0.562501 0.034889 -0.084394 0 255 255
-0.597608 0.097251 -0.070266 0 255 255
-0.560645 0.065904 -0.056151 0 255 255
-0.660966 0.011899 -0.117394 0 255 255
-0.579663 0.012160 -0.084394 0 255 255
-0.606187 0.062160 -0.131018 0 255 255
-0.693483 0.047080 -0.067087 0 255 255
-0.583569 0.007141 -0.081394 0 255 255
-0.701910 0.144804 -0.058515 0 255 255
-0.592542 0.017848 -0.087394 0 255 255
-0.555086 0.067207 -0.084394 0 255 255
-0.728443 0.058778 -0.063394 0 255 255
-0.585243 0.077482 -0.066394 0 255 255
-0.636616 -0.000419 -0.059140 0 255 255
-0.673708 0.148023 -0.072394 0 255 255
-0.569542 0.094189 -0.102394 0 255 255
-0.611909 0.035604 -0.135703 0 255 255
-0.676008 0.023669 -0.111394 0 255 255
-0.596733 0.109323 -0.066394 0 255 255
-0.684818 0.158067 -0.056077 0 255 255
-0.694543 0.006091 -0.084394 0 255 255
-0.565351 0.099113 -0.093216 0 255 255
-0.561822 0.109660 -0.072394 0 255 255
-0.560591 0.113337 -0.063085 0 255 255
-0.631422 0.015101 -0.114394 0 255 255
-0.642447 -0.008393 -0.096394 0 255 255
-0.613737 0.096321 -0.067144 0 255 255
-0.725157 0.056417 -0.078394 0 255 255
-0.629887 0.076418 -0.067149 0 255 255
-0.656457 0.044282 -0.066394 0 255 255
-0.673535 0.002697 -0.057394 0 255 255
-0.619106 0.136080 -0.066394 0 255 255
-0.691536 0.090718 -0.067180 0 255 255
-0.671346 -0.009673 -0.081394 0 255 255
-0.637535 0.025197 -0.066073 0 255 255
-0.719098 0.046161 -0.056041 0 255 255
-0.552392 0.078959 -0.063394 0 255 255
-0.699096 0.001938 -0.057394 0 255 255
-0.697889 0.039064 -0.108394 0 255 255
-0.682060 0.081221 -0.066789 0 255 255
-0.571006 0.015591 -0.063394 0 255 255
-0.561136 0.062904 -0.096394 0 255 255
-0.709045 0.038388 -0.066394 0 255 255
-0.611909 0.035604 -0.125043 0 255 255
-0.719087 0.055648 -0.070890 0 255 255
-0.564431 0.073497 -0.102793 0 255 255
-0.569180 0.068759 -0.066996 0 255 255
-0.600400 0.145638 -0.054986 0 255 255
-0.663139 0.033765 -0.145646 0 255 255
-0.570540 0.021762 -0.084394 0 255 255
-0.576010 0.114530 -0.057394 0 255 255
-0.611457 0.003818 -0.069394 0 255 255
-0.710520 0.081253 -0.067171 0 255 255
-0.628914 0.098236 -0.065705 0 255 255
-0.614764 0.027068 -0.127659 0 255 255
-0.607498 0.162244 -0.063394 0 255 255
-0.635566 0.087808 -0.066752 0 255 255
-0.573983 0.016587 -0.055984 0 255 255
-0.640423 -0.011798 -0.088335 0 255 255
-0.594796 0.067839 -0.067215 0 255 255
-0.609031 0.063112 -0.065879 0 255 255
-0.602465 -0.002354 -0.055949 0 255 255
-0.680177 0.067936 -0.137032 0 255 255
-0.572055 0.076048 -0.066394 0 255 255
-0.553971 0.095305 -0.055151 0 255 255
-0.613672 0.153243 -0.055516 0 255 255
-0.710145 0.035100 -0.075394 0 255 255
-0.666583 -0.014345 -0.060394 0 255 255
-0.617642 -0.000440 -0.057269 0 255 255
-0.654953 0.162233 -0.072394 0 255 255
-0.601438 0.066898 -0.066166 0 255 255
-0.712371 0.122996 -0.055916 0 255 255
-0.693526 0.009133 -0.056169 0 255 255
-0.641299 0.051765 -0.066214 0 255 255
-0.619080 -0.009449 -0.087394 0 255 255
-0.581437 0.136130 -0.055811 0 255 255
-0.692434 0.135307 -0.055556 0 255 255
-0.711536 0.021486 -0.073492 0 255 255
-0.649888 0.007186 -0.100946 0 255 255
-0.709893 0.024100 -0.084394 0 255 255
-0.682135 0.014812 -0.108557 0 255 255
-0.642798 0.000012 -0.081394 0 255 255
-0.653707 -0.013680 -0.055528 0 255 255
-0.659426 -0.011863 -0.081394 0 255 255
-0.581533 0.050748 -0.067422 0 255 255
-0.605246 0.055519 -0.067332 0 255 255
-0.665087 -0.009872 -0.055571 0 255 255
-0.601033 0.020836 -0.102394 0 255 255
-0.607639 0.005704 -0.075394 0 255 255
-0.647344 0.166064 -0.063394 0 255 255
-0.717489 0.083584 -0.060394 0 255 255
-0.626133 0.040363 -0.066259 0 255 255
-0.556983 0.039371 -0.072394 0 255 255
-0.583470 0.016597 -0.057259 0 255 255
-0.711505 0.049947 -0.070345 0 255 255
-0.679193 0.099242 -0.066531 0 255 255
-0.671546 0.150462 -0.055911 0 255 255
-0.586740 0.020855 -0.075394 0 255 255
-0.635038 0.023206 -0.129394 0 255 255
-0.696905 0.022917 -0.087394 0 255 255
-0.653696 -0.004193 -0.056511 0 255 255
-0.608015 0.122878 -0.066037 0 255 255
-0.668422 0.008521 -0.096394 0 255 255
-0.699701 0.023854 -0.072394 0 255 255
-0.629973 0.000522 -0.058739 0 255 255
-0.721878 0.104034 -0.056094 0 255 255
-0.586712 0.125241 -0.066394 0 255 255
-0.683877 0.151425 -0.056618 0 255 255
-0.610605 0.143502 -0.060394 0 255 255
-0.629022 0.003368 -0.111654 0 255 255
-0.689718 0.020513 -0.059776 0 255 255
-0.665527 0.050381 -0.144394 0 255 255
-0.696285 0.085979 -0.066912 0 255 255
-0.679139 0.146676 -0.054862 0 255 255
-0.577629 0.147510 -0.059234 0 255 255
-0.675450 0.053700 -0.067056 0 255 255
-0.615695 0.043197 -0.066851 0 255 255
-0.570100 0.094375 -0.066786 0 255 255
-0.611877 0.064064 -0.073625 0 255 255
-0.597544 0.154173 -0.056387 0 255 255
-0.678284 0.064139 -0.073865 0 255 255
-0.643171 0.074535 -0.073621 0 255 255
-0.622283 0.089690 -0.073807 0 255 255
-0.675386 0.110622 -0.067230 0 255 255
-0.638465 0.041326 -0.145884 0 255 255
-0.611834 0.102011 -0.073633 0 255 255
-0.556795 0.055124 -0.081394 0 255 255
-0.589993 0.120012 -0.073704 0 255 255
-0.676327 0.117263 -0.073812 0 255 255
-0.575375 0.036034 -0.066394 0 255 255
-0.698188 0.080289 -0.073639 0 255 255
-0.564696 0.067259 -0.072394 0 255 255
-0.612721 0.156087 -0.070710 0 255 255
-0.621321 0.102022 -0.065818 0 255 255
-0.679182 0.108729 -0.073685 0 255 255
-0.634669 0.043220 -0.073846 0 255 255
-0.562496 0.107647 -0.055856 0 255 255
-0.642165 0.124815 -0.073652 0 255 255
-0.620018 0.001915 -0.072394 0 255 255
-0.590934 0.126654 -0.073620 0 255 255
-0.663698 0.003733 -0.084394 0 255 255
-0.627951 0.110568 -0.073777 0 255 255
-0.705728 0.123938 -0.073761 0 255 255
-0.689632 0.096407 -0.073861 0 255 255
-0.619362 0.155146 -0.073788 0 255 255
-0.616147 0.056003 -0.135394 0 255 255
-0.617599 0.037507 -0.073596 0 255 255
-0.689664 0.067947 -0.073717 0 255 255
-0.584778 0.026525 -0.084394 0 255 255
-0.666861 0.098280 -0.073616 0 255 255
-0.596667 0.090610 -0.073624 0 255 255
-0.708113 0.135719 -0.063394 0 255 255
-0.701000 0.109702 -0.073838 0 255 255
-0.567727 0.125216 -0.072394 0 255 255
-0.688669 0.108740 -0.073649 0 255 255
-0.580075 0.074016 -0.111394 0 255 255
-0.638444 0.060300 -0.073653 0 255 255
-0.692520 0.059413 -0.073689 0 255 255
-0.581469 0.107669 -0.073717 0 255 255
-0.607993 0.141852 -0.073749 0 255 255
-0.633684 0.074524 -0.073658 0 255 255
-0.666818 0.136227 -0.073624 0 255 255
-0.676316 0.126750 -0.073803 0 255 255
-0.688647 0.127713 -0.073653 0 255 255
-0.701022 0.090728 -0.066288 0 255 255
-0.589117 0.056449 -0.066876 0 255 255
-0.702926 0.085038 -0.073729 0 255 255
-0.662091 0.121991 -0.073747 0 255 255
-0.652593 0.131467 -0.073889 0 255 255
-0.671556 0.140976 -0.073769 0 255 255
-0.703857 0.101167 -0.073857 0 255 255
-0.654530 0.097317 -0.073739 0 255 255
-0.631694 0.156109 -0.073794 0 255 255
-0.703900 0.063220 -0.073742 0 255 255
-0.586282 0.046010 -0.073671 0 255 255
-0.632700 0.105830 -0.073684 0 255 255
-0.611844 0.092525 -0.073785 0 255 255
-0.574860 0.080149 -0.073885 0 255 255
-0.646957 0.082129 -0.073859 0 255 255
-0.609907 0.126675 -0.073810 0 255 255
-0.651738 0.048931 -0.073786 0 255 255
-0.647920 0.069797 -0.073774 0 255 255
-0.665974 0.044204 -0.073590 0 255 255
-0.683583 0.010485 -0.066394 0 255 255
-0.680731 0.009551 -0.075394 0 255 255
-0.722874 0.063241 -0.055557 0 255 255
-0.613715 0.115295 -0.073888 0 255 255
-0.644155 0.043229 -0.073777 0 255 255
-0.656412 0.110600 -0.073676 0 255 255
-0.646016 0.075487 -0.066198 0 255 255
-0.683044 0.049915 -0.073808 0 255 255
-0.717435 0.121528 -0.069394 0 255 255
-0.627064 0.056492 -0.073630 0 255 255
-0.580560 0.072567 -0.073633 0 255 255
-0.623202 0.115306 -0.073867 0 255 255
-0.638358 0.136194 -0.073731 0 255 255
-0.659858 0.015210 -0.108394 0 255 255
-0.658391 0.038503 -0.073664 0 255 255
-0.690594 0.084076 -0.073820 0 255 255
-0.644080 0.109638 -0.073765 0 255 255
-0.707675 0.080300 -0.073838 0 255 255
-0.662123 0.093531 -0.073854 0 255 255
-0.663085 0.081198 -0.073782 0 255 255
-0.650668 0.156130 -0.073873 0 255 255
-0.627075 0.047005 -0.073756 0 255 255
-0.592946 0.026095 -0.115790 0 255 255
-0.666829 0.126740 -0.073777 0 255 255
-0.609020 0.072599 -0.067031 0 255 255
-0.633588 0.159906 -0.056514 0 255 255
-0.569576 0.114852 -0.075394 0 255 255
-0.673546 0.059390 -0.073854 0 255 255
-0.607982 0.151338 -0.073853 0 255 255
-0.688658 0.118226 -0.073802 0 255 255
-0.617588 0.046994 -0.073828 0 255 255
-0.671610 0.093541 -0.073815 0 255 255
-0.602433 0.026106 -0.109929 0 255 255
-0.589495 0.149862 -0.069394 0 255 255
-0.712391 0.104023 -0.073809 0 255 255
-0.582474 0.057390 -0.073749 0 255 255
-0.676745 0.158529 -0.069394 0 255 255
-0.623224 0.096332 -0.073857 0 255 255
-0.634550 0.147574 -0.073747 0 255 255
-0.650722 0.108697 -0.066832 0 255 255
-0.669347 0.005759 -0.081394 0 255 255
-0.629032 -0.006119 -0.056616 0 255 255
-0.686809 0.076482 -0.073864 0 255 255
-0.638401 0.098247 -0.073724 0 255 255
-0.673557 0.049904 -0.073693 0 255 255
-0.646037 0.056514 -0.073805 0 255 255
-0.684839 0.139093 -0.073732 0 255 255
-0.639948 0.008533 -0.105394 0 255 255
-0.660273 0.051786 -0.073615 0 255 255
-0.662155 0.065070 -0.073644 0 255 255
-0.668786 0.073615 -0.073817 0 255 255
-0.582442 0.085850 -0.073888 0 255 255
-0.600497 0.060257 -0.073843 0 255 255
-0.606197 0.052673 -0.073875 0 255 255
-0.696273 0.095466 -0.073879 0 255 255
-0.602336 0.111487 -0.073819 0 255 255
-0.656444 0.082140 -0.073791 0 255 255
-0.555783 0.038969 -0.060394 0 255 255
-0.716392 0.044794 -0.090394 0 255 255
-0.595280 0.014222 -0.078394 0 255 255
-0.698758 0.031315 -0.096394 0 255 255
-0.558720 0.090567 -0.082859 0 255 255
-0.590574 0.031628 -0.066394 0 255 255
-0.608082 0.037587 -0.141394 0 255 255
-0.673621 -0.007017 -0.054809 0 255 255
-0.623819 0.000009 -0.066394 0 255 255
-0.618090 0.012364 -0.099394 0 255 255
-0.685001 -0.003209 -0.055004 0 255 255
-0.716692 0.091170 -0.072394 0 255 255
-0.594762 0.011215 -0.057394 0 255 255
-0.670723 0.039465 -0.132105 0 255 255
-0.607355 0.040406 -0.066394 0 255 255
-0.570086 0.107024 -0.063394 0 255 255
-0.584261 0.156055 -0.061744 0 255 255
-0.692542 0.040439 -0.118498 0 255 255
-0.661150 0.115349 -0.067161 0 255 255
-0.725686 0.092654 -0.070789 0 255 255
-0.622358 0.023283 -0.127321 0 255 255
-0.568670 0.087569 -0.105394 0 255 255
-0.621417 0.016640 -0.112972 0 255 255
-0.643844 0.025253 -0.132394 0 255 255
-0.672000 0.045103 -0.144394 0 255 255
-0.586902 0.011419 -0.093394 0 255 255
-0.553215 0.079235 -0.075394 0 255 255
-0.558135 0.101772 -0.063394 0 255 255
-0.705580 0.029836 -0.063394 0 255 255
-0.609311 -0.006391 -0.087394 0 255 255
-0.699895 0.027915 -0.105394 0 255 255
-0.675140 0.054627 -0.135394 0 255 255
-0.580982 0.142305 -0.066394 0 255 255
-0.710199 0.053847 -0.102394 0 255 255
-0.695407 0.022417 -0.062419 0 255 255
-0.639417 0.038481 -0.066066 0 255 255
-0.683909 0.122964 -0.066931 0 255 255
-0.602318 0.076683 -0.132394 0 255 255
-0.577532 0.008284 -0.069394 0 255 255
-0.712435 0.066076 -0.109655 0 255 255
-0.665787 -0.011967 -0.075394 0 255 255
-0.626101 0.068824 -0.066376 0 255 255
-0.562900 0.106435 -0.084394 0 255 255
-0.576140 0.080578 -0.105394 0 255 255
-0.572967 0.076353 -0.113605 0 255 255
-0.592859 0.101990 -0.073705 0 255 255
-0.721889 0.094547 -0.055453 0 255 255
-0.570100 0.094375 -0.073783 0 255 255
-0.572988 0.057379 -0.111546 0 255 255
-0.644982 0.002941 -0.060394 0 255 255
-0.699915 0.046767 -0.066394 0 255 255
-0.574508 0.029416 -0.096394 0 255 255
-0.554285 0.092247 -0.075394 0 255 255
-0.590423 0.003107 -0.084394 0 255 255
-0.652697 0.017702 -0.123394 0 255 255
-0.700370 0.027240 -0.060394 0 255 255
-0.609583 0.108739 -0.066394 0 255 255
-0.591021 0.050759 -0.124642 0 255 255
-0.592380 -0.002565 -0.075394 0 255 255
-0.734654 0.056395 -0.057394 0 255 255
-0.576053 0.057672 -0.066394 0 255 255
-0.706113 0.009331 -0.057394 0 255 255
-0.716794 0.043592 -0.072394 0 255 255
-0.666017 0.006256 -0.059909 0 255 255
-0.709536 0.112558 -0.055803 0 255 255
-0.605825 0.015968 -0.102394 0 255 255
-0.551159 0.065893 -0.056397 0 255 255
-0.605620 -0.007626 -0.078394 0 255 255
-0.584917 0.031181 -0.093394 0 255 255
-0.581540 0.003457 -0.057394 0 255 255
-0.709344 0.039734 -0.102394 0 255 255
-0.657057 0.004671 -0.096394 0 255 255
-0.724968 0.047525 -0.069394 0 255 255
-0.644421 -0.014294 -0.081394 0 255 255
-0.600873 0.153678 -0.072394 0 255 255
-0.713581 0.050641 -0.096394 0 255 255
-0.565503 0.051387 -0.099394 0 255 255
-0.612243 0.057860 -0.141394 0 255 255
-0.573457 0.041718 -0.078394 0 255 255
-0.571564 0.047413 -0.081394 0 255 255
-0.647395 -0.004270 -0.102394 0 255 255
-0.594742 0.115274 -0.067714 0 255 255
-0.567662 0.049270 -0.069394 0 255 255
-0.688615 0.156173 -0.061782 0 255 255
-0.604325 0.029903 -0.124124 0 255 255
-0.575446 0.012215 -0.075394 0 255 255
-0.731859 0.083661 -0.063394 0 255 255
-0.621945 0.005610 -0.093394 0 255 255
-0.700135 0.036652 -0.100944 0 255 255
-0.625192 0.033722 -0.128082 0 255 255
-0.586282 0.046010 -0.109973 0 255 255
-0.555410 0.105277 -0.057394 0 255 255
-0.677876 0.018088 -0.099394 0 255 255
-0.565351 0.099113 -0.055875 0 255 255
-0.610027 0.022320 -0.113045 0 255 255
-0.668718 0.067265 -0.066394 0 255 255
-0.687793 0.045177 -0.122201 0 255 255
-0.570078 0.113348 -0.055453 0 255 255
-0.622240 0.127638 -0.073877 0 255 255
-0.634052 -0.011667 -0.087394 0 255 255
-0.621837 0.010454 -0.105394 0 255 255
-0.637572 0.031537 -0.066394 0 255 255
-0.643600 0.025981 -0.072394 0 255 255
-0.612434 0.005671 -0.084394 0 255 255
-0.706631 0.045603 -0.066394 0 255 255
-0.675834 0.156553 -0.063394 0 255 255
-0.723356 0.080706 -0.069394 0 255 255
-0.620422 0.057433 -0.066035 0 255 255
-0.694821 0.147082 -0.063394 0 255 255
-0.589649 0.017039 -0.066394 0 255 255
-0.623840 -0.000057 -0.081394 0 255 255
-0.675504 0.006267 -0.104348 0 255 255
-0.550490 0.084650 -0.057394 0 255 255
-0.597990 -0.007887 -0.063394 0 255 255
-0.691170 0.016171 -0.072394 0 255 255
-0.702883 0.122986 -0.055597 0 255 255
-0.581928 0.025573 -0.069394 0 255 255
-0.600953 0.035102 -0.117394 0 255 255
-0.571084 0.063069 -0.073816 0 255 255
-0.662112 0.103018 -0.066656 0 255 255
-0.646337 0.008347 -0.117394 0 255 255
-0.714339 0.060386 -0.070205 0 255 255
-0.675055 0.059896 -0.144394 0 255 255
-0.689653 0.077434 -0.066916 0 255 255
-0.602836 0.119448 -0.072394 0 255 255
-0.715816 0.032409 -0.081394 0 255 255
-0.711490 0.018308 -0.060394 0 255 255
-0.579869 0.121905 -0.060394 0 255 255
-0.692423 0.144793 -0.073801 0 255 255
-0.685320 -0.003102 -0.081394 0 255 255
-0.700027 0.131521 -0.055612 0 255 255
-0.570565 0.140257 -0.060394 0 255 255
-0.596800 0.030548 -0.120394 0 255 255
-0.619491 0.041304 -0.145571 0 255 255
-0.590036 0.082065 -0.066878 0 255 255
-0.563459 0.063681 -0.066394 0 255 255
-0.558149 0.101727 -0.072394 0 255 255
-0.704905 0.012941 -0.085122 0 255 255
-0.731851 0.069409 -0.069394 0 255 255
-0.707214 0.133925 -0.057394 0 255 255
-0.586056 0.103414 -0.066394 0 255 255
-0.649835 0.054621 -0.066653 0 255 255
-0.586304 0.027036 -0.110684 0 255 255
-0.706131 0.070293 -0.072394 0 255 255
-0.628388 0.147080 -0.066394 0 255 255
-0.647065 -0.012739 -0.055189 0 255 255
-0.587445 0.118173 -0.066394 0 255 255
-0.578710 0.030822 -0.106789 0 255 255
-0.698642 0.004519 -0.063394 0 255 255
-0.636454 0.141884 -0.067169 0 255 255
-0.671763 0.141045 -0.066394 0 255 255
-0.679279 0.023348 -0.118708 0 255 255
-0.683985 0.056557 -0.066171 0 255 255
-0.586791 0.036690 -0.117394 0 255 255
-0.716676 0.061167 -0.057394 0 255 255
-0.663941 0.163735 -0.061662 0 255 255
-0.727347 0.080556 -0.054394 0 255 255
-0.627327 0.027342 -0.135394 0 255 255
-0.561242 0.059776 -0.057394 0 255 255
-0.582497 0.016272 -0.096394 0 255 255
-0.553073 0.050716 -0.056285 0 255 255
-0.645622 -0.017882 -0.069394 0 255 255
-0.562614 0.031657 -0.078394 0 255 255
-0.724748 0.060705 -0.084394 0 255 255
-0.567777 0.084107 -0.099394 0 255 255
-0.667234 0.021530 -0.123394 0 255 255
-0.577334 0.110573 -0.102394 0 255 255
-0.673653 0.030955 -0.126394 0 255 255
-0.564354 0.041837 -0.093394 0 255 255
-0.693006 0.100700 -0.066394 0 255 255
-0.622414 0.079845 -0.066394 0 255 255
-0.620303 0.161789 -0.056351 0 255 255
-0.679008 -0.002051 -0.090394 0 255 255
-0.563414 0.025705 -0.057394 0 255 255
-0.599970 0.071284 -0.129394 0 255 255
-0.636363 -0.006830 -0.099394 0 255 255
-0.574500 0.010432 -0.063394 0 255 255
-0.558415 0.055666 -0.087394 0 255 255
-0.638788 0.082559 -0.066394 0 255 255
-0.594796 0.067839 -0.136220 0 255 255
-0.589211 0.131807 -0.060394 0 255 255
-0.584212 0.149712 -0.057394 0 255 255
-0.616946 0.001638 -0.105394 0 255 255
-0.582410 0.114311 -0.066958 0 255 255
-0.600256 -0.005207 -0.081394 0 255 255
-0.646576 0.149449 -0.057394 0 255 255
-0.657482 0.003400 -0.110145 0 255 255
-0.669221 0.006134 -0.108394 0 255 255
-0.669217 0.034510 -0.135394 0 255 255
-0.619002 0.118402 -0.066394 0 255 255
-0.687401 0.046347 -0.066394 0 255 255
-0.570057 0.132322 -0.056373 0 255 255
-0.579544 0.132333 -0.073698 0 255 255
-0.610968 0.028962 -0.066705 0 255 255
-0.584348 0.023218 -0.060394 0 255 255
-0.634647 0.062193 -0.066842 0 255 255
-0.685557 0.089679 -0.066394 0 255 255
-0.668872 -0.002279 -0.097519 0 255 255
-0.627898 0.158002 -0.055239 0 255 255
-0.632843 0.042608 -0.066394 0 255 255
-0.581447 0.126643 -0.055087 0 255 255
-0.639672 0.103903 -0.066394 0 255 255
-0.652625 0.103007 -0.065531 0 255 255
-0.606169 0.008375 -0.108394 0 255 255
-0.665963 0.053690 -0.066550 0 255 255
-0.629236 -0.016181 -0.072394 0 255 255
-0.715258 0.086001 -0.065529 0 255 255
-0.700103 0.065113 -0.066008 0 255 255
-0.719442 0.035680 -0.072394 0 255 255
-0.651592 -0.016812 -0.072394 0 255 255
-0.572079 0.022277 -0.054929 0 255 255
-0.599512 0.091562 -0.142400 0 255 255
-0.698034 0.014569 -0.093394 0 255 255
-0.665607 0.083115 -0.066394 0 255 255
-0.695060 0.126696 -0.063394 0 255 255
-0.681172 0.027144 -0.113126 0 255 255
-0.660349 -0.014621 -0.055077 0 255 255
-0.582512 0.063729 -0.066394 0 255 255
-0.677996 0.046092 -0.138394 0 255 255
-0.578646 0.087744 -0.067524 0 255 255
-0.586261 0.064983 -0.126222 0 255 255
-0.601416 0.085872 -0.067327 0 255 255
-0.560613 0.094364 -0.054718 0 255 255
-0.589128 0.046962 -0.067013 0 255 255
-0.599470 0.129510 -0.066560 0 255 255
-0.670862 0.114686 -0.066394 0 255 255
-0.648807 0.123873 -0.066566 0 255 255
-0.574892 0.051689 -0.110587 0 255 255
-0.576817 0.027025 -0.057684 0 255 255
-0.718016 0.039942 -0.084394 0 255 255
-0.630817 0.092547 -0.066571 0 255 255
-0.689998 0.112347 -0.066394 0 255 255
-0.616032 0.090762 -0.066394 0 255 255
-0.703195 0.074781 -0.066394 0 255 255
-0.583568 0.054593 -0.120394 0 255 255
-0.574870 0.070663 -0.066164 0 255 255
-0.578950 0.040393 -0.111394 0 255 255
-0.558467 0.033540 -0.060394 0 255 255
-0.657528 -0.015646 -0.069394 0 255 255
-0.729257 0.065378 -0.060394 0 255 255
-0.558785 0.033646 -0.071656 0 255 255
-0.701108 0.014834 -0.055520 0 255 255
-0.703932 0.034760 -0.066826 0 255 255
-0.657654 -0.002870 -0.102394 0 255 255
-0.688421 -0.003975 -0.066394 0 255 255
-0.594979 0.057839 -0.066394 0 255 255
-0.661520 0.029150 -0.129394 0 255 255
-0.558731 0.081081 -0.054852 0 255 255
-0.622219 0.146612 -0.063883 0 255 255
-0.631683 0.165596 -0.055908 0 255 255
-0.658166 0.029720 -0.135394 0 255 255
-0.589139 0.037475 -0.066059 0 255 255
-0.622240 0.127638 -0.066062 0 255 255
-0.658261 0.152345 -0.054882 0 255 255
-0.563000 0.069855 -0.060394 0 255 255
-0.667408 0.143920 -0.063394 0 255 255
-0.564282 0.057630 -0.063394 0 255 255
-0.595737 0.074481 -0.066889 0 255 255
-0.619782 -0.016292 -0.063394 0 255 255
-0.668830 0.035668 -0.066340 0 255 255
-0.625669 0.135112 -0.066394 0 255 255
-0.571960 0.126632 -0.055652 0 255 255
-0.614646 0.131424 -0.066138 0 255 255
-0.669411 -0.013342 -0.066394 0 255 255
-0.649856 0.035647 -0.067366 0 255 255
-0.615685 0.052684 -0.067396 0 255 255
-0.605149 -0.010377 -0.063394 0 255 255
-0.676851 0.060497 -0.066394 0 255 255
-0.695343 0.079338 -0.066120 0 255 255
-0.605150 0.140893 -0.063394 0 255 255
-0.669642 0.156152 -0.056641 0 255 255
-0.626079 0.087798 -0.066884 0 255 255
-0.641256 0.089712 -0.066446 0 255 255
-0.607103 0.116150 -0.066394 0 255 255
-0.629642 0.123787 -0.066394 0 255 255
-0.635609 0.049861 -0.066526 0 255 255
-0.644016 0.166558 -0.056228 0 255 255
-0.678071 0.140413 -0.057394 0 255 255
-0.638476 0.031839 -0.142313 0 255 255
-0.644044 0.128656 -0.066394 0 255 255
-0.597673 0.040331 -0.073886 0 255 255
-0.569220 0.052955 -0.090394 0 255 255
-0.572505 0.063545 -0.093394 0 255 255
-0.653556 0.119136 -0.073871 0 255 255
-0.665856 0.148558 -0.056129 0 255 255
-0.682113 0.033786 -0.119041 0 255 255
-0.558984 0.049530 -0.090394 0 255 255
-0.596758 0.052679 -0.129394 0 255 255
-0.656455 0.072653 -0.073601 0 255 255
-0.690573 0.103050 -0.073847 0 255 255
-0.601955 0.086053 -0.132394 0 255 255
-0.592913 0.054556 -0.073839 0 255 255
-0.632743 0.067883 -0.073676 0 255 255
-0.590988 0.079219 -0.073875 0 255 255
-0.569170 0.078246 -0.073710 0 255 255
-0.603266 0.127616 -0.073883 0 255 255
-0.617523 0.103916 -0.073823 0 255 255
-0.696209 0.152388 -0.056094 0 255 255
-0.659246 0.121039 -0.067014 0 255 255
-0.675418 0.082162 -0.073694 0 255 255
-0.588165 0.059293 -0.073634 0 255 255
-0.639406 0.047967 -0.073630 0 255 255
-0.621353 0.073562 -0.073749 0 255 255
-0.634679 0.033733 -0.073662 0 255 255
-0.674444 0.103980 -0.073761 0 255 255
-0.642209 0.086867 -0.073724 0 255 255
-0.643150 0.093509 -0.073625 0 255 255
-0.575779 0.105765 -0.073822 0 255 255
-0.670637 0.115360 -0.073703 0 255 255
-0.607160 0.040342 -0.073805 0 255 255
-0.580528 0.101027 -0.073734 0 255 255
-0.594721 0.134247 -0.073847 0 255 255
-0.661107 0.153296 -0.073744 0 255 255
-0.556701 0.045603 -0.072394 0 255 255
-0.609042 0.053625 -0.145727 0 255 255
-0.606154 0.090621 -0.073882 0 255 255
-0.598506 0.141841 -0.073824 0 255 255
-0.673164 0.003806 -0.072394 0 255 255
-0.637438 0.110579 -0.073795 0 255 255
-0.612904 -0.005189 -0.056377 0 255 255
-0.657331 0.136216 -0.073661 0 255 255
-0.677257 0.133392 -0.073744 0 255 255
-0.663053 0.109659 -0.073698 0 255 255
-0.627919 0.139028 -0.073838 0 255 255
-0.599556 0.053614 -0.067278 0 255 255
-0.609972 0.069754 -0.073667 0 255 255
-0.616593 0.087787 -0.073693 0 255 255
-0.598592 0.065947 -0.073875 0 255 255
-0.616550 0.125734 -0.073636 0 255 255
-0.575822 0.067818 -0.073867 0 255 255
-0.576742 0.093434 -0.073856 0 255 255
-0.700038 0.122034 -0.073872 0 255 255
-0.584282 0.137082 -0.073757 0 255 255
-0.595780 0.036534 -0.109913 0 255 255
-0.620411 0.066920 -0.073766 0 255 255
-0.681119 0.074578 -0.073761 0 255 255
-0.587159 0.109573 -0.073890 0 255 255
-0.625160 0.062182 -0.073762 0 255 255
-0.682990 0.097349 -0.073857 0 255 255
-0.691558 0.071744 -0.065924 0 255 255
-0.646059 0.037539 -0.073790 0 255 255
-0.644978 0.154227 -0.073696 0 255 255
-0.675998 0.004790 -0.063394 0 255 255
-0.591897 0.114322 -0.073708 0 255 255
-0.640347 0.054610 -0.073611 0 255 255
-0.621266 0.149456 -0.073639 0 255 255
-0.602379 0.073540 -0.073813 0 255 255
-0.628860 0.145670 -0.073848 0 255 255
-0.613759 0.077348 -0.073882 0 255 255
-0.646914 0.120077 -0.073851 0 255 255
-0.657320 0.145703 -0.073816 0 255 255
-0.645984 0.103948 -0.073782 0 255 255
-0.613780 0.058374 -0.073829 0 255 255
-0.641192 0.146633 -0.073767 0 255 255
-0.611444 0.003813 -0.063394 0 255 255
-0.637856 0.166058 -0.072394 0 255 255
-0.624186 0.084000 -0.073847 0 255 255
-0.619925 0.044612 -0.132394 0 255 255
-0.695311 0.107799 -0.073761 0 255 255
-0.640262 0.130505 -0.073693 0 255 255
-0.590977 0.088706 -0.066766 0 255 255
-0.658391 0.038503 -0.145503 0 255 255
-0.580084 0.050264 -0.102394 0 255 255
-0.572851 0.105063 -0.099394 0 255 255
-0.615440 0.006140 -0.111394 0 255 255
-0.683754 0.034335 -0.066394 0 255 255
-0.719341 0.030424 -0.063394 0 255 255
-0.652358 0.037624 -0.135394 0 255 255
-0.599332 0.016465 -0.111394 0 255 255
-0.632814 -0.017421 -0.066394 0 255 255
-0.646537 0.064476 -0.066394 0 255 255
-0.720061 0.033829 -0.055279 0 255 255
-0.614700 0.083990 -0.066703 0 255 255
-0.716816 0.029580 -0.075394 0 255 255
-0.609441 0.094884 -0.135394 0 255 255
-0.678305 0.045166 -0.066496 0 255 255
-0.679225 0.070782 -0.066202 0 255 255
-0.658038 0.039557 -0.135394 0 255 255
-0.561397 0.069318 -0.096394 0 255 255
-0.723366 0.050752 -0.078394 0 255 255
-0.708428 0.030778 -0.096394 0 255 255
-0.615997 0.032840 -0.132394 0 255 255
-0.603355 0.045396 -0.132394 0 255 255
-0.692123 0.027644 -0.102394 0 255 255
-0.580624 0.086940 -0.116150 0 255 255
-0.718967 0.065463 -0.063394 0 255 255
-0.575143 0.070754 -0.111394 0 255 255
-0.624111 0.150408 -0.055899 0 255 255
-0.700038 0.122034 -0.060699 0 255 255
-0.697269 0.054675 -0.066329 0 255 255
-0.728553 0.074632 -0.055443 0 255 255
-0.664617 0.000986 -0.066394 0 255 255
-0.647974 0.022364 -0.128258 0 255 255
-0.704376 0.023979 -0.093394 0 255 255
-0.728499 0.122066 -0.055975 0 255 255
-0.691622 0.014823 -0.100475 0 255 255
-0.580528 0.101027 -0.066103 0 255 255
-0.729980 0.070366 -0.063394 0 255 255
-0.579533 0.141820 -0.056606 0 255 255
-0.570115 0.059581 -0.066394 0 255 255
-0.628005 0.063134 -0.066819 0 255 255
-0.598133 0.040485 -0.126394 0 255 255
-0.641364 -0.005157 -0.058590 0 255 255
-0.574296 0.095779 -0.099394 0 255 255
-0.694445 0.034749 -0.066664 0 255 255
-0.705749 0.104964 -0.065764 0 255 255
-0.692156 0.032136 -0.108394 0 255 255
-0.655514 0.066011 -0.066868 0 255 255
-0.712950 0.102353 -0.057394 0 255 255
-0.686852 0.038535 -0.070490 0 255 255
-0.703846 0.110654 -0.065709 0 255 255
-0.661852 0.018706 -0.117394 0 255 255
-0.703932 0.034760 -0.105990 0 255 255
-0.564367 0.130419 -0.061570 0 255 255
-0.624251 0.027079 -0.066170 0 255 255
-0.665022 0.047048 -0.067120 0 255 255
-0.643258 -0.001360 -0.106953 0 255 255
-0.641321 0.032791 -0.073685 0 255 255
-0.570121 0.075401 -0.101594 0 255 255
-0.695387 0.041390 -0.070264 0 255 255
-0.665076 -0.000386 -0.101435 0 255 255
-0.567699 0.073183 -0.090394 0 255 255
-0.622151 -0.005258 -0.099394 0 255 255
-0.680663 0.038119 -0.126394 0 255 255
-0.587931 -0.000891 -0.063394 0 255 255
-0.627632 0.007519 -0.102394 0 255 255
-0.575146 0.111881 -0.090394 0 255 255
-0.703219 0.046346 -0.111394 0 255 255
-0.703557 0.035882 -0.096394 0 255 255
-0.679139 0.146676 -0.073693 0 255 255
-0.598549 0.103894 -0.066862 0 255 255
-0.686873 0.019561 -0.110270 0 255 255
-0.635620 0.040374 -0.133997 0 255 255
-0.552549 0.090103 -0.069394 0 255 255
-0.629000 0.022342 -0.070100 0 255 255
-0.711482 0.068920 -0.066682 0 255 255
-0.650406 -0.003814 -0.063394 0 255 255
-0.596533 0.074748 -0.132394 0 255 255
-0.670583 0.162794 -0.061767 0 255 255
-0.672627 0.033776 -0.070625 0 255 255
-0.677375 0.029037 -0.066714 0 255 255
-0.656088 -0.001891 -0.063394 0 255 255
-0.634070 0.011384 -0.108394 0 255 255
-0.703542 0.031466 -0.087394 0 255 255
-0.575043 0.107967 -0.066394 0 255 255
-0.568614 0.098815 -0.087394 0 255 255
-0.603750 0.078897 -0.141394 0 255 255
-0.613252 0.017072 -0.108394 0 255 255
-0.569639 0.043604 -0.072394 0 255 255
-0.596197 0.011366 -0.072394 0 255 255
-0.709220 0.033366 -0.069394 0 255 255
-0.721857 0.123007 -0.061876 0 255 255
-0.620433 0.047946 -0.145878 0 255 255
-0.675064 -0.006534 -0.084394 0 255 255
-0.703401 0.055256 -0.072394 0 255 255
-0.611410 0.032273 -0.120394 0 255 255
-0.573173 0.044787 -0.105394 0 255 255
-0.592367 0.150735 -0.063394 0 255 255
-0.720494 0.070351 -0.093394 0 255 255
-0.630420 0.022816 -0.120394 0 255 255
-0.641776 0.017126 -0.117394 0 255 255
-0.593866 0.051711 -0.118941 0 255 255
-0.647888 0.098258 -0.066538 0 255 255
-0.630480 -0.000988 -0.078394 0 255 255
-0.601032 0.011382 -0.081394 0 255 255
-0.672637 0.024288 -0.115973 0 255 255
-0.686426 0.016248 -0.084394 0 255 255
-0.562528 0.079187 -0.079949 0 255 255
-0.725271 0.046620 -0.060394 0 255 255
-0.606672 0.003983 -0.057394 0 255 255
-0.646592 -0.001873 -0.075394 0 255 255
-0.575776 0.017187 -0.087394 0 255 255
-0.614764 0.027068 -0.070407 0 255 255
-0.658883 0.046488 -0.141394 0 255 255
-0.621450 -0.011820 -0.055101 0 255 255
-0.609053 0.044139 -0.131517 0 255 255
-0.699215 0.011036 -0.084870 0 255 255
-0.682771 0.012912 -0.060394 0 255 255
-0.644606 0.027563 -0.126394 0 255 255
-0.714683 0.130098 -0.063394 0 255 255
-0.626656 0.038802 -0.132394 0 255 255
-0.700494 0.134840 -0.072394 0 255 255
-0.575324 0.054997 -0.096394 0 255 255
-0.702991 0.028118 -0.076894 0 255 255
-0.583637 0.019817 -0.102394 0 255 255
-0.608988 0.101059 -0.066096 0 255 255
-0.724724 0.104986 -0.070883 0 255 255
-0.580070 0.116691 -0.072394 0 255 255
-0.637108 -0.001891 -0.066394 0 255 255
-0.582520 0.095073 -0.117394 0 255 255
-0.568850 0.103447 -0.093394 0 255 255
-0.706166 0.136738 -0.069394 0 255 255
-0.596678 0.081123 -0.137051 0 255 255
-0.637032 -0.001665 -0.105394 0 255 255
-0.575822 0.067818 -0.103922 0 255 255
-0.630347 0.127187 -0.072394 0 255 255
-0.580074 0.045657 -0.114394 0 255 255
-0.702368 0.129141 -0.072394 0 255 255
-0.623632 0.010019 -0.117394 0 255 255
-0.682628 0.018140 -0.096394 0 255 255
-0.593442 0.024612 -0.096394 0 255 255
-0.652227 0.014296 -0.111394 0 255 255
-0.597136 0.046479 -0.117394 0 255 255
-0.711396 0.144815 -0.055983 0 255 255
-0.683288 0.072140 -0.141394 0 255 255
-0.586745 0.039838 -0.102394 0 255 255
-0.570572 0.092964 -0.096394 0 255 255
-0.651407 0.017185 -0.117394 0 255 255
-0.576179 0.118554 -0.084394 0 255 255
-0.714931 0.063747 -0.099394 0 255 255
-0.577727 0.062128 -0.103943 0 255 255
-0.600497 0.060257 -0.142302 0 255 255
-0.580997 0.080714 -0.072394 0 255 255
-0.688336 0.015187 -0.060394 0 255 255
-0.578105 0.036947 -0.087394 0 255 255
-0.625532 0.165070 -0.072394 0 255 255
-0.603864 0.040737 -0.123394 0 255 255
-0.576795 0.045999 -0.091956 0 255 255
-0.586700 0.106255 -0.117394 0 255 255
-0.622229 0.137125 -0.073682 0 255 255
-0.699065 0.143852 -0.064859 0 255 255
-0.578160 0.027475 -0.102394 0 255 255
-0.589566 0.064558 -0.120394 0 255 255
-0.714463 0.095226 -0.057394 0 255 255
-0.731860 0.093111 -0.057394 0 255 255
-0.569611 0.086381 -0.093394 0 255 255
-0.596592 0.157018 -0.061698 0 255 255
-0.617099 0.034176 -0.126394 0 255 255
-0.571116 0.034609 -0.098423 0 255 255
-0.632518 0.026682 -0.072394 0 255 255
-0.626725 -0.018132 -0.057394 0 255 255
-0.576785 0.055486 -0.073850 0 255 255
-0.595780 0.036534 -0.070376 0 255 255
-0.608590 0.064432 -0.144394 0 255 255
-0.620834 0.022773 -0.117394 0 255 255
-0.570605 0.102318 -0.072394 0 255 255
-0.721252 0.129132 -0.060394 0 255 255
-0.606497 0.074918 -0.138394 0 255 255
-0.555853 0.108589 -0.061915 0 255 255
-0.608090 0.056470 -0.134114 0 255 255
-0.613277 0.107153 -0.072394 0 255 255
-0.589961 0.148472 -0.059021 0 255 255
-0.704548 0.014010 -0.078394 0 255 255
-0.604175 0.162719 -0.059068 0 255 255
-0.717183 0.061338 -0.094897 0 255 255
-0.573349 0.070154 -0.099394 0 255 255
-0.582793 0.079641 -0.114394 0 255 255
-0.579070 0.110030 -0.096394 0 255 255
-0.681995 0.138141 -0.060445 0 255 255
-0.628038 0.034674 -0.066724 0 255 255
-0.568940 0.018063 -0.069394 0 255 255
-0.611941 0.007144 -0.059075 0 255 255
-0.592423 0.013267 -0.063394 0 255 255
-0.573429 0.084428 -0.102394 0 255 255
-0.695365 0.060365 -0.066998 0 255 255
-0.588617 0.076852 -0.120394 0 255 255
-0.679613 0.003439 -0.099394 0 255 255
-0.582075 0.039674 -0.099394 0 255 255
-0.644166 0.033743 -0.130999 0 255 255
-0.583778 0.029354 -0.060394 0 255 255
-0.586516 0.096704 -0.072394 0 255 255
-0.633917 0.149468 -0.060394 0 255 255
-0.653502 0.166569 -0.061839 0 255 255
-0.715775 0.056090 -0.093394 0 255 255
-0.661118 0.143809 -0.065077 0 255 255
-0.727568 0.105937 -0.056089 0 255 255
-0.594721 0.134247 -0.059036 0 255 255
-0.635204 0.032162 -0.129394 0 255 255
-0.667759 0.142868 -0.070355 0 255 255
-0.670734 0.029978 -0.121907 0 255 255
-0.597619 0.087765 -0.145803 0 255 255
-0.642742 -0.018730 -0.057394 0 255 255
-0.567851 0.120004 -0.075394 0 255 255
-0.684351 -0.006591 -0.063394 0 255 255
-0.701554 0.041867 -0.102394 0 255 255
-0.590478 0.142318 -0.054394 0 255 255
-0.734243 0.076536 -0.058868 0 255 255
-0.712360 0.132483 -0.059131 0 255 255
-0.583454 0.003938 -0.072394 0 255 255
-0.664092 0.030919 -0.070342 0 255 255
-0.659926 -0.003902 -0.057394 0 255 255
-0.600609 0.012649 -0.060394 0 255 255
-0.702970 0.047091 -0.070834 0 255 255
-0.700349 0.020906 -0.096394 0 255 255
-0.642615 0.109148 -0.066394 0 255 255
-0.651212 0.003229 -0.111394 0 255 255
-0.654485 0.021811 -0.126394 0 255 255
-0.625898 0.027630 -0.072394 0 255 255
-0.659214 0.149499 -0.070417 0 255 255
-0.588659 0.086180 -0.123394 0 255 255
-0.564581 0.076711 -0.087394 0 255 255
-0.697269 0.054675 -0.073753 0 255 255
-0.678295 0.054653 -0.145520 0 255 255
-0.672605 0.052749 -0.145633 0 255 255
-0.567265 0.083936 -0.066400 0 255 255
-0.733312 0.060408 -0.061809 0 255 255
-0.682876 0.062513 -0.141394 0 255 255
-0.570415 0.110298 -0.093394 0 255 255
-0.600020 0.056933 -0.126394 0 255 255
-0.598044 0.027801 -0.069394 0 255 255
-0.561707 0.094730 -0.075394 0 255 255
-0.723793 0.088857 -0.056265 0 255 255
-0.680188 0.058449 -0.137632 0 255 255
-0.606994 0.033959 -0.126394 0 255 255
-0.590329 0.005554 -0.090394 0 255 255
-0.668820 0.045155 -0.134322 0 255 255
-0.597725 0.065657 -0.141394 0 255 255
-0.709203 0.042851 -0.093394 0 255 255
-0.566436 0.112129 -0.084394 0 255 255
-0.705706 0.142911 -0.061755 0 255 255
-0.722527 0.059962 -0.075394 0 255 255
-0.620486 0.000512 -0.061683 0 255 255
-0.717732 0.050245 -0.081394 0 255 255
-0.608526 0.069271 -0.141394 0 255 255
-0.591721 0.010847 -0.099394 0 255 255
-0.565509 0.092838 -0.087394 0 255 255
-0.596678 0.081123 -0.145370 0 255 255
-0.612850 0.042245 -0.142407 0 255 255
-0.688723 0.061305 -0.067111 0 255 255
-0.727753 0.080692 -0.066394 0 255 255
-0.584629 0.054947 -0.114394 0 255 255
-0.657104 0.013984 -0.120394 0 255 255
-0.677705 0.122599 -0.066394 0 255 255
-0.601492 0.019464 -0.116960 0 255 255
-0.693515 0.018620 -0.103673 0 255 255
-0.660906 -0.008108 -0.090394 0 255 255
-0.629011 0.016018 -0.123394 0 255 255
-0.585605 0.104763 -0.111394 0 255 255
-0.662037 0.169425 -0.061680 0 255 255
-0.689685 0.048974 -0.070391 0 255 255
-0.729472 0.100248 -0.058371 0 255 255
-0.706141 0.113250 -0.060394 0 255 255
-0.617135 0.019985 -0.066394 0 255 255
-0.637083 0.017095 -0.066394 0 255 255
-0.565426 0.032704 -0.088217 0 255 255
-0.648233 0.144500 -0.066394 0 255 255
-0.640785 0.138395 -0.066394 0 255 255
-0.588976 0.000140 -0.072394 0 255 255
-0.686819 0.066995 -0.066667 0 255 255
-0.566346 0.058320 -0.104741 0 255 255
-0.623861 -0.009573 -0.090394 0 255 255
-0.578225 0.036987 -0.081394 0 255 255
-0.580126 0.031296 -0.075394 0 255 255
-0.638498 0.012866 -0.120756 0 255 255
-0.647996 0.003389 -0.064871 0 255 255
-0.718187 0.112289 -0.054394 0 255 255
-0.567763 0.058795 -0.075394 0 255 255
-0.588175 0.049807 -0.113089 0 255 255
-0.655127 0.000987 -0.078394 0 255 255
-0.632343 0.002897 -0.087394 0 255 255
-0.685457 0.014339 -0.078394 0 255 255
-0.662739 0.134862 -0.066394 0 255 255
-0.639037 0.001797 -0.093394 0 255 255
-0.715301 0.048053 -0.086116 0 255 255
-0.611326 0.160255 -0.066394 0 255 255
-0.552296 0.072600 -0.075394 0 255 255
-0.693060 0.019978 -0.084394 0 255 255
-0.719579 0.063633 -0.090394 0 255 255
-0.577998 0.093854 -0.108394 0 255 255
-0.570540 0.130878 -0.066394 0 255 255
-0.679776 0.012411 -0.084394 0 255 255
-0.585758 0.090123 -0.114394 0 255 255
-0.707622 0.127735 -0.070680 0 255 255
-0.628565 0.004732 -0.096394 0 255 255
-0.605650 -0.011872 -0.057394 0 255 255
-0.566822 0.066353 -0.105394 0 255 255
-0.618161 0.016918 -0.120394 0 255 255
-0.620140 0.029911 -0.126394 0 255 255
-0.620023 0.001898 -0.078394 0 255 255
-0.655503 0.075497 -0.067255 0 255 255
-0.608190 0.097629 -0.141394 0 255 255
-0.655120 0.001004 -0.072394 0 255 255
-0.566356 0.048833 -0.057250 0 255 255
-0.571531 0.037911 -0.063394 0 255 255
-0.662188 0.036609 -0.131322 0 255 255
-0.595651 0.150376 -0.070816 0 255 255
-0.651156 0.164128 -0.066394 0 255 255
-0.646113 -0.009894 -0.091695 0 255 255
-0.627628 -0.001923 -0.069394 0 255 255
-0.600031 0.009486 -0.069394 0 255 255
-0.603806 0.007585 -0.078394 0 255 255
-0.552100 0.072535 -0.065302 0 255 255
-0.573326 0.051165 -0.093394 0 255 255
-0.606219 0.033700 -0.067583 0 255 255
-0.653976 -0.005030 -0.099394 0 255 255
-0.669967 0.088997 -0.066394 0 255 255
-0.623271 -0.014374 -0.078394 0 255 255
-0.643753 0.006614 -0.102394 0 255 255
-0.647356 0.033664 -0.144394 0 255 255
-0.590090 0.034630 -0.100988 0 255 255
-0.709658 0.020858 -0.078394 0 255 255
-0.617023 0.024661 -0.120394 0 255 255
-0.670745 0.020491 -0.112962 0 255 255
-0.665845 0.158045 -0.070822 0 255 255
-0.566784 0.123194 -0.066394 0 255 255
-0.580007 0.031257 -0.081394 0 255 255
-0.638655 0.025572 -0.132394 0 255 255
-0.563884 0.089132 -0.075394 0 255 255
-0.582464 0.066877 -0.113018 0 255 255
-0.721308 0.110170 -0.069394 0 255 255
-0.659460 0.086312 -0.066394 0 255 255
-0.600475 0.079230 -0.066705 0 255 255
-0.610990 0.009988 -0.088910 0 255 255
-0.718417 0.118693 -0.063394 0 255 255
-0.707293 0.034170 -0.084394 0 255 255
-0.618679 0.069503 -0.066394 0 255 255
-0.594615 0.077834 -0.141394 0 255 255
-0.600454 0.098204 -0.065870 0 255 255
-0.588219 0.011860 -0.056094 0 255 255
-0.564542 0.102006 -0.087394 0 255 255
-0.634414 0.025069 -0.141394 0 255 255
-0.560591 0.113337 -0.068974 0 255 255
-0.708585 0.061624 -0.111394 0 255 255
-0.652272 0.028427 -0.126394 0 255 255
-0.644509 0.165085 -0.069394 0 255 255
-0.568626 0.084391 -0.087394 0 255 255
-0.715585 0.075568 -0.069394 0 255 255
-0.709938 0.045175 -0.060394 0 255 255
-0.717762 0.055205 -0.084394 0 255 255
-0.567277 0.074449 -0.067512 0 255 255
-0.681022 0.159960 -0.059013 0 255 255
-0.726149 0.110181 -0.060394 0 255 255
-0.714877 0.039866 -0.090394 0 255 255
-0.652182 0.028696 -0.072394 0 255 255
-0.655968 0.026835 -0.066394 0 255 255
-0.701586 0.027648 -0.084394 0 255 255
-0.618604 -0.012772 -0.076324 0 255 255
-0.582388 0.101650 -0.114394 0 255 255
-0.694957 0.146676 -0.057394 0 255 255
-0.726236 0.086510 -0.072394 0 255 255
-0.552111 0.063048 -0.073571 0 255 255
-0.612882 0.013785 -0.115398 0 255 255
-0.557790 0.074438 -0.084783 0 255 255
-0.571620 0.118194 -0.087394 0 255 255
-0.604283 0.067850 -0.131115 0 255 255
-0.696655 0.028145 -0.069394 0 255 255
-0.711493 0.059434 -0.100923 0 255 255
-0.562209 0.075917 -0.063394 0 255 255
-0.680221 0.029989 -0.070864 0 255 255
-0.593911 0.064380 -0.129394 0 255 255
-0.623943 -0.000363 -0.057394 0 255 255
-0.559386 0.116940 -0.057394 0 255 255
-0.724604 0.070148 -0.084394 0 255 255
-0.686884 0.010074 -0.100464 0 255 255
-0.712403 0.094536 -0.067072 0 255 255
-0.566749 0.104391 -0.075394 0 255 255
-0.705825 0.038557 -0.070386 0 255 255
-0.665844 0.009362 -0.114394 0 255 255
-0.603395 0.013774 -0.112915 0 255 255
-0.567996 0.053387 -0.066394 0 255 255
-0.602854 0.086353 -0.141394 0 255 255
-0.687814 0.026203 -0.114978 0 255 255
-0.656476 0.053679 -0.066677 0 255 255
-0.701108 0.014834 -0.087924 0 255 255
-0.592343 0.018441 -0.108394 0 255 255
-0.650401 0.034020 -0.132394 0 255 255
-0.587169 0.100086 -0.121467 0 255 255
-0.589074 0.094396 -0.119755 0 255 255
-0.629973 0.000522 -0.107562 0 255 255
-0.656794 0.033822 -0.144394 0 255 255
-0.658996 0.008329 -0.114394 0 255 255
-0.583771 0.060987 -0.123394 0 255 255
-0.721326 0.037416 -0.066394 0 255 255
-0.714772 0.057367 -0.060394 0 255 255
-0.667196 0.040550 -0.144394 0 255 255
-0.654454 0.163724 -0.056558 0 255 255
-0.658900 0.131527 -0.066394 0 255 255
-0.661356 -0.014284 -0.072394 0 255 255
-0.672476 0.166590 -0.059028 0 255 255
-0.572647 0.086759 -0.108394 0 255 255
-0.608923 0.157981 -0.056311 0 255 255
-0.699248 0.007885 -0.075394 0 255 255
-0.634494 0.005920 -0.114394 0 255 255
-0.716253 0.045209 -0.067323 0 255 255
-0.645107 0.040385 -0.136920 0 255 255
-0.598971 -0.001367 -0.087394 0 255 255
-0.609755 0.028556 -0.126394 0 255 255
-0.559455 0.081323 -0.090394 0 255 255
-0.683087 0.011968 -0.104521 0 255 255
-0.625171 0.052695 -0.066983 0 255 255
-0.710713 0.112952 -0.072394 0 255 255
-0.723847 0.041423 -0.061400 0 255 255
-0.592494 0.074716 -0.126394 0 255 255
-0.600497 0.060257 -0.131275 0 255 255
-0.619805 0.040367 -0.066394 0 255 255
-0.692689 0.030541 -0.114394 0 255 255
-0.574795 0.137071 -0.058990 0 255 255
-0.641335 0.004385 -0.114394 0 255 255
-0.653253 0.148403 -0.063394 0 255 255
-0.692902 0.001543 -0.069394 0 255 255
-0.613940 -0.008285 -0.087394 0 255 255
-0.583384 0.092493 -0.067022 0 255 255
-0.727600 0.077477 -0.070539 0 255 255
-0.587234 0.043165 -0.120111 0 255 255
-0.712730 0.028213 -0.084394 0 255 255
-0.585723 0.085499 -0.117394 0 255 255
-0.699172 0.048985 -0.118759 0 255 255
-0.608435 0.040768 -0.126394 0 255 255
-0.661171 0.096375 -0.065836 0 255 255
-0.681674 0.025645 -0.108394 0 255 255
-0.719623 0.054046 -0.078394 0 255 255
-0.697708 0.062817 -0.072394 0 255 255
-0.720643 0.024534 -0.060394 0 255 255
-0.671153 0.038181 -0.072394 0 255 255
-0.707751 0.013893 -0.061266 0 255 255
-0.638487 0.022353 -0.070034 0 255 255
-0.615915 -0.014190 -0.072394 0 255 255
-0.582734 0.075527 -0.120394 0 255 255
-0.654371 0.005523 -0.060394 0 255 255
-0.577174 0.007052 -0.057394 0 255 255
-0.585341 0.039369 -0.070222 0 255 255
-0.702674 0.005867 -0.069394 0 255 255
-0.630041 -0.009134 -0.093394 0 255 255
-0.566303 0.096267 -0.097165 0 255 255
-0.624154 0.112461 -0.065752 0 255 255
-0.678338 0.016706 -0.113953 0 255 255
-0.569180 0.068759 -0.073849 0 255 255
-0.595819 0.008076 -0.099394 0 255 255
-0.594744 0.045678 -0.126394 0 255 255
-0.693364 0.151436 -0.061568 0 255 255
-0.615335 0.063184 -0.066394 0 255 255
-0.616138 -0.014856 -0.060394 0 255 255
-0.667642 0.001399 -0.057394 0 255 255
-0.570971 0.075685 -0.108394 0 255 255
-0.554966 0.054512 -0.076865 0 255 255
-0.732339 0.082226 -0.058261 0 255 255
-0.669368 0.015150 -0.108394 0 255 255
-0.653543 0.027390 -0.141394 0 255 255
-0.686502 0.035254 -0.117394 0 255 255
-0.636253 -0.018247 -0.060394 0 255 255
-0.638727 -0.016183 -0.075394 0 255 255
-0.572384 0.016052 -0.075394 0 255 255
-0.581426 0.145617 -0.061701 0 255 255
-0.616520 0.033983 -0.066394 0 255 255
-0.641170 0.165606 -0.061740 0 255 255
-0.645306 0.020880 -0.069394 0 255 255
-0.714056 0.023412 -0.069394 0 255 255
-0.705597 0.079606 -0.066394 0 255 255
-0.677589 0.028399 -0.123394 0 255 255
-0.674336 0.141905 -0.060394 0 255 255
-0.581977 0.035079 -0.093394 0 255 255
-0.714274 0.117307 -0.070746 0 255 255
-0.591031 0.041272 -0.113006 0 255 255
-0.600920 0.006619 -0.063394 0 255 255
-0.720573 0.041753 -0.078394 0 255 255
-0.550895 0.081622 -0.069394 0 255 255
-0.608112 0.037496 -0.131578 0 255 255
-0.646239 0.018093 -0.126394 0 255 255
-0.576887 0.036272 -0.105394 0 255 255
-0.684815 0.006803 -0.096394 0 255 255
-0.553030 0.088663 -0.056332 0 255 255
-0.622369 0.013796 -0.120610 0 255 255
-0.554025 0.047871 -0.062889 0 255 255
-0.617846 0.140772 -0.066394 0 255 255
-0.576785 0.055486 -0.113911 0 255 255
-0.615164 0.001895 -0.072394 0 255 255
-0.625443 0.131873 -0.072394 0 255 255
-0.569191 0.059272 -0.089000 0 255 255
-0.575321 0.126043 -0.072394 0 255 255
-0.606032 0.068436 -0.066394 0 255 255
-0.659354 0.026170 -0.070007 0 255 255
-0.597900 0.056225 -0.141394 0 255 255
-0.628458 0.118506 -0.072394 0 255 255
-0.723578 0.098956 -0.054394 0 255 255
-0.597862 -0.007505 -0.069394 0 255 255
-0.567865 0.122098 -0.054394 0 255 255
-0.599838 0.050546 -0.141394 0 255 255
-0.576150 0.115380 -0.066394 0 255 255
-0.668397 0.008598 -0.063394 0 255 255
-0.712457 0.047102 -0.091965 0 255 255
-0.577167 0.030306 -0.063394 0 255 255
-0.657066 0.033006 -0.066394 0 255 255
-0.594088 0.035968 -0.114394 0 255 255
-0.574396 0.133774 -0.066394 0 255 255
-0.594069 0.083414 -0.126394 0 255 255
-0.618762 0.024576 -0.069394 0 255 255
-0.562795 0.123566 -0.057394 0 255 255
-0.713365 0.082205 -0.073866 0 255 255
-0.610224 -0.012412 -0.066394 0 255 255
-0.655843 0.112299 -0.066394 0 255 255
-0.672637 0.024288 -0.065792 0 255 255
-0.609096 0.006192 -0.079947 0 255 255
-0.712002 0.039006 -0.072394 0 255 255
-0.648948 0.000545 -0.108123 0 255 255
-0.556161 0.088762 -0.078394 0 255 255
-0.674775 0.034493 -0.066394 0 255 255
-0.698730 0.021942 -0.066394 0 255 255
-0.645331 0.049170 -0.066394 0 255 255
-0.612882 0.013785 -0.103942 0 255 255
-0.648948 0.000545 -0.085911 0 255 255
-0.612497 0.121214 -0.066394 0 255 255
-0.666969 0.003411 -0.076917 0 255 255
-0.641181 0.156119 -0.070548 0 255 255
-0.566832 0.066324 -0.084394 0 255 255
-0.661268 0.010993 -0.103929 0 255 255
-0.600971 0.025617 -0.105394 0 255 255
-0.604228 0.115285 -0.070481 0 255 255
-0.611299 0.160338 -0.072394 0 255 255
-0.725011 0.032322 -0.057394 0 255 255
-0.632140 0.107503 -0.066394 0 255 255
-0.592492 0.017996 -0.081394 0 255 255
-0.599133 0.017057 -0.093394 0 255 255
-0.672317 0.119793 -0.066394 0 255 255
-0.657098 0.101339 -0.066394 0 255 255
-0.560745 0.040629 -0.081394 0 255 255
-0.581164 0.070764 -0.120394 0 255 255
-0.651324 0.002895 -0.090394 0 255 255
-0.616636 0.049840 -0.136931 0 255 255
-0.671686 0.027134 -0.070488 0 255 255
-0.679778 0.007697 -0.063394 0 255 255
-0.633376 0.096565 -0.066394 0 255 255
-0.662711 0.001986 -0.072394 0 255 255
-0.638380 0.117220 -0.066616 0 255 255
-0.705857 0.010096 -0.076023 0 255 255
-0.716871 0.051743 -0.057394 0 255 255
-0.682456 0.155671 -0.069394 0 255 255
-0.688032 0.025550 -0.066394 0 255 255
-0.714916 0.047925 -0.063394 0 255 255
-0.640391 0.149024 -0.063394 0 255 255
-0.606478 0.004560 -0.105394 0 255 255
-0.588067 0.144675 -0.070756 0 255 255
