ply
format ascii 1.0
element vertex 1299
property float x
property float y
property float z
property uchar red
property uchar green
property uchar blue
end_header
-1.030335 0.372207 -0.116148 0 255 0
-1.058684 0.356145 -0.194148 0 255 0
-1.116944 0.322555 -0.194148 0 255 0
-1.086701 0.411006 0.042852 0 255 0
-1.170813 0.326317 -0.179148 0 255 0
-1.165740 0.378668 0.099852 0 255 0
-1.053516 0.346761 -0.146148 0 255 0
-1.058405 0.342571 -0.140148 0 255 0
-1.086002 0.312946 -0.110148 0 255 0
-1.152498 0.373199 0.045852 0 255 0
-1.216389 0.362651 -0.155148 0 255 0
-1.218476 0.355290 -0.113148 0 255 0
-1.207540 0.339488 -0.107148 0 255 0
-1.156476 0.316305 -0.164148 0 255 0
-1.140949 0.366332 0.045852 0 255 0
-1.116943 0.322564 -0.074148 0 255 0
-1.129399 0.359483 0.009852 0 255 0
-1.195541 0.386766 -0.242148 0 255 0
-1.077749 0.393566 0.021852 0 255 0
-1.109009 0.307009 -0.119148 0 255 0
-1.046768 0.358319 -0.143148 0 255 0
-1.136163 0.305760 -0.137148 0 255 0
-1.236040 0.425686 -0.099633 0 255 0
-1.098988 0.321297 -0.179148 0 255 0
-1.142620 0.342443 -0.047148 0 255 0
-1.135173 0.362911 0.087852 0 255 0
-1.064712 0.380626 -0.245148 0 255 0
-1.071331 0.405147 -0.005148 0 255 0
-1.177442 0.403545 0.117077 0 255 0
-1.064135 0.335474 -0.191148 0 255 0
-1.021159 0.402152 -0.125148 0 255 0
-1.233175 0.423647 -0.086148 0 255 0
-1.166978 0.295139 -0.119148 0 255 0
-1.074581 0.402367 0.108852 0 255 0
-1.199083 0.320853 -0.155148 0 255 0
-1.242465 0.393055 -0.101148 0 255 0
-1.068226 0.386885 -0.248148 0 255 0
-1.156430 0.359973 0.117837 0 255 0
-1.154894 0.338938 -0.017148 0 255 0
-1.225543 0.412923 -0.077148 0 255 0
-1.184497 0.345670 -0.044148 0 255 0
-1.025898 0.365882 -0.110148 0 255 0
-1.087871 0.394274 0.119389 0 255 0
-1.074961 0.406864 -0.017148 0 255 0
-1.074087 0.333343 -0.209148 0 255 0
-1.193678 0.410695 -0.032148 0 255 0
-1.086719 0.367742 0.021852 0 255 0
-1.058509 0.341096 -0.070639 0 255 0
-1.029694 0.360133 -0.089148 0 255 0
-1.050859 0.379656 -0.203148 0 255 0
-1.227066 0.391978 -0.173148 0 255 0
-1.188095 0.380231 -0.260651 0 255 0
-1.087282 0.343108 -0.242148 0 255 0
-1.219406 0.400464 -0.203148 0 255 0
-1.233749 0.386431 -0.152148 0 255 0
-1.042207 0.402191 -0.200148 0 255 0
-1.036163 0.417724 -0.083148 0 255 0
-1.047267 0.329822 -0.131148 0 255 0
-1.057105 0.318164 -0.122148 0 255 0
-1.065011 0.356588 -0.050148 0 255 0
-1.072698 0.396220 0.001222 0 255 0
-1.197887 0.335806 -0.191148 0 255 0
-1.056973 0.320056 -0.131148 0 255 0
-1.052167 0.388770 -0.213881 0 255 0
-1.183424 0.409978 0.021852 0 255 0
-1.191581 0.398519 -0.008148 0 255 0
-1.183742 0.410000 0.099852 0 255 0
-1.188083 0.356172 -0.239148 0 255 0
-1.054825 0.410007 -0.056148 0 255 0
-1.196320 0.416894 -0.035148 0 255 0
-1.201948 0.354134 -0.057895 0 255 0
-1.218440 0.376338 -0.177690 0 255 0
-1.077457 0.371160 -0.263148 0 255 0
-1.210845 0.411895 -0.056148 0 255 0
-1.052076 0.412823 -0.221148 0 255 0
-1.103126 0.305121 -0.079172 0 255 0
-1.041091 0.332151 -0.101148 0 255 0
-1.202055 0.352614 -0.179148 0 255 0
-1.192628 0.315393 -0.158148 0 255 0
-1.203540 0.417398 -0.042227 0 255 0
-1.181544 0.301878 -0.092148 0 255 0
-1.026424 0.386970 -0.101148 0 255 0
-1.039898 0.392200 -0.176148 0 255 0
-1.088817 0.337730 -0.236148 0 255 0
-1.080141 0.332781 -0.215148 0 255 0
-1.201970 0.439839 -0.056148 0 255 0
-1.202938 0.408335 -0.050148 0 255 0
-1.185317 0.395073 0.111852 0 255 0
-1.174511 0.359445 -0.245148 0 255 0
-1.033417 0.405503 -0.164148 0 255 0
-1.039360 0.399903 -0.177941 0 255 0
-1.030795 0.411334 -0.131148 0 255 0
-1.094211 0.346600 -0.016738 0 255 0
-1.046473 0.424460 -0.065148 0 255 0
-1.077040 0.312319 -0.161148 0 255 0
-1.225890 0.355808 -0.083004 0 255 0
-1.071284 0.399129 -0.005148 0 255 0
-1.020872 0.398611 -0.104148 0 255 0
-1.026489 0.368930 -0.133141 0 255 0
-1.186566 0.359073 -0.225713 0 255 0
-1.205028 0.357356 -0.212148 0 255 0
-1.231430 0.405596 -0.143148 0 255 0
-1.165480 0.359566 0.087852 0 255 0
-1.036221 0.444794 -0.085250 0 255 0
-1.227001 0.364907 -0.110148 0 255 0
-1.069303 0.368917 -0.236148 0 255 0
-1.209733 0.414824 -0.219610 0 255 0
-1.166083 0.307951 -0.179148 0 255 0
-1.044079 0.340088 -0.086148 0 255 0
-1.088289 0.388289 0.118529 0 255 0
-1.145958 0.305108 -0.074148 0 255 0
-1.037353 0.428600 -0.080148 0 255 0
-1.234549 0.398516 -0.134148 0 255 0
-1.199228 0.393038 -0.234756 0 255 0
-1.079699 0.315512 -0.176148 0 255 0
-1.153461 0.316417 -0.212148 0 255 0
-1.190232 0.306663 -0.092148 0 255 0
-1.060700 0.356286 -0.218148 0 255 0
-1.228527 0.404109 -0.175766 0 255 0
-1.215237 0.379122 -0.189704 0 255 0
-1.170075 0.336868 -0.038138 0 255 0
-1.041284 0.424097 -0.182148 0 255 0
-1.205825 0.393500 -0.233148 0 255 0
-1.161007 0.337535 -0.224148 0 255 0
-1.229040 0.419182 -0.149148 0 255 0
-1.143240 0.333576 -0.023148 0 255 0
-1.229574 0.389146 -0.096621 0 255 0
-1.070928 0.421524 -0.017148 0 255 0
-1.048288 0.406543 -0.215148 0 255 0
-1.190041 0.395404 -0.260778 0 255 0
-1.028582 0.396143 -0.128148 0 255 0
-1.224107 0.373727 -0.173148 0 255 0
-1.233348 0.421175 -0.143148 0 255 0
-1.166979 0.357703 -0.269148 0 255 0
-1.171122 0.321905 -0.159662 0 255 0
-1.211706 0.343609 -0.176148 0 255 0
-1.031795 0.411404 -0.167148 0 255 0
-1.159988 0.309097 -0.188865 0 255 0
-1.079048 0.405686 0.009852 0 255 0
-1.197972 0.410995 -0.042513 0 255 0
-1.040825 0.378955 -0.084503 0 255 0
-1.215433 0.419342 -0.203148 0 255 0
-1.078838 0.366576 -0.245148 0 255 0
-1.163448 0.369486 -0.269148 0 255 0
-1.131329 0.331878 -0.248148 0 255 0
-1.178814 0.383919 0.051852 0 255 0
-1.064273 0.407661 -0.239148 0 255 0
-1.041243 0.372969 -0.072734 0 255 0
-1.171440 0.317338 -0.146148 0 255 0
-1.182653 0.304667 -0.134148 0 255 0
-1.227891 0.383014 -0.173148 0 255 0
-1.227684 0.395028 -0.149148 0 255 0
-1.180016 0.409740 0.011426 0 255 0
-1.166840 0.383136 0.072852 0 255 0
-1.199786 0.323909 -0.161148 0 255 0
-1.117782 0.310579 -0.158148 0 255 0
-1.056214 0.392060 -0.056148 0 255 0
-1.175324 0.328213 -0.176148 0 255 0
-1.189140 0.365268 -0.228716 0 255 0
-1.147296 0.318576 -0.080148 0 255 0
-1.193976 0.382136 -0.239148 0 255 0
-1.138734 0.311996 -0.086148 0 255 0
-1.027867 0.429173 -0.089148 0 255 0
-1.178586 0.364530 -0.002148 0 255 0
-1.184747 0.337894 -0.218148 0 255 0
-1.214242 0.350359 -0.134148 0 255 0
-1.181244 0.400803 0.042852 0 255 0
-1.073583 0.340554 -0.191148 0 255 0
-1.032747 0.408463 -0.147775 0 255 0
-1.235177 0.416604 -0.119148 0 255 0
-1.037113 0.366666 -0.125148 0 255 0
-1.075041 0.319694 -0.113148 0 255 0
-1.192664 0.357892 -0.068148 0 255 0
-1.231803 0.422382 -0.095148 0 255 0
-1.178907 0.382596 -0.261751 0 255 0
-1.061887 0.378787 -0.224148 0 255 0
-1.171650 0.314352 -0.098148 0 255 0
-1.053717 0.385871 -0.062148 0 255 0
-1.051664 0.373698 -0.194148 0 255 0
-1.135272 0.361500 0.110473 0 255 0
-1.097832 0.337832 -0.243323 0 255 0
-1.193918 0.339945 -0.086148 0 255 0
-1.155489 0.373435 0.084852 0 255 0
-1.092731 0.388600 0.075852 0 255 0
-1.085166 0.367018 -0.254148 0 255 0
-1.124997 0.357775 -0.269148 0 255 0
-1.165775 0.378670 0.111852 0 255 0
-1.179890 0.325526 -0.090555 0 255 0
-1.088924 0.400362 0.072852 0 255 0
-1.067599 0.340128 -0.179148 0 255 0
-1.177215 0.320777 -0.095148 0 255 0
-1.094596 0.384125 0.084852 0 255 0
-1.168395 0.317880 -0.203148 0 255 0
-1.148401 0.368434 0.036852 0 255 0
-1.181000 0.352669 -0.060534 0 255 0
-1.075774 0.309223 -0.087872 0 255 0
-1.228737 0.401117 -0.090552 0 255 0
-1.162143 0.321277 -0.177683 0 255 0
-1.096206 0.318087 -0.086148 0 255 0
-1.102625 0.356210 0.078852 0 255 0
-1.087663 0.331105 -0.194148 0 255 0
-1.040431 0.445088 -0.155148 0 255 0
-1.083816 0.323227 -0.167148 0 255 0
-1.050231 0.349539 -0.182148 0 255 0
-1.188566 0.353198 -0.068148 0 255 0
-1.046036 0.433451 -0.186642 0 255 0
-1.170975 0.367005 0.055448 0 255 0
-1.029809 0.381192 -0.107148 0 255 0
-1.067387 0.343147 -0.188148 0 255 0
-1.107501 0.371587 0.059379 0 255 0
-1.213919 0.354971 -0.093586 0 255 0
-1.086201 0.394158 0.099852 0 255 0
-1.157058 0.350995 -0.036566 0 255 0
-1.209155 0.380087 -0.206148 0 255 0
-1.157686 0.342016 -0.234708 0 255 0
-1.067824 0.398887 -0.032148 0 255 0
-1.103266 0.346132 -0.260148 0 255 0
-1.110107 0.334324 -0.026148 0 255 0
-1.235154 0.392544 -0.140148 0 255 0
-1.083606 0.326247 -0.176148 0 255 0
-1.172440 0.346055 -0.222755 0 255 0
-1.035111 0.417651 -0.076385 0 255 0
-1.102044 0.363622 -0.002148 0 255 0
-1.241159 0.398978 -0.098148 0 255 0
-1.185002 0.381448 -0.032148 0 255 0
-1.038075 0.438909 -0.149148 0 255 0
-1.078739 0.330481 -0.083148 0 255 0
-1.173551 0.397258 0.081852 0 255 0
-1.059580 0.411779 -0.230148 0 255 0
-1.118261 0.346739 0.096852 0 255 0
-1.102562 0.356206 -0.258819 0 255 0
-1.033196 0.378421 -0.128148 0 255 0
-1.202340 0.348524 -0.206148 0 255 0
-1.120832 0.352971 -0.260148 0 255 0
-1.042449 0.376062 -0.089148 0 255 0
-1.221642 0.373555 -0.156712 0 255 0
-1.132389 0.359732 0.099852 0 255 0
-1.145715 0.341179 -0.240733 0 255 0
-1.236125 0.404641 -0.107148 0 255 0
-1.222940 0.376653 -0.146148 0 255 0
-1.169138 0.350273 -0.233148 0 255 0
-1.219596 0.359804 -0.128148 0 255 0
-1.107229 0.332474 -0.033424 0 255 0
-1.119998 0.364898 0.042852 0 255 0
-1.083307 0.393954 0.003852 0 255 0
-1.067879 0.356788 -0.068148 0 255 0
-1.193664 0.371599 -0.233148 0 255 0
-1.188347 0.333609 -0.161148 0 255 0
-1.161897 0.367812 -0.005148 0 255 0
-1.170666 0.371433 -0.260148 0 255 0
-1.187404 0.362138 -0.248148 0 255 0
-1.149444 0.330859 -0.068148 0 255 0
-1.119732 0.325688 -0.206148 0 255 0
-1.128703 0.326422 -0.209148 0 255 0
-1.199399 0.368992 -0.230148 0 255 0
-1.165873 0.333568 -0.206148 0 255 0
-1.164621 0.328850 -0.197148 0 255 0
-1.178638 0.409644 0.018852 0 255 0
-1.158387 0.435292 0.111852 0 255 0
-1.165726 0.356060 -0.248148 0 255 0
-1.123978 0.307973 -0.146148 0 255 0
-1.049562 0.361522 -0.164148 0 255 0
-1.074505 0.348229 -0.206148 0 255 0
-1.077171 0.390518 -0.008148 0 255 0
-1.113905 0.366021 0.032352 0 255 0
-1.136368 0.302822 -0.104148 0 255 0
-1.166776 0.341030 -0.221148 0 255 0
-1.173759 0.370207 -0.024581 0 255 0
-1.036323 0.375633 -0.089148 0 255 0
-1.171020 0.366356 0.048852 0 255 0
-1.053214 0.373806 -0.204766 0 255 0
-1.198226 0.364360 -0.071148 0 255 0
-1.167825 0.326033 -0.188148 0 255 0
-1.172022 0.352041 -0.237735 0 255 0
-1.096879 0.370845 0.099852 0 255 0
-1.157477 0.345010 -0.003433 0 255 0
-1.215866 0.370144 -0.087604 0 255 0
-1.123412 0.359083 0.102852 0 255 0
-1.194847 0.392732 -0.041148 0 255 0
-1.075149 0.404175 -0.011148 0 255 0
-1.114996 0.307402 -0.128148 0 255 0
-1.133054 0.307214 -0.093605 0 255 0
-1.114470 0.314936 -0.171692 0 255 0
-1.081403 0.357734 -0.234676 0 255 0
-1.095740 0.367758 -0.006642 0 255 0
-1.208416 0.390674 -0.066591 0 255 0
-1.109723 0.317611 -0.179148 0 255 0
-1.207332 0.396612 -0.044148 0 255 0
-1.196489 0.346204 -0.173148 0 255 0
-1.170035 0.380443 0.003852 0 255 0
-1.135176 0.362875 0.036852 0 255 0
-1.123198 0.362135 0.087852 0 255 0
-1.047879 0.340353 -0.107148 0 255 0
-1.101453 0.350113 -0.038148 0 255 0
-1.141174 0.449126 0.104943 0 255 0
-1.071550 0.412638 -0.023148 0 255 0
-1.075739 0.352736 -0.218148 0 255 0
-1.185208 0.378491 -0.248148 0 255 0
-1.095258 0.331637 -0.201695 0 255 0
-1.092202 0.310372 -0.104148 0 255 0
-1.148289 0.347374 -0.036627 0 255 0
-1.088191 0.389699 0.027852 0 255 0
-1.204104 0.366314 -0.198648 0 255 0
-1.154109 0.307146 -0.110148 0 255 0
-1.187134 0.344076 -0.050148 0 255 0
-1.133442 0.301656 -0.077148 0 255 0
-1.086917 0.373156 0.039852 0 255 0
-1.104655 0.326279 -0.195664 0 255 0
-1.084606 0.354950 -0.051644 0 255 0
-1.237296 0.407730 -0.102380 0 255 0
-1.139766 0.361815 0.006852 0 255 0
-1.102248 0.360692 -0.263148 0 255 0
-1.026661 0.409478 -0.101148 0 255 0
-1.087771 0.395699 0.024852 0 255 0
-1.041766 0.365486 -0.143148 0 255 0
-1.125813 0.324751 -0.069571 0 255 0
-1.044236 0.373179 -0.177750 0 255 0
-1.172964 0.338557 -0.074148 0 255 0
-1.166623 0.386234 0.060852 0 255 0
-1.146874 0.324608 -0.203148 0 255 0
-1.086071 0.334001 -0.201725 0 255 0
-1.088561 0.319139 -0.161148 0 255 0
-1.059308 0.372677 -0.065148 0 255 0
-1.119002 0.357355 -0.002148 0 255 0
-1.055056 0.390470 -0.065148 0 255 0
-1.121378 0.366544 0.066852 0 255 0
-1.115057 0.349549 -0.029148 0 255 0
-1.154775 0.297634 -0.149148 0 255 0
-1.138311 0.318037 -0.182148 0 255 0
-1.076427 0.385889 -0.257148 0 255 0
-1.158314 0.333039 -0.213679 0 255 0
-1.083918 0.300770 -0.131148 0 255 0
-1.081683 0.353744 -0.248148 0 255 0
-1.152496 0.373229 0.033852 0 255 0
-1.178907 0.382596 -0.018645 0 255 0
-1.199793 0.341954 -0.153653 0 255 0
-1.197533 0.331263 -0.101148 0 255 0
-1.031660 0.402372 -0.125148 0 255 0
-1.086824 0.409238 0.074330 0 255 0
-1.175645 0.409434 0.027852 0 255 0
-1.173732 0.349154 -0.059148 0 255 0
-1.132115 0.320639 -0.191148 0 255 0
-1.135000 0.322387 -0.229958 0 255 0
-1.083441 0.348855 -0.227148 0 255 0
-1.104195 0.375860 0.057852 0 255 0
-1.078676 0.372580 -0.029148 0 255 0
-1.116814 0.453437 0.104490 0 255 0
-1.152810 0.368742 0.095329 0 255 0
-1.066022 0.362672 -0.234273 0 255 0
-1.050056 0.439747 -0.074148 0 255 0
-1.195760 0.335658 -0.143148 0 255 0
-1.027163 0.414088 -0.122148 0 255 0
-1.218231 0.379331 -0.084629 0 255 0
-1.119409 0.330318 -0.063637 0 255 0
-1.042085 0.382051 -0.161148 0 255 0
-1.204732 0.357336 -0.180675 0 255 0
-1.047377 0.349340 -0.122148 0 255 0
-1.226528 0.370889 -0.137148 0 255 0
-1.091938 0.400573 0.048852 0 255 0
-1.201383 0.384167 -0.227148 0 255 0
-1.038280 0.384792 -0.074148 0 255 0
-1.084869 0.406093 0.036852 0 255 0
-1.077122 0.354427 -0.062148 0 255 0
-1.098633 0.369389 0.108852 0 255 0
-1.180318 0.405426 0.036852 0 255 0
-1.158586 0.372152 0.014355 0 255 0
-1.172868 0.425943 0.066852 0 255 0
-1.141822 0.310835 -0.153604 0 255 0
-1.081449 0.314072 -0.098148 0 255 0
-1.062129 0.332327 -0.117622 0 255 0
-1.183149 0.343797 -0.074148 0 255 0
-1.023614 0.389780 -0.089148 0 255 0
-1.173549 0.373199 -0.018611 0 255 0
-1.168756 0.312718 -0.120670 0 255 0
-1.052901 0.378285 -0.071148 0 255 0
-1.122989 0.365132 0.036852 0 255 0
-1.102883 0.351622 -0.029148 0 255 0
-1.214070 0.418135 -0.071148 0 255 0
-1.057702 0.438638 -0.059148 0 255 0
-1.181209 0.349676 -0.066611 0 255 0
-1.150698 0.312931 -0.149148 0 255 0
-1.152726 0.455948 0.110370 0 255 0
-1.040197 0.387932 -0.084615 0 255 0
-1.143559 0.329000 -0.210662 0 255 0
-1.076782 0.337808 -0.185148 0 255 0
-1.064685 0.359572 -0.203148 0 255 0
-1.157962 0.360080 -0.020148 0 255 0
-1.150591 0.314455 -0.159604 0 255 0
-1.156894 0.310338 -0.122148 0 255 0
-1.027170 0.426117 -0.137148 0 255 0
-1.132506 0.337248 -0.233148 0 255 0
-1.157267 0.348002 -0.045635 0 255 0
-1.092857 0.365977 -0.020148 0 255 0
-1.092375 0.352486 -0.005148 0 255 0
-1.184579 0.387482 -0.026148 0 255 0
-1.104406 0.372832 0.069852 0 255 0
-1.040709 0.380609 -0.173148 0 255 0
-1.078401 0.420677 -0.011148 0 255 0
-1.188352 0.333541 -0.170148 0 255 0
-1.059416 0.347174 -0.173148 0 255 0
-1.172189 0.392651 0.090852 0 255 0
-1.077263 0.373940 -0.035148 0 255 0
-1.221851 0.370562 -0.150670 0 255 0
-1.087180 0.361145 -0.243687 0 255 0
-1.151751 0.362653 -0.005148 0 255 0
-1.094839 0.337622 -0.063581 0 255 0
-1.088192 0.325128 -0.086148 0 255 0
-1.128359 0.309892 -0.092148 0 255 0
-1.202054 0.352624 -0.173148 0 255 0
-1.201530 0.360120 -0.078644 0 255 0
-1.120270 0.339400 -0.236148 0 255 0
-1.181272 0.391783 -0.012624 0 255 0
-1.159948 0.352675 -0.041148 0 255 0
-1.081614 0.378800 0.021852 0 255 0
-1.113905 0.366021 0.083329 0 255 0
-1.073780 0.357201 -0.221148 0 255 0
-1.171913 0.376092 -0.266148 0 255 0
-1.205047 0.352836 -0.086148 0 255 0
-1.118886 0.337793 -0.053148 0 255 0
-1.186781 0.335029 -0.086148 0 255 0
-1.114679 0.311943 -0.090623 0 255 0
-1.106391 0.365496 0.105852 0 255 0
-1.097606 0.361874 -0.020148 0 255 0
-1.067444 0.385344 -0.044148 0 255 0
-1.197197 0.395904 -0.257148 0 255 0
-1.129184 0.362547 0.093852 0 255 0
-1.060408 0.335215 -0.125148 0 255 0
-1.232566 0.389356 -0.123641 0 255 0
-1.087809 0.415321 0.081852 0 255 0
-1.215542 0.355085 -0.137148 0 255 0
-1.055725 0.337894 -0.114626 0 255 0
-1.056053 0.333205 -0.107148 0 255 0
-1.092644 0.369015 -0.014148 0 255 0
-1.051377 0.357072 -0.167148 0 255 0
-1.222269 0.364577 -0.120659 0 255 0
-1.145341 0.368219 0.054852 0 255 0
-1.113842 0.323914 -0.198759 0 255 0
-1.157058 0.350995 -0.266893 0 255 0
-1.046391 0.385358 -0.189669 0 255 0
-1.095268 0.352688 -0.245148 0 255 0
-1.178175 0.393052 0.000852 0 255 0
-1.050092 0.352537 -0.158148 0 255 0
-1.112192 0.368909 0.045852 0 255 0
-1.071026 0.366030 -0.026148 0 255 0
-1.208124 0.414712 -0.050148 0 255 0
-1.091385 0.322344 -0.170148 0 255 0
-1.073890 0.336157 -0.177652 0 255 0
-1.101097 0.377155 0.050395 0 255 0
-1.156849 0.353987 -0.252660 0 255 0
-1.102703 0.374260 0.039852 0 255 0
-1.040902 0.354902 -0.101148 0 255 0
-1.177323 0.385493 -0.005148 0 255 0
-1.142718 0.319918 -0.185148 0 255 0
-1.189667 0.357741 -0.212148 0 255 0
-1.151491 0.344590 -0.240657 0 255 0
-1.079401 0.321506 -0.092148 0 255 0
-1.093521 0.313472 -0.138664 0 255 0
-1.112903 0.337341 -0.227148 0 255 0
-1.105243 0.360865 -0.011148 0 255 0
-1.178659 0.322432 -0.149148 0 255 0
-1.159888 0.375251 0.111852 0 255 0
-1.032287 0.399409 -0.167148 0 255 0
-1.172085 0.394148 0.047348 0 255 0
-1.175077 0.394357 0.020381 0 255 0
-1.205259 0.349793 -0.167148 0 255 0
-1.070921 0.421619 -0.023148 0 255 0
-1.079458 0.342561 -0.201704 0 255 0
-1.224123 0.358691 -0.161148 0 255 0
-1.098009 0.378313 0.039852 0 255 0
-1.095468 0.328644 -0.195665 0 255 0
-1.052629 0.339164 -0.104148 0 255 0
-1.187195 0.350095 -0.207689 0 255 0
-1.077783 0.366503 -0.257190 0 255 0
-1.123768 0.310978 -0.155148 0 255 0
-1.179375 0.332896 -0.185148 0 255 0
-1.144712 0.312515 -0.149148 0 255 0
-1.202995 0.339170 -0.096582 0 255 0
-1.191885 0.412026 -0.254148 0 255 0
-1.056733 0.366492 -0.074148 0 255 0
-1.209253 0.378703 -0.072554 0 255 0
-1.102562 0.356206 0.046597 0 255 0
-1.054564 0.416003 -0.059148 0 255 0
-1.209671 0.372718 -0.056553 0 255 0
-1.111647 0.355300 -0.260148 0 255 0
-1.099262 0.360397 -0.014148 0 255 0
-1.111230 0.361261 0.006852 0 255 0
-1.105965 0.371480 0.084852 0 255 0
-1.091323 0.322340 -0.176148 0 255 0
-1.171981 0.395631 0.039852 0 255 0
-1.091812 0.380912 0.105852 0 255 0
-1.209362 0.377139 -0.200148 0 255 0
-1.086133 0.376108 0.076287 0 255 0
-1.182634 0.372314 0.000852 0 255 0
-1.174596 0.358236 -0.261945 0 255 0
-1.083140 0.375899 -0.258875 0 255 0
-1.094813 0.361679 -0.272148 0 255 0
-1.065654 0.324924 -0.119148 0 255 0
-1.128494 0.329406 -0.218148 0 255 0
-1.191924 0.368470 -0.057592 0 255 0
-1.033019 0.447577 -0.120671 0 255 0
-1.100951 0.313991 -0.089148 0 255 0
-1.209737 0.351671 -0.155148 0 255 0
-1.033487 0.397879 -0.086148 0 255 0
-1.181833 0.319647 -0.098148 0 255 0
-1.068011 0.334229 -0.089148 0 255 0
-1.098387 0.307797 -0.107148 0 255 0
-1.224116 0.381178 -0.161148 0 255 0
-1.100645 0.449299 0.108852 0 255 0
-1.239440 0.389836 -0.122148 0 255 0
-1.091700 0.382513 0.095383 0 255 0
-1.107735 0.454263 0.102852 0 255 0
-1.094942 0.422169 0.114852 0 255 0
-1.060517 0.398376 -0.048592 0 255 0
-1.147662 0.356352 -0.015598 0 255 0
-1.174621 0.337186 -0.200148 0 255 0
-1.225957 0.346790 -0.119148 0 255 0
-1.062719 0.366892 -0.065148 0 255 0
-1.030477 0.417326 -0.092148 0 255 0
-1.219387 0.362797 -0.140148 0 255 0
-1.174074 0.365696 -0.035148 0 255 0
-1.231818 0.400052 -0.161148 0 255 0
-1.199692 0.343401 -0.089148 0 255 0
-1.215618 0.355090 -0.146148 0 255 0
-1.211555 0.345784 -0.078144 0 255 0
-1.190068 0.374354 -0.050148 0 255 0
-1.045701 0.352230 -0.076973 0 255 0
-1.117065 0.320828 -0.227148 0 255 0
-1.234406 0.406059 -0.125148 0 255 0
-1.134483 0.329781 -0.218148 0 255 0
-1.153145 0.449963 0.104597 0 255 0
-1.040615 0.381947 -0.069936 0 255 0
-1.203267 0.378285 -0.219762 0 255 0
-1.078919 0.411692 -0.005148 0 255 0
-1.089882 0.343290 -0.218148 0 255 0
-1.128575 0.457266 0.101432 0 255 0
-1.104445 0.329272 -0.235213 0 255 0
-1.038989 0.362199 -0.104148 0 255 0
-1.185114 0.358971 -0.059148 0 255 0
-1.116207 0.333101 -0.249539 0 255 0
-1.115307 0.302965 -0.075756 0 255 0
-1.032978 0.381414 -0.092148 0 255 0
-1.081257 0.402833 0.005368 0 255 0
-1.026592 0.435099 -0.101148 0 255 0
-1.150346 0.360977 -0.266148 0 255 0
-1.235159 0.362470 -0.092148 0 255 0
-1.035445 0.420682 -0.164148 0 255 0
-1.126649 0.312780 -0.165717 0 255 0
-1.128575 0.457266 0.119224 0 255 0
-1.082513 0.384878 -0.264885 0 255 0
-1.091178 0.389974 0.060852 0 255 0
-1.093287 0.359819 -0.254148 0 255 0
-1.074727 0.367202 -0.017148 0 255 0
-1.166815 0.303560 -0.083148 0 255 0
-1.040933 0.377409 -0.164148 0 255 0
-1.102799 0.431406 0.114852 0 255 0
-1.194853 0.326571 -0.105603 0 255 0
-1.097895 0.379939 0.077323 0 255 0
-1.050180 0.352543 -0.137148 0 255 0
-1.084706 0.330899 -0.077148 0 255 0
-1.213256 0.407459 -0.068148 0 255 0
-1.207097 0.366523 -0.192783 0 255 0
-1.081314 0.336676 -0.074148 0 255 0
-1.194766 0.350625 -0.077148 0 255 0
-1.076784 0.337779 -0.077148 0 255 0
-1.050849 0.364619 -0.174674 0 255 0
-1.090727 0.331320 -0.074148 0 255 0
-1.065462 0.434809 -0.047148 0 255 0
-1.169619 0.386399 0.024852 0 255 0
-1.236605 0.374601 -0.110222 0 255 0
-1.192971 0.353507 -0.228250 0 255 0
-1.221128 0.445695 -0.086148 0 255 0
-1.207787 0.399652 -0.224634 0 255 0
-1.098748 0.343910 -0.047148 0 255 0
-1.222797 0.421753 -0.083148 0 255 0
-1.174940 0.376304 -0.014148 0 255 0
-1.083723 0.410579 0.099852 0 255 0
-1.050746 0.366080 -0.182148 0 255 0
-1.088199 0.367230 0.096852 0 255 0
-1.052118 0.432482 -0.071148 0 255 0
-1.234851 0.422595 -0.104148 0 255 0
-1.066967 0.349144 -0.074148 0 255 0
-1.157377 0.369062 0.105852 0 255 0
-1.072934 0.306826 -0.125148 0 255 0
-1.053844 0.321774 -0.119148 0 255 0
-1.176293 0.419976 0.075852 0 255 0
-1.191714 0.371462 -0.246072 0 255 0
-1.236458 0.419701 -0.111727 0 255 0
-1.080162 0.396742 -0.008148 0 255 0
-1.075800 0.394870 -0.257148 0 255 0
-1.180365 0.385705 0.033852 0 255 0
-1.068148 0.395902 -0.041148 0 255 0
-1.218554 0.355295 -0.125148 0 255 0
-1.236893 0.407702 -0.089148 0 255 0
-1.226851 0.410007 -0.167148 0 255 0
-1.063929 0.392600 -0.027361 0 255 0
-1.106747 0.296352 -0.144262 0 255 0
-1.059976 0.377287 -0.233148 0 255 0
-1.205457 0.369415 -0.224148 0 255 0
-1.114260 0.317929 -0.183774 0 255 0
-1.179189 0.358557 -0.233148 0 255 0
-1.230102 0.381586 -0.122148 0 255 0
-1.076256 0.345345 -0.069528 0 255 0
-1.138830 0.310625 -0.204884 0 255 0
-1.238049 0.377709 -0.122148 0 255 0
-1.206205 0.402549 -0.056148 0 255 0
-1.188381 0.356192 -0.218148 0 255 0
-1.159740 0.378248 0.063852 0 255 0
-1.040318 0.360875 -0.134148 0 255 0
-1.048551 0.354486 -0.071148 0 255 0
-1.050012 0.376590 -0.075514 0 255 0
-1.202788 0.381258 -0.233148 0 255 0
-1.197577 0.432018 -0.038148 0 255 0
-1.069014 0.362882 -0.219780 0 255 0
-1.040304 0.360874 -0.140148 0 255 0
-1.181209 0.349676 -0.219738 0 255 0
-1.203332 0.348216 -0.200148 0 255 0
-1.221073 0.400581 -0.197148 0 255 0
-1.184139 0.307779 -0.140362 0 255 0
-1.050962 0.363012 -0.080148 0 255 0
-1.090826 0.364407 0.030852 0 255 0
-1.085569 0.427193 0.116319 0 255 0
-1.050149 0.374631 -0.200148 0 255 0
-1.185878 0.411931 0.000852 0 255 0
-1.239622 0.389848 -0.116148 0 255 0
-1.182046 0.337705 -0.192667 0 255 0
-1.039254 0.375838 -0.155148 0 255 0
-1.044979 0.362553 -0.152148 0 255 0
-1.067067 0.347709 -0.220447 0 255 0
-1.075172 0.403841 -0.263148 0 255 0
-1.079939 0.378683 -0.024547 0 255 0
-1.141578 0.357341 -0.269148 0 255 0
-1.119501 0.458015 0.105852 0 255 0
-1.181880 0.388819 0.114852 0 255 0
-1.027690 0.394756 -0.110148 0 255 0
-1.205512 0.369420 -0.074148 0 255 0
-1.223107 0.438617 -0.086148 0 255 0
-1.093908 0.350941 -0.260148 0 255 0
-1.188196 0.371216 -0.254148 0 255 0
-1.116401 0.354166 -0.272148 0 255 0
-1.229434 0.348140 -0.101148 0 255 0
-1.109416 0.452919 0.117852 0 255 0
-1.146950 0.452537 0.104591 0 255 0
-1.217024 0.353569 -0.119148 0 255 0
-1.191765 0.380488 -0.017148 0 255 0
-1.184264 0.391993 -0.267397 0 255 0
-1.042954 0.333994 -0.122148 0 255 0
-1.026552 0.411037 -0.111696 0 255 0
-1.210718 0.357754 -0.200946 0 255 0
-1.196078 0.309060 -0.095148 0 255 0
-1.083315 0.416422 0.090852 0 255 0
-1.212706 0.324813 -0.113148 0 255 0
-1.108460 0.314858 -0.062148 0 255 0
-1.030183 0.420313 -0.125148 0 255 0
-1.175768 0.427487 0.110689 0 255 0
-1.214685 0.433215 -0.068148 0 255 0
-1.031218 0.387305 -0.082265 0 255 0
-1.201491 0.403685 -0.239148 0 255 0
-1.046854 0.397420 -0.068148 0 255 0
-1.081465 0.345709 -0.038148 0 255 0
-1.183641 0.419014 0.114852 0 255 0
-1.025041 0.432639 -0.110148 0 255 0
-1.089724 0.364330 0.018852 0 255 0
-1.059219 0.440388 -0.053148 0 255 0
-1.063200 0.403022 -0.041148 0 255 0
-1.082835 0.380279 0.051852 0 255 0
-1.087795 0.309339 -0.080148 0 255 0
-1.231101 0.410304 -0.090394 0 255 0
-1.093364 0.367592 0.117852 0 255 0
-1.046864 0.439524 -0.080148 0 255 0
-1.230168 0.423653 -0.161148 0 255 0
-1.117107 0.363237 0.113412 0 255 0
-1.237679 0.395727 -0.089148 0 255 0
-1.059124 0.418305 -0.050148 0 255 0
-1.092889 0.322506 -0.059148 0 255 0
-1.078636 0.411672 0.000852 0 255 0
-1.082235 0.405909 0.111852 0 255 0
-1.195063 0.323579 -0.080432 0 255 0
-1.206435 0.345426 -0.194148 0 255 0
-1.032782 0.348319 -0.116148 0 255 0
-1.232776 0.386362 -0.084899 0 255 0
-1.092983 0.304411 -0.167148 0 255 0
-1.082411 0.363819 -0.242148 0 255 0
-1.055976 0.404073 -0.233148 0 255 0
-1.179388 0.418717 0.118966 0 255 0
-1.194481 0.331910 -0.197148 0 255 0
-1.096196 0.361236 0.072852 0 255 0
-1.043880 0.421271 -0.068678 0 255 0
-1.211188 0.405904 -0.056148 0 255 0
-1.080788 0.409544 0.084852 0 255 0
-1.198517 0.314799 -0.131148 0 255 0
-1.088741 0.367268 -0.269148 0 255 0
-1.054502 0.391941 -0.236148 0 255 0
-1.225534 0.403900 -0.168665 0 255 0
-1.136336 0.346289 0.027852 0 255 0
-1.045701 0.352230 -0.180449 0 255 0
-1.068089 0.376116 -0.233148 0 255 0
-1.219036 0.367821 -0.071148 0 255 0
-1.131097 0.292196 -0.137148 0 255 0
-1.039939 0.408966 -0.179148 0 255 0
-1.191510 0.317316 -0.164148 0 255 0
-1.087466 0.373194 -0.266148 0 255 0
-1.061492 0.384435 -0.230148 0 255 0
-1.044512 0.343125 -0.158148 0 255 0
-1.032978 0.378406 -0.137148 0 255 0
-1.208834 0.384688 -0.224887 0 255 0
-1.176411 0.375283 0.042852 0 255 0
-1.200421 0.332976 -0.180847 0 255 0
-1.175327 0.418434 0.036852 0 255 0
-1.037353 0.402771 -0.167148 0 255 0
-1.049995 0.419843 -0.056148 0 255 0
-1.058907 0.464424 -0.078432 0 255 0
-1.035217 0.416143 -0.161148 0 255 0
-1.025080 0.404920 -0.110148 0 255 0
-1.224908 0.391827 -0.164148 0 255 0
-1.184384 0.407038 0.105852 0 255 0
-1.189080 0.409133 -0.017148 0 255 0
-1.149544 0.350470 0.084852 0 255 0
-1.081969 0.306649 -0.153823 0 255 0
-1.201744 0.429302 -0.053148 0 255 0
-1.059049 0.365193 -0.227148 0 255 0
-1.085390 0.403123 0.075852 0 255 0
-1.125914 0.323303 -0.044148 0 255 0
-1.096911 0.437009 0.104696 0 255 0
-1.087871 0.394274 0.113989 0 255 0
-1.158185 0.334875 -0.245148 0 255 0
-1.127261 0.347052 -0.257148 0 255 0
-1.078411 0.357524 -0.250906 0 255 0
-1.050912 0.406726 -0.063642 0 255 0
-1.206118 0.337512 -0.182148 0 255 0
-1.088334 0.370248 0.084852 0 255 0
-1.068449 0.413967 -0.258366 0 255 0
-1.111268 0.317719 -0.057281 0 255 0
-1.146119 0.292404 -0.089148 0 255 0
-1.033292 0.417523 -0.152148 0 255 0
-1.068806 0.365874 -0.243751 0 255 0
-1.101140 0.333544 -0.035148 0 255 0
-1.027972 0.408129 -0.122148 0 255 0
-1.092416 0.364518 0.057852 0 255 0
-1.184864 0.426419 -0.005148 0 255 0
-1.179684 0.414492 0.015852 0 255 0
-1.188535 0.344174 -0.227148 0 255 0
-1.198239 0.386955 -0.233148 0 255 0
-1.046121 0.403383 -0.206148 0 255 0
-1.195667 0.357959 -0.230148 0 255 0
-1.143063 0.293092 -0.143148 0 255 0
-1.159632 0.357189 -0.270143 0 255 0
-1.190870 0.314264 -0.152148 0 255 0
-1.169155 0.436046 0.107567 0 255 0
-1.209399 0.333603 -0.084573 0 255 0
-1.212308 0.421019 -0.060854 0 255 0
-1.170285 0.333876 -0.231505 0 255 0
-1.038732 0.408882 -0.070132 0 255 0
-1.224477 0.367738 -0.167148 0 255 0
-1.036988 0.366657 -0.131148 0 255 0
-1.234059 0.392467 -0.098148 0 255 0
-1.235007 0.397460 -0.146148 0 255 0
-1.110426 0.347734 0.105852 0 255 0
-1.234365 0.363639 -0.113148 0 255 0
-1.236820 0.395667 -0.107148 0 255 0
-1.063010 0.398550 -0.245148 0 255 0
-1.232566 0.389356 -0.158915 0 255 0
-1.054386 0.443057 -0.069440 0 255 0
-1.049943 0.367563 -0.212148 0 255 0
-1.032565 0.384392 -0.146148 0 255 0
-1.029112 0.390165 -0.137148 0 255 0
-1.203545 0.331311 -0.170148 0 255 0
-1.121293 0.346379 0.114852 0 255 0
-1.036994 0.390716 -0.073652 0 255 0
-1.206423 0.419163 -0.059148 0 255 0
-1.206951 0.411622 -0.231222 0 255 0
-1.064620 0.425728 -0.042629 0 255 0
-1.084787 0.418117 0.063852 0 255 0
-1.046663 0.424473 -0.192972 0 255 0
-1.034164 0.431197 -0.143148 0 255 0
-1.196947 0.382659 -0.029148 0 255 0
-1.053486 0.412921 -0.048843 0 255 0
-1.027790 0.408117 -0.134148 0 255 0
-1.183721 0.313764 -0.080508 0 255 0
-1.086838 0.364129 0.009852 0 255 0
-1.032139 0.438494 -0.107148 0 255 0
-1.228992 0.377076 -0.110148 0 255 0
-1.055722 0.358946 -0.176148 0 255 0
-1.026024 0.392957 -0.104148 0 255 0
-1.085987 0.421209 0.116031 0 255 0
-1.080075 0.405758 0.033852 0 255 0
-1.033335 0.378431 -0.110148 0 255 0
-1.186270 0.363300 -0.236148 0 255 0
-1.080760 0.409954 0.024852 0 255 0
-1.140559 0.328899 -0.245148 0 255 0
-1.089329 0.391369 0.078852 0 255 0
-1.057469 0.374104 -0.209148 0 255 0
-1.079302 0.339543 -0.230148 0 255 0
-1.170912 0.324898 -0.059009 0 255 0
-1.085612 0.400131 0.039852 0 255 0
-1.069780 0.326848 -0.071148 0 255 0
-1.045103 0.391283 -0.206148 0 255 0
-1.033326 0.378430 -0.116148 0 255 0
-1.233281 0.379137 -0.143148 0 255 0
-1.210926 0.354762 -0.072091 0 255 0
-1.049827 0.406650 -0.056148 0 255 0
-1.200249 0.357022 -0.191148 0 255 0
-1.186492 0.335009 -0.212148 0 255 0
-1.176634 0.372101 0.018852 0 255 0
-1.090973 0.392915 0.039852 0 255 0
-1.237995 0.397733 -0.125148 0 255 0
-1.033518 0.440446 -0.122148 0 255 0
-1.222337 0.406618 -0.194148 0 255 0
-1.178907 0.382596 -0.270443 0 255 0
-1.032884 0.384414 -0.110148 0 255 0
-1.151127 0.306791 -0.134148 0 255 0
-1.069752 0.414059 -0.029148 0 255 0
-1.182381 0.418927 0.107401 0 255 0
-1.090541 0.340329 -0.035148 0 255 0
-1.049328 0.325417 -0.125148 0 255 0
-1.183766 0.416016 0.012852 0 255 0
-1.176897 0.411340 0.075852 0 255 0
-1.187738 0.428324 -0.021326 0 255 0
-1.143851 0.324831 -0.233148 0 255 0
-1.131284 0.332524 -0.023148 0 255 0
-1.041559 0.411455 -0.194148 0 255 0
-1.194885 0.412132 -0.023148 0 255 0
-1.076800 0.423573 -0.007029 0 255 0
-1.050633 0.355582 -0.197148 0 255 0
-1.036576 0.396702 -0.186484 0 255 0
-1.190916 0.407494 -0.023148 0 255 0
-1.186192 0.321427 -0.107148 0 255 0
-1.134101 0.292250 -0.088400 0 255 0
-1.112494 0.343193 -0.245148 0 255 0
-1.199019 0.396032 -0.240931 0 255 0
-1.162671 0.313742 -0.143148 0 255 0
-1.162668 0.313784 -0.137148 0 255 0
-1.064490 0.407676 -0.248148 0 255 0
-1.157496 0.447260 0.105852 0 255 0
-1.069579 0.311797 -0.138918 0 255 0
-1.096349 0.359036 0.096852 0 255 0
-1.205584 0.405513 -0.044148 0 255 0
-1.175908 0.406444 0.072852 0 255 0
-1.218482 0.397392 -0.188148 0 255 0
-1.176804 0.326653 -0.086148 0 255 0
-1.129547 0.314346 -0.176148 0 255 0
-1.181301 0.348362 -0.242148 0 255 0
-1.118478 0.343635 -0.251148 0 255 0
-1.105597 0.312800 -0.152148 0 255 0
-1.198022 0.367275 -0.065148 0 255 0
-1.061937 0.421077 -0.035148 0 255 0
-1.037184 0.402759 -0.173148 0 255 0
-1.124043 0.350059 -0.020148 0 255 0
-1.163719 0.330410 -0.044148 0 255 0
-1.211730 0.366847 -0.185148 0 255 0
-1.041528 0.439151 -0.077148 0 255 0
-1.030337 0.363185 -0.146148 0 255 0
-1.223663 0.355653 -0.152148 0 255 0
-1.050680 0.343556 -0.131148 0 255 0
-1.188779 0.327432 -0.149148 0 255 0
-1.123135 0.320042 -0.185148 0 255 0
-1.047718 0.382444 -0.194148 0 255 0
-1.114848 0.352545 -0.023148 0 255 0
-1.200175 0.379492 -0.224148 0 255 0
-1.071167 0.393106 -0.029148 0 255 0
-1.087435 0.314486 -0.131148 0 255 0
-1.069338 0.377942 -0.044148 0 255 0
-1.126190 0.362360 0.015852 0 255 0
-1.086044 0.397154 0.012852 0 255 0
-1.109822 0.308596 -0.194148 0 255 0
-1.139360 0.303038 -0.110148 0 255 0
-1.194131 0.336908 -0.161148 0 255 0
-1.189799 0.323211 -0.185148 0 255 0
-1.193661 0.386635 -0.253476 0 255 0
-1.049369 0.361509 -0.086148 0 255 0
-1.082523 0.372849 0.105852 0 255 0
-1.174971 0.352877 -0.251148 0 255 0
-1.092784 0.385595 0.042852 0 255 0
-1.079984 0.396730 -0.263148 0 255 0
-1.113322 0.331350 -0.218148 0 255 0
-1.081550 0.408869 0.018852 0 255 0
-1.074973 0.384350 -0.029148 0 255 0
-1.096622 0.312137 -0.134148 0 255 0
-1.127393 0.302161 -0.110148 0 255 0
-1.224862 0.340699 -0.107148 0 255 0
-1.096052 0.382816 0.060852 0 255 0
-1.048761 0.415598 -0.071148 0 255 0
-1.140442 0.459589 0.108852 0 255 0
-1.183243 0.428008 0.114852 0 255 0
-1.151219 0.305477 -0.076478 0 255 0
-1.170603 0.329319 -0.185148 0 255 0
-1.141162 0.363287 0.027852 0 255 0
-1.092796 0.385596 0.048852 0 255 0
-1.096092 0.382820 0.051852 0 255 0
-1.096499 0.376834 0.087852 0 255 0
-1.127341 0.345909 0.115426 0 255 0
-1.092924 0.343503 -0.224148 0 255 0
-1.067845 0.356785 -0.212148 0 255 0
-1.032537 0.411456 -0.079555 0 255 0
-1.196333 0.425917 -0.038148 0 255 0
-1.224974 0.433934 -0.089148 0 255 0
-1.108929 0.308156 -0.071148 0 255 0
-1.222523 0.385645 -0.173148 0 255 0
-1.180159 0.376669 -0.269148 0 255 0
-1.053423 0.370814 -0.055099 0 255 0
-1.218400 0.358292 -0.134148 0 255 0
-1.185417 0.398088 -0.020148 0 255 0
-1.050859 0.433788 -0.212148 0 255 0
-1.188126 0.401285 -0.026148 0 255 0
-1.101348 0.330551 -0.203148 0 255 0
-1.130026 0.350515 -0.020148 0 255 0
-1.146934 0.366754 0.081852 0 255 0
-1.153066 0.322062 -0.188148 0 255 0
-1.184488 0.358928 -0.023148 0 255 0
-1.087389 0.358153 -0.036566 0 255 0
-1.210026 0.324626 -0.091603 0 255 0
-1.073559 0.360192 -0.053148 0 255 0
-1.176419 0.375169 0.051852 0 255 0
-1.104975 0.321702 -0.188148 0 255 0
-1.238970 0.383788 -0.092601 0 255 0
-1.090432 0.295211 -0.110148 0 255 0
-1.129189 0.362487 0.039852 0 255 0
-1.228799 0.380070 -0.131148 0 255 0
-1.076071 0.408486 -0.008148 0 255 0
-1.156269 0.319278 -0.086148 0 255 0
-1.117006 0.364671 0.078852 0 255 0
-1.103715 0.339711 -0.224148 0 255 0
-1.084444 0.314256 -0.122148 0 255 0
-1.102485 0.314285 -0.200148 0 255 0
-1.183729 0.399658 -0.269148 0 255 0
-1.051059 0.361627 -0.062492 0 255 0
-1.098042 0.334838 -0.066636 0 255 0
-1.134689 0.326825 -0.068148 0 255 0
-1.041934 0.406098 -0.078588 0 255 0
-1.210114 0.323368 -0.122148 0 255 0
-1.061532 0.353337 -0.056148 0 255 0
-1.027959 0.408128 -0.128148 0 255 0
-1.133957 0.294302 -0.149148 0 255 0
-1.108593 0.312963 -0.161148 0 255 0
-1.111443 0.358218 -0.002148 0 255 0
-1.079899 0.422265 0.000852 0 255 0
-1.044492 0.433343 -0.080148 0 255 0
-1.180199 0.391709 0.042852 0 255 0
-1.211471 0.432990 -0.064036 0 255 0
-1.136429 0.344949 -0.032148 0 255 0
-1.086133 0.376108 -0.270273 0 255 0
-1.133645 0.341768 -0.242148 0 255 0
-1.087755 0.373214 -0.014148 0 255 0
-1.158701 0.370505 0.096852 0 255 0
-1.054114 0.403942 -0.045504 0 255 0
-1.067549 0.383831 -0.018979 0 255 0
-1.228537 0.360964 -0.146148 0 255 0
-1.028576 0.435237 -0.092148 0 255 0
-1.047241 0.394440 -0.191148 0 255 0
-1.155496 0.373332 0.054852 0 255 0
-1.134276 0.332736 -0.227148 0 255 0
-1.210090 0.366733 -0.207741 0 255 0
-1.046093 0.367294 -0.173148 0 255 0
-1.119927 0.348399 0.036852 0 255 0
-1.150133 0.364020 0.000852 0 255 0
-1.139839 0.339203 -0.050148 0 255 0
-1.054862 0.416025 -0.041148 0 255 0
-1.213608 0.359412 -0.158148 0 255 0
-1.161000 0.337629 -0.062148 0 255 0
-1.121402 0.301803 -0.101148 0 255 0
-1.137892 0.324035 -0.203148 0 255 0
-1.072059 0.319352 -0.101148 0 255 0
-1.043367 0.334023 -0.128148 0 255 0
-1.102951 0.350637 0.009852 0 255 0
-1.032810 0.450570 -0.096290 0 255 0
-1.079748 0.396714 0.006852 0 255 0
-1.061610 0.339747 -0.149148 0 255 0
-1.179643 0.372062 -0.254148 0 255 0
-1.139839 0.339209 -0.233148 0 255 0
-1.177426 0.317761 -0.128148 0 255 0
-1.127388 0.302227 -0.101148 0 255 0
-1.226511 0.415998 -0.164148 0 255 0
-1.157106 0.307304 -0.104148 0 255 0
-1.137682 0.327045 -0.212148 0 255 0
-1.196445 0.389837 -0.048616 0 255 0
-1.079595 0.360614 -0.044148 0 255 0
-1.213710 0.357964 -0.192596 0 255 0
-1.198539 0.341866 -0.065148 0 255 0
-1.106522 0.302351 -0.173148 0 255 0
-1.112212 0.304211 -0.110148 0 255 0
-1.184683 0.386007 0.016966 0 255 0
-1.162479 0.381447 0.069852 0 255 0
-1.083190 0.332181 -0.191148 0 255 0
-1.210508 0.360747 -0.165655 0 255 0
-1.091121 0.347796 -0.233148 0 255 0
-1.079423 0.321508 -0.140148 0 255 0
-1.087284 0.359649 -0.044148 0 255 0
-1.104618 0.369809 0.090852 0 255 0
-1.101412 0.372652 0.018852 0 255 0
-1.051007 0.362358 -0.206148 0 255 0
-1.073639 0.382752 -0.035148 0 255 0
-1.090070 0.362819 -0.029148 0 255 0
-1.086819 0.424274 0.099852 0 255 0
-1.215695 0.397198 -0.200148 0 255 0
-1.101563 0.327483 -0.071148 0 255 0
-1.092342 0.355492 -0.266148 0 255 0
-1.064633 0.314459 -0.089148 0 255 0
-1.202430 0.390256 -0.240017 0 255 0
-1.193598 0.344528 -0.054427 0 255 0
-1.028498 0.426210 -0.093379 0 255 0
-1.037334 0.428879 -0.086148 0 255 0
-1.092007 0.442681 0.111852 0 255 0
-1.205286 0.414513 -0.056148 0 255 0
-1.025861 0.377908 -0.138404 0 255 0
-1.063978 0.326442 -0.098148 0 255 0
-1.107970 0.353577 0.072852 0 255 0
-1.082773 0.381149 0.057852 0 255 0
-1.152021 0.337019 -0.227148 0 255 0
-1.153693 0.313095 -0.155148 0 255 0
-1.168236 0.320166 -0.152148 0 255 0
-1.162333 0.447598 0.116241 0 255 0
-1.073316 0.430376 -0.017148 0 255 0
-1.149233 0.333875 -0.221148 0 255 0
-1.055207 0.345308 -0.152148 0 255 0
-1.126130 0.320210 -0.077148 0 255 0
-1.150227 0.319662 -0.221148 0 255 0
-1.195075 0.392749 -0.245148 0 255 0
-1.129541 0.314449 -0.086148 0 255 0
-1.078348 0.315417 -0.079382 0 255 0
-1.151387 0.346078 -0.044148 0 255 0
-1.168093 0.365217 -0.023148 0 255 0
-1.150700 0.312901 -0.092148 0 255 0
-1.149022 0.336897 -0.059148 0 255 0
-1.155703 0.370364 0.111852 0 255 0
-1.167671 0.371256 -0.014148 0 255 0
-1.152225 0.334099 -0.065148 0 255 0
-1.143141 0.334985 -0.228690 0 255 0
-1.085765 0.338371 -0.209148 0 255 0
-1.183057 0.366246 -0.044148 0 255 0
-1.114221 0.361494 0.105852 0 255 0
-1.092684 0.364537 0.063852 0 255 0
-1.062569 0.314314 -0.131148 0 255 0
-1.063616 0.332431 -0.137148 0 255 0
-1.074336 0.351225 -0.068148 0 255 0
-1.062572 0.347395 -0.179148 0 255 0
-1.030058 0.351136 -0.095148 0 255 0
-1.092939 0.385607 0.033852 0 255 0
-1.099563 0.377047 0.060852 0 255 0
-1.088346 0.364234 -0.251148 0 255 0
-1.053901 0.340774 -0.122148 0 255 0
-1.056999 0.383093 -0.065148 0 255 0
-1.203101 0.337657 -0.116148 0 255 0
-1.042293 0.421160 -0.077148 0 255 0
-1.181736 0.342133 -0.200148 0 255 0
-1.168028 0.323138 -0.176148 0 255 0
-1.219030 0.410905 -0.077148 0 255 0
-1.226009 0.418971 -0.086148 0 255 0
-1.142140 0.306291 -0.095148 0 255 0
-1.156917 0.375044 0.075852 0 255 0
-1.192636 0.380548 -0.047148 0 255 0
-1.082373 0.414941 0.075852 0 255 0
-1.063855 0.371543 -0.221148 0 255 0
-1.102188 0.318542 -0.176148 0 255 0
-1.056575 0.423659 -0.051544 0 255 0
-1.174946 0.353232 -0.017148 0 255 0
-1.128596 0.327953 -0.066601 0 255 0
-1.058781 0.380210 -0.219871 0 255 0
-1.067143 0.323656 -0.113148 0 255 0
-1.105984 0.371482 0.036852 0 255 0
-1.157882 0.354059 0.030852 0 255 0
-1.239326 0.378700 -0.113148 0 255 0
-1.151353 0.368640 0.021852 0 255 0
-1.125008 0.336256 -0.257148 0 255 0
-1.211658 0.366843 -0.176148 0 255 0
-1.094320 0.345053 -0.230148 0 255 0
-1.090670 0.311233 -0.182148 0 255 0
-1.207352 0.342483 -0.131148 0 255 0
-1.170868 0.391056 0.078852 0 255 0
-1.159053 0.322466 -0.083148 0 255 0
-1.165748 0.355739 0.012852 0 255 0
-1.054395 0.356919 -0.065148 0 255 0
-1.106349 0.365493 0.099852 0 255 0
-1.134791 0.325379 -0.039017 0 255 0
-1.189940 0.396845 -0.254148 0 255 0
-1.067968 0.377845 -0.051619 0 255 0
-1.091282 0.388497 0.113769 0 255 0
-1.068386 0.371860 -0.051546 0 255 0
-1.119618 0.327325 -0.036074 0 255 0
-1.064703 0.338522 -0.087597 0 255 0
-1.172429 0.415224 0.117852 0 255 0
-1.191763 0.327767 -0.188148 0 255 0
-1.086934 0.427289 0.006852 0 255 0
-1.158213 0.334485 -0.065148 0 255 0
-1.237123 0.395689 -0.113148 0 255 0
-1.034370 0.360459 -0.152148 0 255 0
-1.055813 0.398047 -0.059148 0 255 0
-1.164198 0.334895 -0.215148 0 255 0
-1.173243 0.377580 -0.008148 0 255 0
-1.226483 0.390338 -0.158148 0 255 0
-1.083769 0.366921 0.005727 0 255 0
-1.074000 0.334585 -0.170148 0 255 0
-1.090954 0.334343 -0.044148 0 255 0
-1.167677 0.371159 -0.008148 0 255 0
-1.192698 0.314392 -0.085392 0 255 0
-1.075612 0.311540 -0.155148 0 255 0
-1.041307 0.415076 -0.075281 0 255 0
-1.083670 0.368332 -0.029148 0 255 0
-1.026907 0.362945 -0.093649 0 255 0
-1.099192 0.318378 -0.170148 0 255 0
-1.087526 0.415301 0.069852 0 255 0
-1.164990 0.366586 0.116167 0 255 0
-1.055642 0.425101 -0.057168 0 255 0
-1.115160 0.348065 -0.267124 0 255 0
-1.166593 0.366698 -0.017148 0 255 0
-1.058829 0.336524 -0.134148 0 255 0
-1.102753 0.338175 -0.023148 0 255 0
-1.049223 0.344871 -0.119148 0 255 0
-1.050396 0.414112 -0.065148 0 255 0
-1.048965 0.391553 -0.218024 0 255 0
-1.085827 0.380490 -0.008148 0 255 0
-1.145582 0.343079 -0.266148 0 255 0
-1.030247 0.401194 -0.143148 0 255 0
-1.183288 0.385909 -0.260148 0 255 0
-1.039569 0.396911 -0.081454 0 255 0
-1.059137 0.332118 -0.079637 0 255 0
-1.170975 0.367005 0.087059 0 255 0
-1.097113 0.348115 -0.242148 0 255 0
-1.037743 0.339644 -0.095148 0 255 0
-1.077869 0.393574 0.090852 0 255 0
-1.096709 0.295650 -0.125148 0 255 0
-1.194364 0.398714 -0.245148 0 255 0
-1.127341 0.345909 0.098003 0 255 0
-1.178663 0.319425 -0.071148 0 255 0
-1.190775 0.384910 -0.248148 0 255 0
-1.078202 0.360518 -0.019436 0 255 0
-1.085346 0.403120 0.057852 0 255 0
-1.193151 0.401636 -0.017148 0 255 0
-1.179493 0.382637 0.045852 0 255 0
-1.084743 0.373004 0.087852 0 255 0
-1.058426 0.428300 -0.050148 0 255 0
-1.175027 0.373302 0.072852 0 255 0
-1.179655 0.328892 -0.212148 0 255 0
-1.163121 0.307303 -0.077148 0 255 0
-1.182799 0.412941 0.107695 0 255 0
-1.222257 0.346532 -0.134148 0 255 0
-1.040888 0.421062 -0.193430 0 255 0
-1.232419 0.434455 -0.090300 0 255 0
-1.196774 0.365802 -0.041148 0 255 0
-1.191050 0.337959 -0.059148 0 255 0
-1.110431 0.329690 -0.036288 0 255 0
-1.048870 0.370496 -0.080148 0 255 0
-1.093102 0.319457 -0.207877 0 255 0
-1.070250 0.402063 -0.023148 0 255 0
-1.203729 0.402376 -0.230148 0 255 0
-1.107501 0.371587 0.113374 0 255 0
-1.110663 0.314670 -0.209148 0 255 0
-1.107966 0.434775 0.105852 0 255 0
-1.191290 0.334539 -0.200148 0 255 0
-1.062874 0.317343 -0.149148 0 255 0
-1.205122 0.321275 -0.137148 0 255 0
-1.061832 0.317270 -0.140148 0 255 0
-1.129413 0.445296 0.102462 0 255 0
-1.033715 0.417553 -0.173148 0 255 0
-1.052586 0.382784 -0.052082 0 255 0
-1.032706 0.393423 -0.173148 0 255 0
-1.214971 0.439250 -0.071148 0 255 0
-1.197731 0.335795 -0.071148 0 255 0
-1.084112 0.427092 0.027852 0 255 0
-1.213145 0.409048 -0.219186 0 255 0
-1.107355 0.330670 -0.239148 0 255 0
-1.202881 0.324125 -0.152148 0 255 0
-1.067905 0.335738 -0.066149 0 255 0
-1.036482 0.411732 -0.170148 0 255 0
-1.188871 0.326110 -0.071148 0 255 0
-1.236680 0.373536 -0.092148 0 255 0
-1.074870 0.375321 -0.260148 0 255 0
-1.183302 0.319750 -0.183586 0 255 0
-1.225272 0.403882 -0.185148 0 255 0
-1.038078 0.342675 -0.128148 0 255 0
-1.217331 0.392190 -0.206148 0 255 0
-1.028244 0.396119 -0.137148 0 255 0
-1.041480 0.382008 -0.179148 0 255 0
-1.177793 0.398536 0.117852 0 255 0
-1.052282 0.403815 -0.212148 0 255 0
-1.176194 0.364362 -0.266148 0 255 0
-1.075627 0.354322 -0.033149 0 255 0
-1.216664 0.331104 -0.122148 0 255 0
-1.047546 0.385439 -0.200148 0 255 0
-1.164217 0.334620 -0.038148 0 255 0
-1.034484 0.426628 -0.163058 0 255 0
-1.079941 0.399734 0.048852 0 255 0
-1.075673 0.417480 -0.014148 0 255 0
-1.066651 0.396692 -0.248148 0 255 0
-1.179890 0.325526 -0.204591 0 255 0
-1.198538 0.316903 -0.143148 0 255 0
-1.215091 0.424221 -0.069264 0 255 0
-1.050009 0.333627 -0.152148 0 255 0
-1.168971 0.352647 -0.005148 0 255 0
-1.030173 0.402268 -0.159228 0 255 0
-1.178594 0.409640 0.105852 0 255 0
-1.047423 0.400468 -0.215148 0 255 0
-1.077721 0.393564 0.096852 0 255 0
-1.074854 0.408400 0.010650 0 255 0
-1.232857 0.407420 -0.134148 0 255 0
-1.179053 0.337497 -0.046570 0 255 0
-1.123009 0.450863 0.101783 0 255 0
-1.086908 0.322030 -0.203562 0 255 0
-1.024256 0.400863 -0.101148 0 255 0
-1.062883 0.407563 -0.030851 0 255 0
-1.054957 0.407009 -0.221148 0 255 0
-1.192409 0.311364 -0.140148 0 255 0
-1.162353 0.318285 -0.061458 0 255 0
-1.042479 0.406136 -0.194148 0 255 0
-1.031810 0.369302 -0.155148 0 255 0
-1.084206 0.415069 0.024852 0 255 0
-1.066604 0.371736 -0.230148 0 255 0
-1.192679 0.380551 -0.251148 0 255 0
-1.182604 0.372728 0.006852 0 255 0
-1.159632 0.357189 0.041821 0 255 0
-1.112738 0.339701 -0.257148 0 255 0
-1.068031 0.419952 -0.033338 0 255 0
-1.029620 0.410169 -0.143148 0 255 0
-1.170365 0.345911 -0.251148 0 255 0
-1.078370 0.315107 -0.170148 0 255 0
-1.184025 0.413027 0.114852 0 255 0
-1.195145 0.341628 -0.212148 0 255 0
-1.069229 0.316802 -0.161148 0 255 0
-1.197632 0.329864 -0.185148 0 255 0
-1.079311 0.387660 0.114271 0 255 0
-1.066464 0.362703 -0.041148 0 255 0
-1.111958 0.350848 0.075595 0 255 0
-1.153982 0.437992 0.114123 0 255 0
-1.033019 0.447577 -0.129380 0 255 0
-1.214192 0.394085 -0.214932 0 255 0
-1.204672 0.315186 -0.107148 0 255 0
-1.023350 0.413821 -0.090902 0 255 0
-1.142135 0.306371 -0.071148 0 255 0
-1.224438 0.433896 -0.080148 0 255 0
-1.092397 0.358502 0.102852 0 255 0
-1.122159 0.348554 0.045852 0 255 0
-1.178179 0.298340 -0.101148 0 255 0
-1.205223 0.366392 -0.218148 0 255 0
-1.039506 0.354804 -0.082878 0 255 0
-1.180575 0.401743 0.078852 0 255 0
-1.064766 0.380629 -0.234945 0 255 0
-1.187195 0.350095 -0.042428 0 255 0
-1.060024 0.405431 -0.236148 0 255 0
-1.199165 0.350932 -0.212495 0 255 0
-1.098613 0.326666 -0.227148 0 255 0
-1.200960 0.369101 -0.041148 0 255 0
-1.201083 0.323516 -0.086148 0 255 0
-1.102771 0.353213 0.097636 0 255 0
-1.159689 0.442395 0.117852 0 255 0
-1.056070 0.322881 -0.143148 0 255 0
-1.235122 0.413593 -0.143148 0 255 0
-1.173549 0.373199 0.079984 0 255 0
-1.228858 0.442388 -0.092148 0 255 0
-1.178280 0.391574 0.118560 0 255 0
-1.103284 0.302871 -0.167148 0 255 0
-1.186985 0.353087 -0.035115 0 255 0
-1.093536 0.356271 0.009852 0 255 0
-1.220670 0.421604 -0.077148 0 255 0
-1.089126 0.376318 0.116984 0 255 0
-1.174461 0.346197 -0.029148 0 255 0
-1.184471 0.346034 -0.236148 0 255 0
-1.047635 0.324568 -0.098148 0 255 0
-1.195233 0.364151 -0.236148 0 255 0
-1.073355 0.420325 -0.005148 0 255 0
-1.233066 0.356310 -0.110148 0 255 0
-1.063155 0.341422 -0.203148 0 255 0
-1.217452 0.347451 -0.101148 0 255 0
-1.179824 0.340557 -0.230148 0 255 0
-1.035588 0.375582 -0.170148 0 255 0
-1.231292 0.364569 -0.089148 0 255 0
-1.033944 0.434349 -0.092148 0 255 0
-1.155637 0.328305 -0.041148 0 255 0
-1.204607 0.316114 -0.095148 0 255 0
-1.159665 0.313716 -0.200148 0 255 0
-1.232759 0.407413 -0.083148 0 255 0
-1.079657 0.414751 0.021852 0 255 0
-1.099321 0.359544 0.057852 0 255 0
-1.125877 0.323826 -0.233148 0 255 0
-1.058812 0.323074 -0.086148 0 255 0
-1.175963 0.406449 0.045852 0 255 0
-1.218837 0.413664 -0.068148 0 255 0
-1.045456 0.379278 -0.203148 0 255 0
-1.090338 0.401983 0.117852 0 255 0
-1.210534 0.384808 -0.068148 0 255 0
-1.232506 0.413410 -0.134148 0 255 0
-1.029384 0.432287 -0.098148 0 255 0
-1.178581 0.344243 -0.038148 0 255 0
-1.060086 0.458492 -0.074148 0 255 0
-1.216059 0.328054 -0.110148 0 255 0
-1.060200 0.335199 -0.146148 0 255 0
-1.104236 0.332264 -0.242747 0 255 0
-1.099967 0.307307 -0.179148 0 255 0
-1.076876 0.399520 -0.011148 0 255 0
-1.109223 0.293518 -0.131148 0 255 0
-1.152098 0.440868 0.117852 0 255 0
-1.063091 0.361582 -0.047148 0 255 0
-1.101452 0.329063 -0.041910 0 255 0
-1.088432 0.406343 0.048852 0 255 0
-1.188844 0.386298 -0.260148 0 255 0
-1.101888 0.293005 -0.092148 0 255 0
-1.117651 0.441466 0.113736 0 255 0
-1.113347 0.330994 -0.242148 0 255 0
-1.056835 0.365037 -0.055739 0 255 0
-1.040937 0.334349 -0.110148 0 255 0
-1.084710 0.418111 0.078852 0 255 0
-1.213602 0.336905 -0.155148 0 255 0
