ply
format ascii 1.0
element vertex 1228
property float x
property float y
property float z
property uchar red
property uchar green
property uchar blue
end_header
-0.872695 -0.497088 1.079560 118 75 20
-0.425769 -0.536181 0.775117 125 94 62
-0.421664 -0.528226 0.760694 134 95 71
-0.641531 -0.627847 0.458302 56 38 8
-0.644042 -0.607513 0.464594 39 24 8
-0.641981 -0.606517 0.457676 61 42 18
-0.458964 -0.513317 0.744590 138 104 49
-0.444173 -0.526443 0.752716 156 124 62
-0.457705 -0.519157 0.754991 117 85 37
-0.441880 -0.519152 0.732861 155 126 62
-0.492719 -0.487326 0.700471 123 97 56
-0.504149 -0.498309 0.676639 140 119 76
-0.519781 -0.502257 0.681449 108 89 48
-0.505814 -0.490457 0.692594 103 82 39
-0.201313 -0.508777 0.615838 144 99 39
-0.588447 -0.513561 0.851332 75 44 13
-0.588116 -0.521436 0.885917 63 34 5
-0.181486 -0.504762 0.701976 157 109 45
-0.175477 -0.503634 0.741713 156 107 45
-0.642518 -0.503447 0.870712 162 106 33
-0.478399 -0.541965 0.480947 98 60 13
-0.464563 -0.548100 0.472957 75 48 10
-0.474617 -0.534844 0.499790 136 107 52
-0.483258 -0.535104 0.488337 141 102 41
-0.471591 -0.560831 0.473131 69 43 9
-0.486965 -0.532727 0.504479 154 126 66
-0.605966 -0.658043 0.933284 137 122 77
-0.742725 -0.502836 0.803462 176 121 31
-0.745240 -0.501827 0.822992 165 112 26
-0.759622 -0.502497 0.811963 171 117 30
-0.781474 -0.502924 0.816708 163 107 26
-0.710842 -0.653888 0.989423 41 34 14
-0.206410 -0.500072 0.956948 119 81 34
-0.205216 -0.503697 0.947410 65 35 10
0.062299 -0.488815 0.945490 140 101 46
0.047590 -0.489028 0.933229 147 103 48
0.056857 -0.493998 0.926657 149 107 50
-0.020754 -0.496312 1.043375 99 69 16
-0.031142 -0.495987 1.045936 106 68 26
-0.042028 -0.487467 1.047460 102 68 18
-0.030160 -0.494348 1.035315 110 73 29
-0.034621 -0.495253 1.025717 112 75 26
-0.625177 -0.559642 0.421674 59 33 13
-0.599205 -0.523752 0.365099 95 67 21
-0.605952 -0.518452 0.352447 122 75 18
-0.615134 -0.513978 0.370087 128 81 14
-0.597175 -0.527016 0.364063 86 66 27
-0.605985 -0.517290 0.375302 121 74 18
-0.353434 -0.529552 0.578711 167 144 88
-0.864772 -0.507196 0.397713 138 81 20
-0.086046 -0.494227 0.918384 127 86 38
-0.058207 -0.492721 0.918700 127 88 31
-0.055534 -0.494259 0.897160 136 95 36
-0.396162 -0.523364 0.671948 36 24 12
-0.579775 -0.573653 1.065668 52 41 22
-0.568219 -0.556215 1.060936 53 38 20
-0.420496 -0.573602 0.480130 64 47 13
-0.422602 -0.562328 0.475545 62 44 10
-0.632346 -0.624025 1.054659 35 23 11
-0.586186 -0.535839 0.516862 177 156 98
-0.553636 -0.692447 1.067419 36 23 8
-0.775141 -0.509393 0.413462 145 92 13
-0.754893 -0.508995 0.434962 147 89 11
-0.770397 -0.509146 0.434462 147 89 15
0.091118 -0.509355 0.448922 153 101 35
0.108057 -0.509008 0.440929 155 107 41
0.083642 -0.492376 0.475386 222 201 161
0.082327 -0.508187 0.456269 176 136 75
0.083709 -0.506446 0.464837 192 167 114
0.033339 -0.505465 0.536838 214 193 180
0.059927 -0.503936 0.554712 234 217 202
0.019476 -0.506036 0.552463 215 197 181
-0.871122 -0.504450 0.568963 153 98 19
-0.855614 -0.504421 0.553963 151 95 16
-0.566717 -0.658588 0.488146 39 25 7
-0.569843 -0.662139 0.475653 90 58 22
-0.558757 -0.675316 0.490596 37 26 11
-0.865423 -0.508585 0.298195 150 95 14
-0.473089 -0.500716 0.636111 162 140 87
-0.201004 -0.510456 0.483962 152 98 32
-0.591433 -0.487639 1.151257 115 79 25
-0.563415 -0.483948 1.161382 113 75 24
-0.559077 -0.479824 1.166709 107 74 25
-0.581304 -0.481186 1.163064 108 76 30
-0.678266 -0.632481 1.041326 38 27 14
-0.669343 -0.625968 1.052721 38 23 13
-0.025084 -0.501125 0.803661 153 107 43
-0.023252 -0.500253 0.814963 151 104 42
-0.036800 -0.499116 0.817462 150 104 40
-0.500040 -0.502991 0.869527 152 137 99
-0.209560 -0.441573 0.487962 170 111 30
-0.094070 -0.489459 1.013245 114 76 23
-0.073402 -0.490032 0.992126 123 85 35
-0.087368 -0.488825 0.990562 114 77 33
-0.102757 -0.488082 1.001004 112 74 30
-0.079084 -0.488811 1.024176 114 77 28
-0.600019 -0.631758 1.039622 56 41 22
-0.405875 -0.555971 0.314815 119 92 40
-0.411824 -0.564372 0.336259 121 94 41
-0.400683 -0.550099 0.332344 124 94 42
-0.396136 -0.547297 0.333055 128 99 46
-0.524567 -0.542046 1.055229 52 37 9
-0.521387 -0.536480 1.056132 54 38 13
-0.502233 -0.527786 1.061844 64 41 15
-0.509045 -0.542457 1.062613 57 40 12
-0.508903 -0.561725 1.062465 59 40 15
-0.172904 -0.512837 0.357962 147 92 25
-0.203080 -0.513050 0.382212 141 94 20
-0.626703 -0.559846 0.438430 60 38 9
-0.604408 -0.539463 0.461554 34 17 6
-0.468678 -0.630832 0.414645 45 47 15
-0.478516 -0.605972 0.419635 72 62 30
-0.484884 -0.595827 0.419046 98 82 48
-0.619369 -0.460342 1.170880 118 84 34
-0.593134 -0.439261 1.169308 115 86 31
-0.434488 -0.537278 0.583932 198 177 109
-0.456514 -0.552716 0.595059 202 182 115
-0.442829 -0.552560 0.593837 207 188 125
-0.860526 -0.507019 0.429462 145 90 19
-0.871190 -0.506083 0.449838 147 90 12
-0.717960 -0.682654 0.912111 35 23 6
-0.633037 -0.653401 1.014203 47 33 18
-0.632001 -0.661924 1.000384 51 38 21
-0.562770 -0.530777 0.637654 104 89 45
-0.571667 -0.537186 0.645279 39 29 12
-0.565885 -0.523778 0.656067 47 36 18
-0.557252 -0.517962 0.662512 50 38 22
-0.100057 -0.507194 0.544213 153 102 32
-0.660078 -0.502018 0.866462 156 103 33
-0.644532 -0.624168 1.053200 31 18 7
-0.652061 -0.617167 1.060548 31 18 7
-0.633420 -0.598201 1.067254 38 25 11
-0.621052 -0.617146 1.058648 34 21 9
-0.633765 -0.610877 1.062030 33 20 8
-0.578431 -0.743492 1.057559 28 20 13
-0.578005 -0.726686 1.063125 27 18 10
-0.565866 -0.734709 1.059911 28 19 9
-0.557894 -0.735005 1.053888 30 19 15
-0.572572 -0.569276 0.620615 174 153 95
-0.563077 -0.560717 0.624624 183 162 103
-0.574075 -0.564852 0.635493 179 157 99
-0.397619 -0.516208 0.566151 211 197 109
-0.374338 -0.509201 0.556858 224 204 126
-0.375009 -0.515627 0.568515 206 192 110
-0.358412 -0.512263 0.560140 210 190 103
-0.412611 -0.510925 0.548598 224 207 125
-0.407677 -0.513212 0.559146 205 187 113
-0.389145 -0.508660 0.546925 225 205 121
-0.756653 -0.508202 0.558343 152 93 17
-0.479704 -0.656319 0.335465 107 92 47
-0.480278 -0.632812 0.374163 84 71 44
-0.475504 -0.636676 0.370053 102 89 52
-0.472562 -0.621516 0.373268 85 71 41
-0.467223 -0.628418 0.372905 97 82 43
-0.467261 -0.655031 0.356636 83 68 36
-0.475202 -0.653026 0.358581 106 90 49
-0.454177 -0.649320 0.369479 98 79 37
-0.483111 -0.653483 0.357593 77 62 34
-0.463383 -0.650437 0.371852 106 85 43
-0.467144 -0.645339 0.371589 114 97 58
-0.484917 -0.643477 0.372845 84 69 42
-0.475284 -0.644421 0.366414 117 101 58
-0.675166 -0.502102 0.846808 161 107 26
-0.105968 -0.510052 0.454153 147 101 24
-0.138938 -0.509549 0.444545 148 97 25
-0.485606 -0.529547 0.579349 191 164 101
-0.466853 -0.525020 0.574791 197 176 116
-0.478482 -0.522174 0.572854 202 183 112
-0.536656 -0.559332 0.600919 196 177 115
-0.429333 -0.570112 0.625964 170 152 98
-0.458219 -0.573294 0.631954 144 128 80
-0.429462 -0.567726 0.610115 209 186 121
-0.416557 -0.566295 0.602347 214 193 128
-0.440158 -0.563337 0.606412 209 190 121
-0.439167 -0.561470 0.599639 211 194 123
-0.456258 -0.563015 0.630207 136 123 77
-0.457094 -0.561382 0.620633 194 177 111
0.071718 -0.495535 0.887594 162 118 55
0.075406 -0.500869 0.868699 157 112 53
0.062527 -0.497303 0.875234 158 120 48
-0.629560 -0.667213 0.381741 105 88 48
-0.607198 -0.517103 0.419479 82 45 11
-0.603336 -0.526617 0.423963 63 37 7
-0.603048 -0.522492 0.429378 63 35 7
-0.619192 -0.512369 0.425963 140 88 11
-0.604363 -0.518692 0.447175 117 72 15
-0.609124 -0.515478 0.448338 135 85 22
-0.399487 -0.536791 0.651304 100 81 46
-0.417931 -0.533300 0.651164 106 89 51
-0.414836 -0.536348 0.659146 105 87 49
-0.402927 -0.530128 0.659200 95 80 44
-0.422238 -0.536838 0.659977 107 91 58
-0.879731 -0.501467 0.853962 144 91 14
-0.751848 -0.500301 0.888664 157 99 25
-0.416238 -0.534527 0.746788 143 124 75
-0.430976 -0.534108 0.748069 128 101 45
-0.397813 -0.541795 0.741443 110 87 37
-0.635310 -0.509283 0.620962 165 108 10
-0.578714 -0.703082 1.039433 27 18 10
-0.576209 -0.656071 0.982074 129 92 62
-0.553353 -0.543841 0.729541 90 53 11
-0.591310 -0.561726 0.748506 105 64 15
-0.566960 -0.557165 0.736692 109 66 12
-0.580085 -0.553931 0.746895 99 60 14
-0.582167 -0.540789 0.752088 84 59 31
-0.588384 -0.530717 0.755364 84 53 25
-0.564832 -0.540457 0.749693 120 89 43
-0.511361 -0.516967 1.078761 105 63 22
-0.503622 -0.515403 1.075328 115 72 24
-0.492885 -0.532954 1.059920 58 38 10
-0.505287 -0.519916 1.065069 90 62 24
-0.499440 -0.502669 1.083944 118 75 17
-0.832618 -0.503514 0.716212 167 111 19
-0.626257 -0.564475 0.491311 33 21 5
-0.630440 -0.565797 0.477346 50 23 4
-0.402361 -0.483862 0.915425 42 29 29
-0.363932 -0.490897 0.880132 97 88 47
-0.385758 -0.483629 0.875096 176 152 111
-0.387126 -0.490333 0.851294 144 118 82
-0.402491 -0.478911 0.872390 126 101 62
-0.375031 -0.485567 0.880906 136 111 79
-0.503017 -0.565791 0.647798 149 135 90
-0.521042 -0.565415 0.648580 163 144 96
-0.495450 -0.567502 0.644211 185 164 105
-0.487867 -0.568730 0.636476 219 202 135
-0.511106 -0.568455 0.637875 182 164 102
-0.169591 -0.488329 1.017976 101 62 21
-0.196512 -0.495461 1.040586 93 57 18
-0.195182 -0.492134 1.027461 93 57 18
-0.183716 -0.492040 1.046148 101 64 20
-0.201747 -0.490932 1.046608 60 33 8
-0.186220 -0.490322 1.026056 93 59 17
-0.055812 -0.510738 0.433935 179 143 107
-0.465759 -0.510900 0.723253 135 113 70
-0.464543 -0.508513 0.704753 135 118 72
-0.471809 -0.503385 0.716088 161 132 78
-0.659451 -0.505656 0.741962 170 112 31
-0.437487 -0.532282 0.765863 108 90 52
-0.434541 -0.541590 0.791758 142 98 70
-0.432872 -0.544241 0.782937 113 89 57
-0.446256 -0.537465 0.775405 125 109 70
-0.442973 -0.540986 0.783462 129 107 71
-0.444942 -0.534190 0.786586 127 105 69
-0.639676 -0.498879 1.016962 125 76 22
-0.196662 -0.418359 0.903963 149 102 39
-0.487684 -0.572122 0.484729 67 45 10
-0.488535 -0.595162 0.480025 58 39 6
-0.475259 -0.572454 0.479312 60 41 7
-0.487106 -0.559390 0.477580 65 46 9
-0.599932 -0.518246 0.622611 123 77 25
-0.613890 -0.509385 0.618471 163 107 22
-0.602520 -0.545209 0.592768 91 55 18
-0.602924 -0.539901 0.637981 79 49 17
-0.599214 -0.525675 0.628735 86 53 19
-0.599882 -0.525218 0.604807 92 54 19
-0.606352 -0.510779 0.621476 166 110 26
-0.458352 -0.519058 0.524659 182 168 100
-0.431162 -0.515451 0.525366 191 175 108
-0.602718 -0.536337 0.608767 72 45 16
-0.867749 -0.500752 0.919963 130 82 18
-0.867739 -0.501028 0.908462 141 91 19
-0.440948 -0.652012 1.055963 76 52 14
-0.461547 -0.630788 1.062299 54 36 14
-0.443870 -0.636002 1.054397 49 33 6
-0.435953 -0.635661 1.056626 68 43 15
-0.478825 -0.504519 0.805735 143 122 76
-0.491802 -0.515036 0.811588 105 84 49
-0.465670 -0.497955 0.808838 151 128 83
-0.472646 -0.496809 0.816606 143 121 71
-0.468036 -0.500143 0.797970 159 138 88
0.007686 -0.497773 0.930035 142 98 52
-0.013324 -0.496305 0.889028 139 97 43
0.004745 -0.497482 0.910736 146 102 47
-0.664612 -0.671092 0.966026 14 11 6
-0.657468 -0.668181 0.986272 42 32 17
-0.665783 -0.667436 0.982369 36 29 13
-0.812231 -0.507466 0.412463 143 88 12
-0.789875 -0.508299 0.414213 143 86 12
-0.024902 -0.514444 0.267963 148 101 28
0.002737 -0.513822 0.294838 143 98 26
-0.001763 -0.513885 0.317463 153 104 41
-0.201436 -0.465680 0.944343 138 94 33
-0.199147 -0.440868 0.918240 140 97 36
-0.197517 -0.431397 0.939963 139 96 32
-0.472207 -0.505001 0.897756 102 79 51
-0.494250 -0.502837 0.893151 98 79 53
-0.469137 -0.500240 0.911591 86 74 48
-0.468938 -0.506474 0.911879 101 81 52
-0.903784 -0.500387 0.984587 120 71 19
-0.585045 -0.513675 0.970787 78 48 15
-0.588222 -0.509594 0.956443 107 69 22
-0.588392 -0.521880 0.949204 55 33 15
-0.587396 -0.510040 0.977621 103 68 15
-0.483080 -0.505539 0.795654 78 60 31
-0.463855 -0.506284 0.759615 183 162 113
-0.137137 -0.486844 1.085894 125 86 31
-0.369637 -0.547027 0.352549 131 95 41
-0.391323 -0.547689 0.328809 125 95 45
-0.373679 -0.549528 0.322815 131 96 43
-0.208250 -0.510638 0.636087 114 69 22
-0.208188 -0.508925 0.655516 111 71 24
-0.213266 -0.508150 0.633843 106 72 21
-0.213617 -0.495100 0.634443 158 109 42
-0.212713 -0.498067 0.673444 155 111 44
-0.212612 -0.503266 0.652641 164 111 41
-0.347237 -0.525496 0.493375 103 72 19
-0.360906 -0.515404 0.509943 134 117 67
-0.346297 -0.517866 0.503964 133 115 64
-0.497884 -0.613361 0.481407 54 35 10
-0.002968 -0.495543 0.935506 141 99 43
-0.012100 -0.495930 0.914931 138 99 47
0.007257 -0.496804 0.953236 135 94 45
-0.458048 -0.581898 1.063682 55 33 17
-0.471829 -0.586876 1.062410 52 34 12
-0.487726 -0.587406 1.064068 55 34 15
-0.457425 -0.571228 1.062447 51 35 11
-0.478012 -0.565802 1.061809 51 34 13
-0.537081 -0.421270 1.165744 113 86 36
-0.554410 -0.430010 1.165566 114 86 34
-0.556402 -0.548148 0.589233 180 157 99
-0.546941 -0.556043 0.595950 206 184 127
-0.538810 -0.534736 0.580819 181 160 104
-0.520694 -0.548276 0.589518 195 175 114
-0.658214 -0.451742 1.171812 115 85 34
-0.680418 -0.460172 1.173006 116 85 35
0.050345 -0.508915 0.432337 141 107 50
-0.493677 -0.642580 0.377667 78 63 35
-0.490736 -0.622422 0.355498 92 79 45
-0.498959 -0.643947 0.365660 98 86 47
-0.498977 -0.650618 0.356050 92 77 45
-0.494127 -0.656328 0.355522 78 64 37
-0.494114 -0.652714 0.366489 82 71 39
-0.767014 -0.508763 0.498962 144 90 21
-0.613596 -0.514968 0.263962 114 75 16
-0.593412 -0.528066 0.284411 167 139 84
-0.606871 -0.518098 0.278990 100 63 15
-0.610264 -0.515117 0.301611 126 78 21
-0.601523 -0.524258 0.278799 94 61 15
-0.596896 -0.524953 0.294918 103 72 20
-0.499588 -0.469713 0.627658 93 77 45
-0.211855 -0.451116 0.398588 160 104 26
-0.213886 -0.460986 0.377963 165 108 32
-0.097031 -0.504828 0.629693 155 105 47
-0.112870 -0.503033 0.666423 161 111 46
-0.089184 -0.503359 0.663962 204 175 148
-0.072992 -0.501411 0.737462 150 104 40
-0.049491 -0.501030 0.744963 152 106 43
-0.053277 -0.500069 0.771962 143 99 33
-0.113805 -0.514645 0.288212 139 86 30
-0.085665 -0.514574 0.293338 134 89 25
-0.184226 -0.503795 0.763962 144 99 35
-0.193203 -0.504627 0.779962 143 98 31
-0.197154 -0.506101 0.793462 142 97 36
-0.205077 -0.508328 0.777130 121 82 33
-0.812159 -0.503605 0.752220 160 105 23
-0.057233 -0.512125 0.390212 144 98 39
-0.073540 -0.510790 0.412587 145 94 32
-0.084911 -0.511102 0.383962 140 93 19
-0.060829 -0.513041 0.367963 143 94 29
-0.469527 -0.563039 0.605921 205 185 119
-0.456778 -0.561790 0.616976 211 191 125
-0.470144 -0.567259 0.626478 199 180 119
-0.480587 -0.567345 0.620197 205 185 121
-0.460558 -0.559968 0.623931 215 194 132
0.113490 -0.504791 0.586587 243 234 218
0.079139 -0.509670 0.429962 162 115 43
-0.649866 -0.504281 0.806962 170 115 25
-0.643540 -0.502827 0.841963 164 108 29
-0.201208 -0.505016 0.928173 109 69 29
-0.190856 -0.502056 0.911003 111 71 31
-0.055164 -0.496363 0.881959 144 100 51
-0.014900 -0.497577 0.870346 140 98 32
-0.028323 -0.496362 0.887342 146 99 48
-0.384670 -0.491694 0.929843 51 42 28
-0.387221 -0.517996 0.949611 57 43 23
-0.373263 -0.513928 0.950864 59 41 19
-0.637861 -0.586679 1.085102 36 23 11
-0.364513 -0.499186 0.938488 64 43 16
-0.587972 -0.512181 0.926225 84 53 20
-0.587771 -0.515152 0.896336 80 49 9
-0.638562 -0.623730 0.367446 88 73 36
-0.647849 -0.609965 0.353360 93 74 38
-0.647260 -0.602499 0.344806 94 71 39
-0.640684 -0.618642 0.346703 121 98 54
-0.648342 -0.604901 0.371882 84 66 39
-0.640148 -0.615135 0.386211 87 72 39
-0.641788 -0.614809 0.370261 87 70 39
-0.635696 -0.633992 0.381476 87 74 34
0.038978 -0.505750 0.508962 233 219 202
-0.531228 -0.512228 1.082503 108 68 15
-0.548412 -0.509524 1.087664 108 70 16
-0.439640 -0.556079 0.472459 59 41 6
-0.442977 -0.541993 0.473198 67 44 12
-0.450331 -0.536800 0.475416 70 48 8
-0.146835 -0.514368 0.289962 136 83 30
-0.168885 -0.513298 0.295963 134 83 17
-0.164622 -0.513596 0.312962 136 84 21
-0.485574 -0.503968 0.824455 137 115 72
-0.682644 -0.500522 0.953587 136 88 29
-0.781550 -0.504945 0.665963 164 105 23
-0.800690 -0.505466 0.648702 168 107 24
-0.422799 -0.606093 1.059818 75 51 13
-0.158322 -0.503319 0.691024 146 97 41
-0.393434 -0.481007 0.886269 128 103 67
-0.402295 -0.476943 0.892012 135 110 71
-0.419017 -0.473002 0.870990 140 119 79
-0.450510 -0.643878 0.743002 42 25 9
-0.435537 -0.636574 0.740059 45 27 8
-0.436247 -0.618695 0.742739 58 35 7
-0.579735 -0.657434 0.380733 91 80 50
-0.593550 -0.648360 0.402695 93 78 41
-0.600970 -0.651013 0.402317 104 89 47
-0.592065 -0.663377 0.385743 104 93 51
-0.593927 -0.647110 0.383278 108 92 51
-0.617529 -0.653134 0.412008 81 66 36
-0.586189 -0.655629 0.393709 102 91 52
-0.573835 -0.658951 0.401044 87 78 41
-0.010964 -0.499511 1.037687 114 77 23
-0.002440 -0.502321 1.034955 105 74 23
-0.541691 -0.586343 0.368991 92 78 48
-0.539645 -0.581585 0.372784 127 113 67
-0.549938 -0.574453 0.372760 105 90 47
-0.548988 -0.565725 0.379739 111 94 48
-0.525766 -0.602805 0.373895 156 145 103
-0.525032 -0.577891 0.371368 172 154 88
-0.548420 -0.596869 0.363203 133 119 74
-0.611083 -0.548602 0.876486 39 27 12
-0.599154 -0.538279 0.870163 53 33 13
-0.823636 -0.497581 1.107439 110 65 25
-0.814648 -0.496133 1.120361 109 67 19
-0.615586 -0.553412 1.047926 36 23 13
-0.611565 -0.548003 1.021943 33 24 9
-0.611705 -0.548367 1.040039 35 23 14
-0.603255 -0.539915 1.041189 37 25 10
-0.604621 -0.549619 1.060033 36 25 10
-0.441311 -0.479086 0.678464 137 117 69
-0.450495 -0.493047 0.691217 128 107 59
-0.432299 -0.482408 0.668987 130 114 71
-0.437490 -0.504722 0.682689 117 100 60
-0.444684 -0.484275 0.684419 137 114 71
-0.461334 -0.491135 0.684231 135 113 68
-0.435456 -0.475070 0.664594 133 118 76
-0.143972 -0.501417 0.736713 148 102 43
-0.113544 -0.500888 0.712720 146 100 43
-0.123266 -0.501586 0.729963 150 102 38
-0.509450 -0.486564 1.155826 99 67 20
-0.487742 -0.479340 1.163137 95 68 21
-0.512681 -0.481353 1.162682 99 67 27
-0.508325 -0.474525 1.164248 103 77 27
-0.206639 -0.476203 0.892513 138 95 36
-0.205447 -0.477702 0.910963 141 96 37
-0.647209 -0.497915 0.370683 61 42 14
-0.639426 -0.497944 0.372786 53 34 13
-0.633193 -0.508987 0.365593 61 40 10
-0.644666 -0.498382 0.358291 49 34 6
-0.559578 -0.658829 0.381391 124 117 76
-0.541940 -0.662936 0.380467 129 120 82
-0.568141 -0.659665 0.382734 109 97 55
-0.572380 -0.658094 0.388681 107 95 52
-0.586063 -0.656425 0.404550 111 99 59
0.059620 -0.501773 0.655374 208 198 184
0.078918 -0.503339 0.663962 232 219 203
0.077225 -0.503940 0.646501 233 219 203
0.094433 -0.503511 0.660963 233 221 204
-0.697505 -0.506568 0.700087 165 107 21
-0.708199 -0.506578 0.717087 164 109 26
-0.676423 -0.506771 0.702087 168 111 31
-0.448679 -0.649510 0.281849 115 88 41
-0.451386 -0.649127 0.301511 103 85 37
-0.447615 -0.667721 1.047678 53 37 18
-0.647862 -0.494422 1.108092 120 76 16
-0.645107 -0.493103 1.133513 116 74 15
-0.635465 -0.494469 1.117294 116 71 19
-0.654491 -0.485282 1.154254 123 79 24
-0.638512 -0.488307 1.147563 114 74 20
-0.413683 -0.494777 0.817209 120 66 51
-0.422358 -0.486050 0.827532 70 54 37
-0.072263 -0.509859 0.443480 215 194 175
-0.062601 -0.507490 0.459596 221 197 183
-0.602606 -0.661620 0.478867 71 51 16
-0.596584 -0.664228 0.473926 88 70 38
-0.600704 -0.668415 0.444362 88 66 30
-0.594015 -0.666574 0.464994 84 65 29
-0.607491 -0.666530 0.460566 76 55 22
-0.608834 -0.666481 0.443042 84 63 28
-0.608565 -0.651434 0.427541 76 58 26
-0.614379 -0.641732 0.429836 64 50 20
-0.750682 -0.503192 0.775017 180 123 23
-0.774958 -0.503448 0.768475 171 117 32
-0.761623 -0.502519 0.786962 171 117 22
-0.603800 -0.654574 0.416007 82 64 31
-0.612145 -0.649561 0.419605 78 61 29
-0.609778 -0.500775 0.984307 137 86 28
-0.676220 -0.501559 0.936881 140 91 28
0.074305 -0.500834 0.804223 183 139 66
0.053428 -0.499159 0.796740 181 140 66
0.066800 -0.500010 0.826324 183 137 59
0.058117 -0.500155 0.812873 178 132 63
0.035917 -0.511218 0.323462 156 107 36
0.040183 -0.511610 0.292713 155 106 35
-0.584887 -0.558528 0.807022 62 51 30
-0.567678 -0.561034 0.802417 75 59 34
-0.559840 -0.544540 0.802998 72 57 28
-0.566865 -0.539918 0.794836 68 54 33
-0.576790 -0.554001 0.804321 62 50 30
-0.587173 -0.543028 0.800848 38 27 12
-0.357064 -0.542591 0.344451 126 90 42
-0.357866 -0.544621 0.329171 128 97 40
-0.209854 -0.495366 0.823462 156 109 42
-0.625915 -0.512566 0.330841 121 75 17
-0.640494 -0.510194 0.333075 52 28 7
-0.637601 -0.502172 0.349050 46 28 4
-0.167093 -0.501478 0.830414 133 87 34
-0.146767 -0.498536 0.842322 138 93 31
-0.162832 -0.500388 0.844963 135 90 33
-0.139144 -0.498215 0.865462 141 94 39
-0.135228 -0.502907 0.662463 156 108 46
-0.510059 -0.680977 0.476808 56 43 16
-0.493195 -0.675136 0.466448 52 46 13
-0.191137 -0.506485 0.623962 155 106 43
-0.195910 -0.507111 0.638727 151 101 41
-0.192971 -0.505699 0.657561 153 105 43
-0.525998 -0.657975 0.485123 44 30 7
-0.520842 -0.646890 0.484655 43 28 6
-0.673120 -0.674518 0.934962 13 13 5
-0.007775 -0.496722 0.948305 129 92 39
0.017796 -0.491364 0.971108 133 92 35
0.005871 -0.495252 0.974396 123 83 31
-0.120350 -0.506602 0.518732 152 104 30
-0.134093 -0.506730 0.525963 147 97 31
-0.461254 -0.530526 0.291403 145 121 75
-0.687253 -0.511829 0.408588 133 83 13
-0.699775 -0.511417 0.417962 137 85 11
-0.700873 -0.510902 0.454851 140 82 14
-0.701545 -0.510850 0.428963 145 87 11
-0.819671 -0.501500 0.845423 159 101 23
-0.846705 -0.501659 0.855962 151 100 17
-0.209478 -0.483418 1.096739 134 87 31
-0.213933 -0.489849 1.106502 126 88 25
-0.206686 -0.474742 1.088988 130 84 27
-0.718667 -0.500507 0.916462 147 98 21
-0.775692 -0.500773 0.899962 145 92 26
-0.038091 -0.505119 0.549962 213 194 176
-0.026826 -0.505345 0.573462 221 202 189
-0.053119 -0.504572 0.573963 210 192 176
-0.494899 -0.472531 0.596039 165 142 96
-0.504390 -0.474317 0.601886 134 113 62
-0.607361 -0.580890 0.657010 107 90 55
-0.614513 -0.595466 0.669102 122 103 63
-0.612410 -0.586900 0.664414 81 68 40
-0.619568 -0.578491 0.658028 41 27 14
-0.611984 -0.574643 0.645778 30 18 9
-0.598685 -0.575061 0.646154 129 108 63
-0.370162 -0.511142 0.756370 28 29 48
-0.398410 -0.509335 0.766751 27 34 60
-0.370909 -0.520725 0.750917 34 28 33
-0.400409 -0.523400 0.754464 31 28 48
-0.376330 -0.506061 0.761576 29 29 48
-0.375014 -0.528855 0.739539 136 111 68
0.074098 -0.494472 0.966027 132 91 38
0.073801 -0.493370 0.943810 141 102 41
0.100481 -0.491824 0.965932 149 104 50
0.113001 -0.497455 0.955646 153 105 42
-0.645252 -0.664913 0.913908 47 32 11
-0.633763 -0.665072 0.921565 36 24 10
-0.643806 -0.583905 0.475249 43 27 6
-0.637259 -0.572587 0.483193 39 25 4
-0.650700 -0.596345 0.486569 32 17 3
-0.651876 -0.603779 0.474511 45 29 10
-0.646979 -0.587366 0.488062 31 17 3
-0.024923 -0.493132 0.952156 136 92 45
-0.016065 -0.495593 0.938065 137 97 42
-0.031655 -0.493799 0.933881 132 91 44
-0.038038 -0.494476 0.949206 136 94 43
-0.001227 -0.498490 0.982212 118 83 28
-0.004532 -0.505484 1.019402 122 81 30
-0.001162 -0.503134 1.008858 117 79 29
-0.499267 -0.647492 0.484814 43 29 6
-0.498681 -0.632480 0.483885 42 29 7
-0.209493 -0.425686 0.372526 173 117 29
-0.837153 -0.506318 0.481117 147 92 9
-0.550611 -0.543450 0.368473 91 77 37
-0.528171 -0.533222 0.367688 103 87 47
-0.539810 -0.536343 0.368650 100 81 41
-0.535455 -0.562217 0.343476 105 87 57
-0.535340 -0.540127 0.352251 112 91 48
-0.558576 -0.540832 0.355642 94 77 43
-0.524584 -0.541147 0.356392 104 85 48
-0.705782 -0.662720 0.972355 36 29 19
-0.713396 -0.653838 0.976623 59 46 22
-0.709226 -0.666199 0.954188 47 38 23
-0.699562 -0.667399 0.984535 24 19 12
-0.706610 -0.654028 0.981348 52 41 22
-0.705992 -0.655102 0.962868 47 38 23
-0.700792 -0.503765 0.786962 167 111 27
-0.099864 -0.499712 0.771015 146 102 35
-0.088971 -0.500360 0.793031 143 98 29
-0.070754 -0.500316 0.766164 144 100 31
-0.572315 -0.544324 1.063954 77 57 24
-0.659063 -0.625450 0.689525 34 24 12
-0.663126 -0.629033 0.697697 43 32 18
-0.643080 -0.510193 0.583618 159 102 15
-0.623887 -0.510447 0.574588 161 103 12
-0.092676 -0.511346 0.431928 138 95 31
-0.629446 -0.510498 0.401936 71 43 11
-0.638404 -0.506489 0.406882 79 49 8
-0.617291 -0.512613 0.400714 116 75 14
-0.594061 -0.523340 0.545237 117 87 36
-0.600127 -0.516591 0.541488 149 96 21
-0.608127 -0.512467 0.547707 157 98 27
-0.601903 -0.515743 0.565993 98 64 12
-0.608208 -0.511728 0.576569 160 101 19
-0.591441 -0.526846 0.557396 109 82 36
-0.730886 -0.508780 0.549962 159 100 17
-0.731277 -0.509017 0.562139 159 100 20
-0.748484 -0.506277 0.651962 167 110 21
-0.739441 -0.507330 0.625962 166 110 27
-0.518464 -0.528336 0.789535 75 57 25
-0.419728 -0.584055 0.742433 73 47 12
-0.407115 -0.563360 0.741193 76 51 15
-0.402467 -0.573349 0.738424 76 51 16
-0.416636 -0.555684 0.742019 76 50 17
-0.431078 -0.555313 0.743548 84 59 20
-0.414558 -0.594221 0.739163 70 46 12
-0.684719 -0.503117 0.796859 159 104 28
-0.683791 -0.503547 0.809010 162 108 25
-0.711560 -0.503452 0.809962 166 111 30
-0.012114 -0.513930 0.361387 154 104 35
-0.027821 -0.512690 0.389713 153 103 32
-0.036551 -0.513421 0.347962 153 104 32
-0.471155 -0.441758 1.167947 111 83 26
-0.472044 -0.461435 1.166326 111 80 36
-0.651950 -0.626518 0.502734 39 23 4
-0.649877 -0.625213 0.478821 41 23 8
-0.653852 -0.615683 0.495656 32 18 5
-0.654297 -0.601823 0.494677 31 19 5
-0.655012 -0.615874 0.481155 32 18 3
-0.651133 -0.627397 0.488093 43 26 8
-0.455665 -0.592436 0.306200 79 68 39
-0.416023 -0.480223 0.836821 51 33 17
-0.410978 -0.478381 0.849530 56 39 21
-0.415055 -0.474734 0.858031 194 174 122
-0.400287 -0.489375 0.841371 130 118 84
-0.408642 -0.492147 0.826252 38 27 12
-0.400580 -0.483897 0.855075 120 98 70
-0.497326 -0.595156 0.402958 97 82 46
-0.523941 -0.597561 0.406363 118 102 59
-0.459248 -0.541093 0.312553 125 100 53
-0.458393 -0.556351 0.315901 125 100 53
-0.455337 -0.556703 0.307919 126 103 56
-0.615531 -0.664403 0.452838 65 47 15
-0.636913 -0.654812 0.459920 46 34 8
-0.630857 -0.640463 0.442272 47 36 8
-0.637848 -0.633227 0.446312 47 35 11
-0.643294 -0.641679 0.467452 56 39 10
-0.627949 -0.661836 0.460061 64 45 19
-0.615136 -0.662135 0.470589 60 42 12
-0.457843 -0.611822 0.380972 74 62 34
-0.468576 -0.587503 0.382475 88 79 51
-0.456815 -0.614863 0.400379 73 67 42
-0.488480 -0.619497 0.377474 105 94 56
-0.481564 -0.622621 0.378833 93 80 47
-0.468082 -0.606034 0.413019 79 68 38
-0.467520 -0.597438 0.405811 85 73 43
-0.845350 -0.501047 0.875899 144 92 20
-0.846753 -0.501606 0.893238 148 96 19
-0.871740 -0.501073 0.884712 145 93 26
-0.362523 -0.536372 0.469019 137 104 48
-0.709861 -0.681748 0.922749 39 26 11
-0.712103 -0.687130 0.912914 39 26 8
-0.704544 -0.678803 0.895786 34 23 11
-0.696130 -0.677870 0.904328 37 24 12
-0.682785 -0.678272 0.902900 29 17 8
-0.707477 -0.676422 0.887396 31 21 6
-0.687521 -0.671734 0.892008 31 19 7
-0.712622 -0.677425 0.900284 34 23 6
-0.723414 -0.498492 1.037588 128 80 19
-0.683477 -0.498168 1.045337 128 83 16
-0.721986 -0.498591 1.019418 131 79 21
-0.698524 -0.497973 1.022177 128 79 20
-0.454742 -0.644485 0.428982 46 44 12
-0.084523 -0.507884 0.480213 206 181 159
-0.839885 -0.504201 0.699364 159 104 18
-0.868326 -0.502129 0.694462 161 105 27
-0.859672 -0.502809 0.719963 161 103 20
-0.392879 -0.494337 0.630540 120 103 61
-0.165511 -0.490237 1.083499 124 84 30
-0.165353 -0.490253 1.099893 119 80 25
-0.414624 -0.566657 0.432342 108 88 44
-0.533014 -0.596352 0.370568 134 123 83
0.057908 -0.503414 0.571963 231 218 207
0.074669 -0.504721 0.568157 232 220 207
0.081004 -0.505943 0.558868 237 225 210
0.061985 -0.505553 0.534962 238 225 210
-0.521109 -0.608064 1.064722 48 31 12
-0.499091 -0.602584 1.065520 52 34 14
-0.202585 -0.511866 0.305638 147 89 22
-0.198181 -0.512730 0.333456 148 93 28
-0.439160 -0.429694 1.164547 107 79 35
-0.440001 -0.414793 1.168154 111 78 37
-0.450762 -0.426165 1.167448 111 79 37
-0.619652 -0.494510 1.103681 121 75 14
-0.625321 -0.495628 1.081407 126 79 16
-0.638260 -0.494662 1.090950 121 78 18
0.091626 -0.505088 0.567185 238 228 206
0.097983 -0.504877 0.555212 239 229 210
-0.448777 -0.509405 0.638041 183 164 104
-0.210798 -0.457735 0.535837 171 112 38
-0.434939 -0.529851 0.755441 143 129 77
-0.435858 -0.546937 0.742992 144 122 61
-0.437360 -0.530154 0.744999 175 156 89
-0.442269 -0.571543 0.742601 79 51 13
-0.436746 -0.541287 0.738676 72 46 12
-0.876978 -0.503322 0.598713 161 95 17
0.109192 -0.510653 0.349338 154 107 36
0.090161 -0.510106 0.375962 168 117 42
0.107170 -0.510076 0.369963 158 111 49
-0.545980 -0.533177 0.347795 108 86 56
-0.548694 -0.559076 0.342019 133 113 65
-0.532355 -0.551826 0.322152 193 168 100
-0.541173 -0.561267 0.324148 188 164 94
-0.560327 -0.552936 0.322466 184 159 88
-0.735452 -0.506953 0.685962 170 114 26
-0.742239 -0.505997 0.706963 167 111 16
-0.442927 -0.526292 0.576750 201 178 116
-0.428935 -0.514971 0.596878 198 177 110
-0.456061 -0.518891 0.566930 204 183 114
-0.425558 -0.519593 0.569284 200 180 106
-0.197767 -0.499287 1.064763 96 59 15
-0.197101 -0.489354 1.082895 123 85 18
-0.202289 -0.496752 1.059173 83 48 11
-0.183390 -0.491579 1.066014 105 68 22
-0.618947 -0.596322 0.330823 119 99 52
-0.610211 -0.585215 0.335065 119 96 59
-0.595787 -0.569757 0.330790 120 95 51
-0.611014 -0.580642 0.326281 118 100 53
-0.613484 -0.577087 0.324478 110 93 54
-0.604785 -0.571381 0.325499 119 100 53
-0.071773 -0.506408 0.512613 212 190 173
-0.774912 -0.486236 1.155061 115 79 33
-0.761456 -0.480640 1.161359 114 80 33
-0.586025 -0.536509 0.507925 152 130 78
-0.548603 -0.534991 0.504433 160 137 84
-0.579598 -0.535037 0.493092 103 69 28
-0.561785 -0.534472 0.491736 143 110 55
-0.587073 -0.558106 0.479461 93 55 12
-0.555983 -0.555945 0.477866 100 57 14
-0.590165 -0.551143 0.479825 98 59 11
-0.571446 -0.570276 0.494045 112 64 15
-0.564917 -0.538329 0.485436 121 82 34
-0.569076 -0.543016 0.481950 104 61 13
-0.378392 -0.595081 0.615857 166 145 90
-0.384239 -0.598725 0.629713 161 141 83
0.063849 -0.501618 0.700713 225 201 173
0.045068 -0.501062 0.733463 207 169 103
0.075248 -0.501727 0.709526 208 170 101
0.083914 -0.503133 0.732962 212 169 95
-0.142979 -0.499373 0.825732 141 95 32
-0.124254 -0.498382 0.854212 131 86 29
-0.662166 -0.671426 0.924498 34 22 6
-0.652519 -0.666607 0.902915 42 26 10
-0.667951 -0.674893 0.894609 44 29 13
-0.118702 -0.499772 0.773712 143 96 25
-0.133816 -0.500357 0.779962 145 97 32
-0.103065 -0.499828 0.785463 138 96 26
-0.488020 -0.508568 0.752205 121 82 45
-0.474599 -0.504244 0.752263 143 100 68
-0.466107 -0.507858 0.743641 145 116 71
-0.479205 -0.505267 0.743003 143 95 68
-0.474203 -0.503842 0.736137 148 113 79
-0.488996 -0.505221 0.733098 125 93 44
-0.484583 -0.499360 0.764762 151 116 73
-0.221197 -0.518696 0.384602 105 67 37
-0.216723 -0.518798 0.359963 113 73 26
-0.221630 -0.511287 0.350462 131 95 23
-0.055772 -0.505124 0.549617 215 196 181
-0.069858 -0.505200 0.543963 218 195 185
0.016173 -0.511754 0.393962 153 106 36
-0.484368 -0.498025 0.718607 128 96 38
-0.033383 -0.511016 0.432962 218 198 177
-0.040162 -0.510283 0.441462 218 197 178
-0.618940 -0.649975 0.507642 61 41 15
-0.649391 -0.642994 0.505980 45 29 5
-0.631993 -0.650598 0.506152 48 31 7
-0.627884 -0.643640 0.510328 48 33 10
-0.623195 -0.512356 0.457962 142 89 9
-0.663765 -0.512321 0.471083 155 95 19
-0.642733 -0.511628 0.464462 147 94 16
-0.558610 -0.533241 0.758400 140 113 65
-0.541521 -0.534994 0.736152 109 63 22
-0.551508 -0.540808 0.742523 124 80 31
-0.411315 -0.565245 0.464354 82 59 20
-0.413767 -0.562579 0.472409 64 45 11
-0.559477 -0.539680 0.580697 137 113 66
-0.577253 -0.552050 0.586598 141 120 71
-0.571222 -0.566281 0.596345 175 153 94
0.074695 -0.505315 0.510161 235 220 199
0.057019 -0.506608 0.511463 235 220 199
0.076366 -0.505485 0.526962 238 222 206
-0.600316 -0.533446 0.339691 82 62 24
-0.611135 -0.554064 0.350244 95 73 37
-0.602234 -0.540536 0.364222 91 65 30
-0.614176 -0.553100 0.376276 69 55 21
-0.521325 -0.489090 1.149430 119 76 25
-0.507105 -0.489989 1.141874 115 71 22
-0.500852 -0.494765 1.129317 119 72 16
-0.345023 -0.507418 0.553817 229 207 128
-0.344283 -0.512075 0.564270 214 193 129
-0.367342 -0.505395 0.544016 237 218 150
-0.355608 -0.506363 0.540137 229 209 148
-0.344108 -0.504458 0.536686 212 189 144
-0.337077 -0.504876 0.548490 228 203 152
-0.206519 -0.457414 0.725807 166 114 40
-0.556978 -0.519591 0.673519 21 10 6
-0.212353 -0.496954 0.731963 165 114 40
-0.589754 -0.530839 0.814891 56 36 8
-0.589193 -0.519327 0.822977 61 38 7
-0.590369 -0.523572 0.803061 60 36 16
-0.591620 -0.513383 0.816091 112 74 27
-0.594510 -0.510159 0.817649 166 111 34
-0.613441 -0.505149 0.808212 173 120 28
-0.603388 -0.505675 0.832962 170 118 35
-0.412009 -0.526377 0.755769 140 112 69
0.057631 -0.509806 0.388962 167 115 42
0.079122 -0.509192 0.397713 161 111 32
-0.550287 -0.664927 0.456645 38 27 9
-0.521207 -0.681774 0.449156 87 70 37
-0.538549 -0.684371 0.463690 73 57 28
-0.551964 -0.668649 0.467579 28 17 7
-0.542469 -0.682007 0.460551 17 9 1
-0.524403 -0.682808 0.470491 58 44 17
-0.546968 -0.690950 0.474302 43 32 14
-0.507130 -0.533108 0.502886 161 135 77
-0.501331 -0.556619 0.477550 113 76 34
-0.520220 -0.557556 0.481624 111 67 18
-0.524631 -0.545597 0.481705 127 83 34
-0.511364 -0.545503 0.483651 139 105 40
-0.498545 -0.542149 0.482215 133 90 32
-0.514664 -0.535211 0.491154 152 124 66
-0.529593 -0.535568 0.492050 153 123 59
-0.509504 -0.563477 0.480298 119 74 24
-0.501955 -0.535744 0.492045 131 95 40
-0.443885 -0.473556 0.875730 145 87 57
-0.429058 -0.472414 0.876198 223 170 122
-0.453528 -0.476138 0.886728 76 61 43
-0.011287 -0.499032 0.846213 145 101 40
-0.028603 -0.498975 0.834991 147 102 38
-0.038266 -0.497385 0.857119 146 102 46
-0.203491 -0.448741 0.815962 155 105 45
-0.206030 -0.472401 0.853462 153 101 36
-0.200196 -0.423610 0.845587 142 93 34
-0.860271 -0.500003 1.011088 118 69 20
-0.833753 -0.500055 0.998963 122 73 26
-0.094461 -0.490939 0.973882 126 84 36
-0.099344 -0.505520 0.617153 156 106 38
-0.806140 -0.502796 0.801463 160 108 14
-0.205941 -0.453794 0.744963 165 114 42
-0.560265 -0.664558 0.416727 126 110 67
-0.586298 -0.665477 0.441580 98 83 44
-0.553049 -0.661365 0.421858 124 110 67
-0.561767 -0.658259 0.440572 107 92 51
-0.414716 -0.524590 0.768441 132 93 69
-0.403240 -0.501814 0.782257 79 56 60
-0.406215 -0.516874 0.765853 111 64 53
-0.419388 -0.526287 0.782858 145 89 66
-0.397041 -0.510366 0.948142 48 37 12
-0.407004 -0.517702 0.945539 49 34 22
-0.406226 -0.509317 0.943166 46 34 17
-0.419758 -0.506805 0.939718 35 24 11
-0.423002 -0.512639 0.935564 36 23 18
-0.397746 -0.499319 0.935986 43 28 17
-0.502272 -0.540514 0.325262 207 184 112
-0.493178 -0.529200 0.322504 206 184 109
-0.513089 -0.552988 0.325284 209 187 113
-0.189943 -0.400004 1.059997 107 67 26
-0.191842 -0.418852 1.058833 120 77 21
-0.197785 -0.508932 0.549504 154 104 36
-0.687599 -0.650935 0.737992 25 14 6
-0.747954 -0.509805 0.410681 141 85 15
-0.694826 -0.655788 0.751114 23 16 8
-0.677651 -0.647524 0.725915 21 11 4
-0.691103 -0.646867 0.760714 25 16 9
-0.686776 -0.655015 0.751566 25 16 9
-0.684621 -0.656078 0.745015 24 12 5
-0.692253 -0.654327 0.733430 24 16 8
-0.034797 -0.502739 0.702962 205 181 156
-0.081554 -0.501561 0.714837 172 137 91
-0.047474 -0.501738 0.713535 164 125 73
-0.803640 -0.504406 0.717488 171 112 17
-0.202431 -0.481393 1.080840 135 93 30
-0.204982 -0.490338 1.097358 136 94 30
-0.382573 -0.574659 0.598774 148 129 81
-0.393064 -0.567474 0.599488 186 166 104
-0.381523 -0.564439 0.594668 177 156 99
-0.470877 -0.458132 0.603864 172 147 94
-0.480236 -0.454171 0.599168 166 144 93
-0.630844 -0.418040 1.170757 119 90 32
-0.648008 -0.416264 1.171144 117 86 36
-0.727880 -0.511376 0.294712 132 82 10
-0.476521 -0.588068 0.350569 109 91 52
-0.482949 -0.581581 0.353154 200 179 111
-0.490799 -0.588792 0.374559 118 101 62
-0.482382 -0.580352 0.367763 119 105 59
-0.476544 -0.582007 0.367703 115 98 56
-0.488891 -0.579643 0.361737 132 113 63
-0.475930 -0.587862 0.374085 110 95 60
-0.616853 -0.666099 0.981036 120 100 66
-0.608494 -0.663532 0.974396 107 88 56
-0.206517 -0.421424 0.496306 172 114 39
-0.204043 -0.400606 0.513962 176 119 39
-0.127065 -0.510999 0.396213 146 94 28
-0.145287 -0.510732 0.408725 148 97 25
-0.221433 -0.518184 0.270967 120 83 31
-0.739535 -0.501228 0.843349 165 112 24
-0.639385 -0.597526 0.768339 33 19 6
-0.641888 -0.594988 0.761622 38 25 12
-0.632156 -0.583961 0.768166 35 20 8
-0.638708 -0.585694 0.759947 40 26 11
-0.419979 -0.524534 0.677227 102 86 52
-0.417724 -0.536235 0.669682 103 92 53
-0.418839 -0.534027 0.703026 45 29 11
-0.407940 -0.546021 0.688824 28 15 8
-0.419097 -0.554224 0.694702 44 32 15
-0.401674 -0.529734 0.684520 38 24 13
-0.424717 -0.532156 0.668078 112 95 57
-0.679355 -0.495685 1.106147 119 75 21
-0.673715 -0.497100 1.088206 123 79 26
-0.645439 -0.496415 1.080096 124 81 19
0.089934 -0.502818 0.708775 233 217 198
-0.581307 -0.527195 0.318986 99 80 42
-0.555828 -0.525255 0.318543 126 102 58
-0.591414 -0.526666 0.316933 80 62 33
-0.575988 -0.522355 0.314656 94 73 39
-0.623884 -0.484362 1.160064 111 76 26
-0.447477 -0.664372 1.056498 60 41 14
-0.209945 -0.415612 0.292463 173 112 23
-0.380089 -0.497451 0.934446 51 42 28
-0.552708 -0.536882 0.694480 120 102 65
-0.353970 -0.535667 0.381761 123 91 37
-0.367431 -0.538166 0.399715 126 96 44
-0.349842 -0.532879 0.415716 123 94 41
-0.353156 -0.533563 0.407760 136 101 44
-0.637168 -0.623562 0.343749 118 99 50
-0.629331 -0.610111 0.336587 116 97 44
-0.641063 -0.615851 0.351171 104 88 49
-0.630386 -0.610743 0.330193 113 95 52
-0.633463 -0.607532 0.331483 109 92 50
-0.638080 -0.604463 0.339022 114 94 48
-0.058372 -0.490093 0.994962 116 79 34
-0.081746 -0.488150 1.007780 115 79 26
-0.037226 -0.494648 0.984002 121 83 34
-0.042517 -0.492076 1.020957 118 80 30
-0.059214 -0.491008 1.008171 116 77 35
-0.064389 -0.489566 1.020220 114 76 34
-0.461488 -0.560059 0.604073 207 186 124
-0.451934 -0.557589 0.614735 175 156 101
-0.435853 -0.556717 0.612922 206 183 115
-0.448995 -0.560446 0.607958 207 186 125
-0.453514 -0.551903 0.632302 133 118 77
-0.445135 -0.561912 0.615131 206 183 115
-0.674422 -0.506739 0.678963 165 107 27
-0.650369 -0.507850 0.694462 163 107 21
-0.614873 -0.497644 1.039043 123 80 22
-0.601755 -0.495933 1.061963 80 46 12
-0.607758 -0.494953 1.083364 125 74 23
-0.595197 -0.497423 1.060538 81 50 10
-0.601173 -0.660408 0.848288 87 69 30
-0.598348 -0.662671 0.859103 95 79 44
-0.592690 -0.660720 0.857957 99 83 51
-0.617051 -0.653724 0.855500 71 52 22
-0.606403 -0.655909 0.851562 87 69 30
-0.711484 -0.662905 0.941424 43 36 20
-0.713619 -0.669734 0.941366 42 36 18
0.009672 -0.507172 0.531614 218 196 188
-0.007469 -0.508092 0.522963 222 202 187
0.007471 -0.509687 0.470712 223 196 178
-0.824799 -0.496731 1.071689 104 66 16
-0.790918 -0.498512 1.052514 117 72 22
-0.613627 -0.499821 1.005963 125 81 20
-0.654557 -0.499836 1.017267 125 79 23
-0.616568 -0.498229 1.026962 122 75 16
-0.642656 -0.499497 0.992463 124 81 19
-0.546533 -0.654641 0.416364 114 98 60
-0.539781 -0.654950 0.417258 78 67 35
-0.528154 -0.642630 0.411630 102 89 49
-0.534861 -0.649274 0.413078 98 83 47
-0.755735 -0.505463 0.687587 161 106 19
-0.783050 -0.504968 0.692962 152 95 20
-0.580937 -0.467541 1.168981 114 84 35
-0.575597 -0.456169 1.169467 116 85 34
-0.207570 -0.449759 0.635962 178 124 42
-0.803525 -0.509649 0.296212 136 86 13
-0.622245 -0.503760 0.863172 161 107 28
-0.213030 -0.508988 0.586906 145 114 54
-0.214752 -0.502777 0.583073 149 106 43
-0.582927 -0.652536 0.503882 69 49 19
-0.576214 -0.651556 0.499592 77 53 23
-0.571673 -0.659911 0.494989 51 32 8
-0.561593 -0.658851 0.494068 51 33 11
-0.581507 -0.654541 0.486723 69 54 23
0.066718 -0.508785 0.450119 145 107 50
0.050027 -0.503860 0.464513 208 183 141
0.065056 -0.502977 0.465617 203 177 134
0.077497 -0.502488 0.466708 183 155 107
0.057639 -0.502647 0.473365 226 207 168
-0.584522 -0.644393 0.508332 71 50 13
-0.813249 -0.499807 0.999963 135 85 17
-0.783538 -0.498905 0.964302 132 86 16
-0.139189 -0.504089 0.621962 154 103 33
0.070375 -0.502257 0.613962 204 189 178
-0.079155 -0.503998 0.634962 210 186 167
-0.074180 -0.503198 0.658962 209 186 167
-0.050765 -0.503942 0.653087 206 187 173
-0.801428 -0.501048 0.943243 130 80 10
-0.844303 -0.501236 0.916227 132 84 14
-0.835722 -0.500973 0.935962 134 82 17
-0.757390 -0.509105 0.393962 147 89 16
-0.172931 -0.512054 0.373962 140 89 27
-0.172881 -0.512316 0.393496 142 91 21
-0.148937 -0.511668 0.398146 148 95 36
-0.171484 -0.511130 0.407639 142 88 28
-0.845640 -0.503487 0.683963 162 106 26
-0.205981 -0.471106 0.828963 162 114 33
-0.618634 -0.510674 0.514090 152 99 12
-0.178066 -0.498843 0.929032 125 83 30
-0.169684 -0.499986 0.898016 126 84 23
-0.144719 -0.497737 0.899717 123 80 25
-0.164516 -0.496860 0.928505 128 87 27
0.106858 -0.501126 0.821963 200 150 71
0.093412 -0.502083 0.805212 191 146 65
-0.606512 -0.572066 0.806683 62 56 32
-0.616999 -0.576679 0.822102 60 52 28
-0.607019 -0.571666 0.820221 38 30 16
-0.604517 -0.573631 0.801305 74 61 42
-0.618801 -0.583755 0.806899 61 53 31
-0.593297 -0.567530 0.804605 65 54 32
-0.476676 -0.566763 0.641556 185 166 110
-0.461602 -0.558245 0.637312 187 168 112
-0.093018 -0.501000 0.733962 147 98 36
-0.124266 -0.501615 0.743962 155 105 46
-0.100303 -0.500147 0.755962 150 106 29
-0.084712 -0.500789 0.760051 146 99 41
-0.748839 -0.465063 1.173049 115 86 33
-0.190798 -0.509019 0.520588 153 100 41
-0.638630 -0.592065 0.396833 77 39 11
-0.638460 -0.580033 0.397368 67 43 15
-0.639919 -0.597499 0.385351 74 61 28
-0.645461 -0.593092 0.381460 94 79 26
-0.630681 -0.566931 0.407479 69 44 16
-0.749381 -0.509223 0.541962 156 99 14
-0.775197 -0.507792 0.555212 160 101 22
-0.767643 -0.506864 0.571905 151 94 11
-0.571884 -0.704913 1.062642 26 18 5
-0.578536 -0.717119 1.061115 28 19 8
-0.565782 -0.704373 1.066962 29 20 9
-0.555520 -0.718108 1.065763 33 21 10
-0.882342 -0.501920 0.662463 157 102 19
-0.002522 -0.510862 0.451809 220 191 176
-0.000009 -0.510946 0.442568 225 199 186
-0.012922 -0.509516 0.473962 223 201 188
-0.395170 -0.532134 0.665910 43 30 11
-0.620025 -0.568893 0.666561 34 24 12
0.006128 -0.496568 0.891879 151 107 54
0.033843 -0.494754 0.893117 152 109 38
0.050491 -0.495082 0.888215 153 111 42
0.024357 -0.493829 0.909828 148 106 41
-0.469508 -0.634742 0.293732 97 88 51
-0.469548 -0.650468 0.309972 76 72 38
-0.461533 -0.653580 0.303894 86 76 45
-0.470576 -0.640759 0.306897 74 67 35
-0.468695 -0.653971 0.290724 48 46 26
-0.462598 -0.655944 0.289537 53 51 32
-0.471590 -0.647607 0.293968 95 85 60
-0.468303 -0.647046 0.275809 56 52 24
-0.207018 -0.421159 0.462838 168 112 31
-0.459008 -0.667287 0.741772 39 22 8
-0.431443 -0.668788 0.737900 38 25 6
-0.443719 -0.662037 0.739567 37 23 8
-0.449551 -0.677114 0.738191 37 20 8
-0.433908 -0.678642 0.734277 39 25 11
-0.452452 -0.680260 0.726986 38 24 10
-0.426623 -0.680255 0.731149 37 24 6
-0.639786 -0.652827 0.726248 51 37 18
-0.649349 -0.634840 0.712252 27 15 5
-0.638237 -0.636362 0.715442 34 25 10
-0.215911 -0.517571 0.272098 108 79 33
-0.223474 -0.516994 0.298611 120 88 30
-0.222827 -0.515651 0.310471 139 90 26
-0.220021 -0.520476 0.310613 102 76 24
-0.202976 -0.513196 0.283575 118 76 28
-0.220516 -0.521503 0.292738 111 73 34
-0.031244 -0.500611 0.788963 148 105 38
-0.139629 -0.509466 0.461233 151 101 29
-0.595716 -0.515539 0.665083 68 41 13
-0.626377 -0.507242 0.693901 173 118 34
-0.608564 -0.508371 0.657857 171 116 29
-0.590393 -0.527999 0.687211 36 18 4
-0.590666 -0.520951 0.691035 83 53 12
-0.611352 -0.507659 0.705962 173 117 30
-0.601196 -0.511112 0.681419 104 71 21
-0.392469 -0.500775 0.835483 35 44 64
-0.369168 -0.512721 0.848956 19 23 41
-0.375524 -0.494588 0.827074 23 24 51
-0.373166 -0.511995 0.855020 25 20 24
-0.359187 -0.502403 0.833760 39 38 64
-0.381724 -0.501468 0.847495 59 46 37
-0.380777 -0.502503 0.840548 17 20 43
-0.886411 -0.503603 0.582462 159 103 16
-0.854229 -0.504673 0.575713 158 102 20
0.016479 -0.507967 0.515588 223 198 179
-0.005429 -0.509208 0.497963 225 207 193
-0.586916 -0.538490 0.788039 66 57 31
-0.577503 -0.544107 0.795875 62 52 33
-0.203892 -0.431902 0.715463 177 124 44
-0.537828 -0.510585 0.627058 135 115 71
-0.553438 -0.520613 0.634144 95 81 47
-0.539504 -0.520682 0.633841 111 94 63
-0.864520 -0.499790 0.996874 120 73 19
-0.825263 -0.499618 1.018212 123 74 13
-0.195982 -0.497183 0.975951 105 73 25
-0.201644 -0.496714 0.977889 60 36 16
-0.185990 -0.492857 0.990569 106 65 23
-0.201877 -0.502582 0.962636 61 35 11
-0.194760 -0.417186 0.951946 136 92 32
-0.198976 -0.445722 0.968671 137 91 37
-0.195795 -0.435877 0.976023 133 91 31
-0.716096 -0.511441 0.328963 133 81 11
-0.748537 -0.510118 0.342462 130 82 5
-0.491970 -0.559081 1.060728 55 37 11
-0.474816 -0.542822 1.062118 46 30 9
-0.464119 -0.542561 1.060641 46 30 8
-0.481631 -0.533140 1.060427 49 30 12
-0.581896 -0.532390 0.759867 50 35 17
-0.584571 -0.528495 0.766936 47 30 8
-0.566354 -0.677790 1.035392 26 18 9
-0.564092 -0.676279 1.022004 26 17 10
-0.572497 -0.691787 1.038245 26 18 7
-0.572562 -0.697333 1.055077 26 18 6
-0.569332 -0.684966 1.033282 26 18 8
-0.562666 -0.669973 1.050581 26 19 7
-0.404109 -0.524466 0.672283 71 58 34
-0.411041 -0.517612 0.680571 106 94 60
-0.412207 -0.521132 0.692285 80 67 33
-0.424276 -0.522118 0.682062 130 114 73
-0.402250 -0.521241 0.679110 83 72 44
-0.437318 -0.677804 0.728690 39 26 13
-0.448498 -0.669775 0.720442 37 24 12
-0.446504 -0.661386 0.711353 37 24 13
-0.433240 -0.656794 0.711611 38 25 14
-0.432895 -0.668718 0.719644 38 26 13
-0.174759 -0.502695 0.787962 143 93 28
-0.145353 -0.499485 0.803962 138 92 29
-0.608596 -0.505713 0.764706 173 118 25
-0.634333 -0.505025 0.781588 173 116 25
-0.628479 -0.504304 0.818963 172 117 26
-0.647460 -0.505176 0.768962 177 122 31
-0.208416 -0.503558 0.884305 69 43 13
-0.208694 -0.497474 0.861845 80 48 17
-0.208072 -0.489976 0.882362 139 97 32
-0.205682 -0.505601 0.865198 83 51 20
-0.510719 -0.505029 0.661254 130 112 71
-0.519085 -0.497181 0.642094 108 93 58
-0.504157 -0.492834 0.641775 117 102 63
-0.510872 -0.483308 0.631551 109 94 58
-0.536045 -0.527366 0.572996 191 169 109
-0.533656 -0.659351 0.374474 135 123 74
-0.545458 -0.656364 0.375043 108 100 56
-0.542830 -0.707817 1.066694 42 24 12
-0.532498 -0.689295 1.066021 40 23 8
-0.531033 -0.719810 1.053605 34 24 10
-0.540203 -0.715418 1.062452 36 24 11
-0.529067 -0.712241 1.062957 38 26 11
-0.203515 -0.437167 0.756962 172 123 42
-0.635638 -0.649495 0.484263 59 35 10
-0.644593 -0.644755 0.486119 41 25 7
-0.647039 -0.640608 0.479940 35 19 5
-0.642403 -0.652339 0.493342 35 22 8
-0.624492 -0.652777 0.482789 54 31 6
-0.610726 -0.649436 0.504191 63 41 12
-0.634061 -0.654201 0.494922 53 34 12
-0.643927 -0.644616 0.500252 43 26 9
-0.628138 -0.658636 0.473008 52 35 13
-0.638817 -0.652744 0.474868 45 30 11
-0.194410 -0.428590 1.004075 118 79 23
-0.196392 -0.448611 0.990713 113 79 25
-0.196846 -0.451886 1.004962 108 71 27
-0.195196 -0.441284 1.009926 111 72 26
-0.214421 -0.501029 0.601963 133 95 37
-0.213211 -0.509066 0.601644 130 92 31
-0.210048 -0.509715 0.617269 124 83 34
-0.213592 -0.504039 0.618543 147 102 36
-0.778373 -0.509965 0.326963 140 84 10
-0.799419 -0.509023 0.329962 138 84 18
-0.778220 -0.508710 0.357962 144 87 11
-0.701960 -0.438878 1.172868 111 81 28
-0.414935 -0.512065 0.603726 198 179 114
-0.423812 -0.500956 0.600923 193 174 110
-0.420451 -0.504360 0.598327 192 173 110
-0.536169 -0.440786 1.166145 112 83 31
-0.548673 -0.454447 1.168297 112 82 32
-0.563338 -0.468449 1.169496 111 81 35
-0.353106 -0.503347 0.788016 26 26 51
-0.363524 -0.493858 0.791886 26 25 54
-0.365650 -0.498917 0.771007 26 26 55
-0.354208 -0.504911 0.772932 31 25 46
-0.443946 -0.472690 0.854097 229 206 147
-0.458512 -0.470860 0.864716 233 215 154
-0.449311 -0.473790 0.831088 220 203 141
-0.431698 -0.471802 0.839364 227 206 144
-0.005563 -0.505348 0.576963 215 200 188
-0.006614 -0.503904 0.605337 202 184 166
0.020915 -0.504266 0.591462 207 190 177
-0.646246 -0.632314 0.700836 48 36 18
-0.633518 -0.627662 0.705725 60 49 29
-0.193993 -0.408766 0.923133 140 93 32
-0.623903 -0.585322 1.068414 41 27 9
-0.591606 -0.587681 1.067564 44 32 13
-0.620825 -0.577670 1.067650 43 26 12
-0.607027 -0.564709 1.066796 44 30 11
-0.584338 -0.553395 1.066914 46 32 11
-0.654923 -0.506375 0.729963 168 111 22
-0.623375 -0.507218 0.713962 170 114 28
-0.821257 -0.505792 0.501962 151 94 22
-0.857594 -0.505021 0.536962 151 94 9
-0.837549 -0.505964 0.525963 152 95 17
-0.832567 -0.505347 0.535963 147 94 13
-0.808532 -0.505934 0.528838 152 96 16
-0.630105 -0.500739 0.940962 140 91 26
