ply
format ascii 1.0
element vertex 1192
property float x
property float y
property float z
property uchar red
property uchar green
property uchar blue
end_header
0.211764 0.370564 0.353002 176 162 144
0.225738 0.372806 0.339404 174 165 148
0.224959 0.368945 0.353321 175 163 143
0.245709 0.368859 0.360480 169 165 145
-0.407811 0.274132 0.332894 127 124 112
-0.410665 0.254198 0.333270 128 121 111
-0.110607 0.264160 0.064700 208 200 194
-0.166721 0.332699 0.160705 166 159 150
-0.151144 0.272439 0.096519 205 201 190
-0.056551 -0.114896 -0.115317 56 55 46
0.159174 -0.073701 -0.117000 197 187 180
-0.039283 0.024318 -0.117766 201 195 182
0.266613 0.216905 -0.123512 43 40 36
0.236824 0.223189 -0.123369 67 67 61
0.278380 0.373160 0.296819 182 166 146
0.280473 0.373552 0.283988 180 166 146
0.300931 0.372168 0.296919 175 166 145
-0.209284 -0.223045 -0.111389 140 133 122
-0.211658 -0.222831 -0.104789 230 226 215
-0.216864 -0.215982 -0.114787 143 139 133
-0.188693 -0.224678 -0.111285 131 127 118
-0.207181 -0.211940 -0.098886 39 36 29
-0.208563 -0.223582 -0.098552 54 52 50
-0.591420 0.348368 -0.013833 207 196 177
0.475218 0.027987 0.393440 210 199 190
0.447488 0.034707 0.376076 142 135 107
0.443907 0.032355 0.385538 165 156 131
0.448959 0.026618 0.400260 210 196 187
0.458836 0.032242 0.375158 206 198 188
0.449254 0.028823 0.386210 206 197 182
-0.076103 -0.159504 -0.114349 46 43 34
-0.076002 -0.172582 -0.113309 52 54 43
-0.084794 -0.156020 -0.112101 55 54 50
-0.091369 -0.179689 -0.111921 59 60 46
-0.081099 0.376755 0.216543 170 162 149
-0.370656 0.219079 -0.108642 184 176 175
-0.372172 0.201405 -0.108359 184 176 169
-0.376271 0.191176 -0.109008 185 175 169
-0.377564 0.218709 -0.110162 188 180 176
-0.092314 0.384431 0.340518 159 142 127
-0.079060 0.383339 0.336448 153 144 127
-0.108352 0.384164 0.358300 155 138 126
-0.077206 0.384354 0.356203 150 139 126
-0.014481 0.386022 0.438360 129 115 97
-0.021919 0.378369 0.452708 115 106 93
-0.027540 0.384499 0.443872 115 106 93
-0.012910 0.384473 0.449026 118 112 106
-0.005084 0.379122 0.453167 100 92 90
0.103186 0.376784 0.248258 178 164 144
0.136825 0.377276 0.252533 177 167 148
0.123116 0.377041 0.257092 174 165 146
0.121309 0.376326 0.241017 176 164 146
0.119957 0.377755 0.249152 176 164 144
-0.017141 0.279016 0.112016 209 203 189
-0.045103 0.266077 0.058803 211 202 190
-0.002120 0.278260 0.099098 209 203 189
-0.027570 0.277498 0.100469 211 200 195
-0.019107 0.275563 0.089168 211 203 192
0.308582 0.370731 0.367172 169 161 139
0.293298 0.367660 0.372906 172 160 139
0.301308 0.371913 0.385374 146 139 122
0.296004 0.367065 0.388011 129 115 108
0.208279 0.276208 -0.044769 205 195 182
0.175400 0.276574 -0.041930 203 195 186
0.185872 0.277323 -0.034798 204 195 187
0.189421 0.278508 -0.030820 205 196 186
0.157057 0.282339 -0.026389 204 199 188
0.192614 0.282116 -0.026414 206 196 190
-0.396849 -0.181321 -0.114415 195 181 163
-0.403932 -0.176721 -0.121395 194 181 165
-0.268046 0.249795 -0.121186 201 190 188
-0.247222 0.256914 -0.120517 200 190 188
-0.235580 0.251124 -0.121161 198 192 185
-0.235776 0.263031 -0.118983 198 196 187
-0.228213 0.270085 -0.115141 201 195 189
-0.375139 0.002657 -0.106697 183 173 165
-0.192484 -0.225055 -0.099867 55 50 43
-0.325467 0.153108 -0.120271 146 140 129
-0.326561 0.133860 -0.119752 190 181 175
-0.345482 0.139570 -0.119718 191 183 172
-0.350700 0.157131 -0.119495 194 187 178
-0.355103 0.134594 -0.117542 195 188 181
0.173553 0.296047 -0.012835 146 141 131
0.180115 0.265460 -0.115275 202 193 184
0.145657 0.259282 -0.119903 198 194 183
0.176186 0.258359 -0.118982 200 194 185
-0.274103 0.256442 0.022800 187 177 173
-0.045026 0.068412 -0.118199 200 193 182
-0.037500 0.059348 -0.118262 203 191 186
0.123311 0.268134 -0.115117 204 196 187
0.358346 0.371909 0.306811 180 162 142
0.360208 0.371731 0.331859 177 165 146
-0.224352 -0.213531 -0.119422 208 198 189
-0.236572 -0.204806 -0.126002 209 199 190
-0.230209 -0.204584 -0.121870 209 198 187
-0.242573 -0.209142 -0.121259 209 198 188
-0.362960 -0.236785 -0.116248 172 162 156
-0.379220 -0.235259 -0.108272 195 180 172
-0.370799 -0.255384 -0.107230 201 191 187
0.149828 0.276223 -0.099789 209 203 192
0.147418 0.276974 -0.089707 210 201 194
0.178244 0.271911 -0.109328 206 202 185
0.142659 0.274483 -0.106804 207 199 189
0.119928 0.272510 -0.110813 206 197 192
0.155886 0.267261 -0.115490 203 197 188
-0.299052 0.333125 0.152699 205 194 189
-0.281793 0.321987 0.159557 178 170 164
-0.172404 0.267109 0.076293 204 200 190
-0.176338 0.271375 0.092917 206 199 193
-0.430844 -0.244641 -0.201834 178 166 147
0.453063 0.113542 0.346740 154 143 122
0.457546 0.096413 0.349867 146 139 118
-0.357398 0.384353 0.317057 147 139 114
-0.373918 0.384958 0.319155 147 139 117
0.387970 0.295673 -0.014392 193 184 175
0.400513 0.275476 0.011310 204 193 177
0.394175 0.295006 -0.003828 191 187 176
0.399220 0.282198 0.001303 198 186 175
0.387428 0.285906 -0.005398 195 180 170
0.387656 0.270392 0.004668 176 166 151
0.403939 0.291320 0.007383 203 193 181
-0.392846 0.359798 0.354779 132 125 107
-0.383548 0.379950 0.385325 157 149 143
-0.392743 0.352772 0.387918 130 117 110
-0.388826 0.375939 0.369985 143 137 127
-0.392876 0.364642 0.374831 131 122 114
-0.393980 0.366240 0.403114 130 120 107
0.345967 0.371700 0.230629 179 163 146
0.346671 0.372076 0.203707 173 165 146
0.329222 0.371431 0.234457 179 162 151
0.333721 0.372789 0.217528 180 163 144
0.124823 0.383528 0.379097 133 114 101
0.113085 0.381563 0.379117 131 120 100
0.127001 0.375517 0.374848 162 149 133
0.101786 0.383063 0.379645 141 130 113
0.115789 0.380342 0.388116 130 123 109
0.130966 0.382387 0.391696 110 105 90
0.116100 0.382005 0.395481 122 113 102
0.134624 0.374668 0.366455 169 154 139
0.110766 0.378501 0.373881 148 136 120
0.096728 0.383351 0.363925 148 136 126
0.108195 0.383888 0.392419 124 119 104
-0.236378 -0.207503 -0.131451 133 125 114
-0.257866 -0.184891 -0.134563 43 34 33
-0.254495 -0.198235 -0.122771 209 200 186
-0.250884 -0.197847 -0.119247 211 197 193
-0.263998 -0.202192 -0.107828 209 199 189
-0.247351 -0.192058 -0.122905 209 198 192
-0.253682 -0.195313 -0.127802 208 199 189
-0.231010 -0.193324 -0.126861 211 198 192
-0.245760 -0.180297 -0.129508 204 197 188
-0.344955 0.378974 0.166822 178 162 152
-0.311102 0.378438 0.174973 177 162 145
-0.353767 0.379407 0.194418 184 166 145
0.382376 0.372295 0.215856 179 162 146
0.357667 0.372340 0.213293 177 166 150
0.372688 0.372602 0.235204 176 165 145
-0.256248 -0.200777 -0.109114 188 182 172
-0.244956 -0.206390 -0.098026 43 36 34
-0.238015 -0.193106 -0.098529 79 72 62
-0.243896 -0.183976 -0.099551 45 48 41
-0.256602 -0.199942 -0.101580 66 67 55
-0.270725 -0.189972 -0.102517 20 20 21
-0.321847 0.263644 0.057671 202 192 186
-0.316108 0.265361 0.066924 201 194 190
-0.275349 0.066425 -0.106113 31 29 28
-0.297835 0.075409 -0.105211 42 46 29
-0.130392 -0.200588 -0.101189 58 55 53
-0.161010 -0.202882 -0.100723 51 43 41
-0.138916 -0.177527 -0.102257 68 57 55
-0.503076 0.058826 0.393168 215 213 210
-0.497616 0.059777 0.401917 215 213 210
-0.518417 0.060952 0.411858 217 209 209
-0.426318 -0.264686 -0.214146 172 157 138
-0.425721 -0.268547 -0.239656 183 174 164
-0.428105 -0.266284 -0.219774 183 174 164
-0.429051 -0.252212 -0.215642 178 164 141
-0.250362 0.023724 -0.112959 199 191 183
0.220565 0.271076 0.090812 209 199 189
0.240987 0.259723 0.084334 204 192 184
0.233454 0.265413 0.075958 208 201 191
0.251023 0.246911 0.096841 199 188 176
0.228437 0.269500 0.097819 208 197 187
0.240368 0.261161 0.098804 198 188 176
0.247431 0.259041 0.110119 203 197 191
0.230952 0.269532 0.002713 135 130 123
0.228064 0.258550 0.011263 159 154 143
-0.378531 0.040599 -0.109840 167 160 154
-0.373196 0.042532 -0.105724 174 169 164
-0.375249 0.025094 -0.107055 178 173 167
-0.363654 0.029775 -0.109417 189 182 173
0.053134 0.099757 -0.118937 190 187 177
-0.110056 0.383741 0.344860 153 145 131
-0.580012 0.378546 0.037470 197 185 165
-0.552278 0.354088 0.021627 208 193 180
-0.572198 0.350133 0.015312 211 193 186
-0.608230 0.361699 0.024725 202 192 178
-0.586747 0.354440 0.021174 208 194 184
-0.579803 0.371957 0.029182 202 189 176
0.061275 -0.113106 -0.115356 201 191 180
0.038929 -0.089032 -0.115894 202 191 181
0.020837 -0.127022 -0.115873 202 189 181
-0.079810 0.257999 0.009221 105 106 101
-0.042818 0.258018 0.009200 117 119 114
-0.050136 0.265293 0.004223 116 116 110
-0.177564 0.048665 -0.111809 131 127 115
0.057065 -0.063300 -0.116244 201 193 181
0.022289 -0.033466 -0.116819 199 195 184
0.438261 0.184498 0.345531 143 133 109
0.424753 0.198570 0.352234 148 133 116
0.416662 0.207021 0.360665 151 142 124
0.418218 0.178567 0.356964 151 140 125
-0.292713 0.278792 -0.061332 203 196 189
-0.394406 0.243905 0.392056 114 107 95
-0.395488 0.253725 0.425596 111 100 88
-0.394318 0.268689 0.407198 111 104 91
0.227577 0.311779 0.164017 203 199 183
0.229306 0.328001 0.160352 194 182 179
0.242751 0.323240 0.161474 202 194 183
-0.101608 -0.100333 -0.107421 27 29 26
0.416472 0.244225 0.356974 153 143 122
-0.246261 0.264905 0.006920 146 142 132
-0.241987 0.258495 0.013248 146 141 136
0.165278 0.254164 0.019092 192 182 168
0.143544 0.258012 0.038417 212 198 193
0.168230 0.260530 0.047441 209 200 189
-0.276326 0.019751 -0.117936 199 191 183
-0.292601 -0.007644 -0.117434 198 194 180
-0.442542 -0.051254 -0.123395 206 192 178
-0.441479 -0.078368 -0.122788 206 192 180
-0.383623 0.294357 0.004121 168 160 142
0.134783 0.273068 0.000340 147 139 131
0.108135 0.254648 0.013230 158 150 141
0.122681 0.258769 0.009226 151 144 135
-0.035681 0.385540 0.387620 140 133 118
-0.045677 0.384592 0.369221 149 137 121
-0.065462 0.385610 0.373670 147 136 119
-0.056117 0.384434 0.380773 142 130 118
-0.054858 0.385606 0.391259 140 133 113
-0.669849 0.388345 0.209845 156 148 135
0.215775 0.184633 -0.114033 57 51 51
0.142028 0.262312 0.056597 211 201 193
0.140064 0.273597 0.096447 207 201 188
-0.395001 0.183558 0.388888 155 145 137
-0.265788 0.377995 0.200542 168 151 135
-0.255101 0.378027 0.218982 161 148 133
-0.251621 0.377127 0.231267 164 151 136
-0.657450 0.348898 -0.072957 206 195 179
0.256791 0.276277 -0.054832 205 196 184
0.274896 0.275457 -0.042832 203 194 184
0.228386 0.282665 -0.026607 204 195 182
0.240927 0.278456 -0.030845 202 197 185
0.079470 0.377856 0.250994 172 165 150
0.090047 0.378992 0.269897 175 167 148
0.247460 0.279855 0.124817 196 191 181
0.266673 0.281976 0.126550 196 189 180
0.262587 0.254811 0.108225 202 190 183
0.258892 0.274860 0.120984 213 203 195
0.254919 0.254606 0.112350 211 202 194
0.246010 0.272611 0.118140 207 198 192
0.316421 0.293744 -0.014868 144 139 130
-0.429193 -0.269924 -0.358496 150 142 126
-0.427108 -0.266010 -0.350702 121 113 101
0.127270 0.259087 0.043571 210 201 192
0.125420 0.267601 0.062086 209 202 192
-0.428564 -0.273691 -0.446601 167 154 144
-0.427762 -0.274119 -0.466960 154 141 126
0.420464 0.086471 0.366156 165 158 140
0.419055 0.067101 0.357109 165 156 143
0.443007 0.089830 0.343277 130 118 104
0.426186 0.094806 0.352976 160 152 139
0.437708 0.103932 0.346941 151 137 120
0.420931 0.083991 0.357103 166 157 145
0.056557 0.377799 0.192168 178 163 146
0.068993 0.377017 0.205276 178 163 140
0.055399 0.376836 0.203995 180 163 148
-0.015466 0.384031 0.354422 157 144 125
-0.038839 0.383945 0.357780 152 141 126
-0.031195 0.383200 0.359653 153 144 129
-0.001887 0.385324 0.341628 164 143 137
0.416103 0.100030 -0.119182 191 182 171
0.447271 0.077193 -0.123533 193 182 175
-0.172330 0.289862 0.156896 207 200 189
-0.142743 0.289077 0.155167 208 199 192
-0.136211 0.298800 0.167879 207 199 189
-0.153773 0.293048 0.165802 206 199 189
0.005698 -0.012644 -0.117264 202 192 183
-0.551431 0.380388 0.067168 201 188 171
-0.574364 0.380559 0.065167 199 187 173
0.189534 0.073563 -0.108595 42 37 37
0.081014 0.257759 0.009313 143 142 130
0.095560 0.264353 0.005252 150 145 137
0.096085 0.271814 0.000657 134 133 125
-0.389753 0.373711 0.427328 128 117 104
-0.385574 0.376119 0.444819 110 104 89
-0.394457 0.355966 0.440167 117 110 101
-0.381610 0.386308 0.436605 160 154 142
-0.384598 0.385656 0.449579 157 150 140
0.467482 0.079848 -0.125140 194 182 170
-0.392088 0.268632 0.352214 119 110 102
-0.393645 0.262320 0.344934 151 142 132
-0.396684 0.274894 0.340691 123 119 102
-0.396840 0.247808 0.340732 131 122 113
0.413170 0.253306 -0.121702 197 190 181
0.414611 0.278943 0.361198 142 141 125
0.424820 0.263968 0.350935 152 142 124
-0.226210 0.116943 -0.106383 35 40 35
-0.668261 0.387372 0.184166 161 155 142
0.119226 0.187341 -0.121908 196 189 179
0.103662 0.160437 -0.121251 200 188 183
0.323718 0.274911 0.120603 199 190 185
0.316695 0.279693 0.123138 200 192 187
0.315933 0.283732 0.131285 201 194 183
-0.125364 0.279535 -0.036332 201 200 191
-0.117449 0.279964 -0.030832 206 200 191
-0.112557 0.281866 -0.026172 205 200 192
-0.393573 0.282455 -0.127266 167 157 147
-0.387356 0.262666 -0.124459 164 154 143
0.322166 0.024919 -0.120047 59 51 44
0.323104 0.012168 -0.121065 75 68 59
-0.410304 -0.288887 -0.322920 114 105 92
0.414091 0.244443 0.405319 130 128 113
0.416046 0.244973 0.409166 123 116 105
0.415924 0.260002 0.397233 137 128 110
0.416951 0.269172 0.408986 121 118 98
0.414175 0.256456 0.413142 101 99 89
-0.384385 -0.230168 -0.107406 195 183 173
-0.383588 -0.206148 -0.107184 194 182 175
-0.367182 -0.218338 -0.114431 178 168 161
0.024790 0.279665 -0.091832 209 204 195
0.023247 0.279904 -0.077207 209 201 188
0.020722 0.279533 -0.061958 209 202 190
0.228470 -0.019308 -0.113896 193 186 175
0.247818 -0.005851 -0.110761 66 54 50
0.217687 -0.009479 -0.111041 70 58 52
0.239412 0.202117 -0.119431 51 48 43
-0.357760 0.279068 0.113163 204 196 183
-0.332004 0.282718 0.134923 200 195 184
-0.353400 0.287776 0.144207 204 194 190
-0.365923 0.281508 0.122918 203 192 187
-0.371728 0.286270 0.142699 194 185 168
-0.398342 0.296989 -0.126900 182 171 157
-0.396186 0.307151 -0.127423 156 148 132
-0.390451 0.288814 -0.124145 173 160 147
0.192283 0.296772 -0.019716 205 200 188
0.173047 0.297398 -0.019744 204 198 189
-0.005331 0.328158 0.165517 161 150 142
-0.019587 0.327965 0.165427 183 174 166
0.423418 0.072315 0.352363 119 99 77
0.443521 0.073993 0.345431 121 96 81
0.448848 0.054581 0.357443 210 200 183
0.430228 0.056746 0.356514 115 89 70
-0.460637 0.071607 0.549783 216 205 200
-0.444457 0.072613 0.550103 216 205 196
-0.443739 0.070092 0.532851 215 208 202
-0.458566 0.069151 0.536673 215 207 197
-0.274142 0.079693 0.728624 213 197 193
-0.291876 0.080610 0.733819 219 203 198
-0.273938 0.076661 0.738245 192 179 177
-0.289952 0.078208 0.742427 188 179 173
-0.479155 0.080284 0.788486 204 194 190
-0.446496 0.080963 0.739322 210 202 195
-0.440701 0.083244 0.749959 214 202 195
-0.442079 0.083994 0.743358 213 204 195
-0.438685 0.095803 0.742481 213 202 194
-0.440860 0.082040 0.717688 214 203 199
-0.445708 0.079094 0.718908 214 203 196
-0.468863 0.081100 0.750358 212 201 191
-0.424089 0.097610 0.733925 148 135 119
-0.549965 0.072727 0.564037 214 208 200
-0.540271 0.072142 0.569821 215 206 199
-0.536710 0.074024 0.579922 216 208 200
-0.557020 0.073597 0.583140 214 206 200
-0.515395 0.075929 0.634668 216 202 196
-0.511938 0.077677 0.656063 212 202 192
-0.487507 0.079014 0.691608 214 203 195
-0.497076 0.079349 0.706012 216 202 194
-0.482303 0.079274 0.721390 215 202 198
-0.137937 0.387199 0.465848 115 102 96
-0.121863 0.384918 0.461131 117 105 96
-0.134669 0.385869 0.473151 109 100 90
-0.406784 0.083465 0.461219 210 202 199
-0.389771 0.106166 0.459175 214 208 201
-0.274158 0.079430 0.706957 219 205 199
-0.298772 0.078377 0.715133 220 202 199
-0.542349 0.079566 0.737299 212 198 193
-0.242424 0.388423 0.471641 114 111 100
-0.221870 0.386813 0.475027 122 115 102
-0.233187 0.389249 0.472801 115 116 94
-0.232572 0.383700 0.484151 52 47 50
-0.237941 0.386032 0.491851 55 50 50
-0.210920 0.388630 0.477193 110 102 91
-0.209482 0.385310 0.481254 105 101 94
-0.241648 0.379598 0.485592 95 90 78
-0.383499 0.077632 0.725253 212 204 195
-0.388819 0.080453 0.743295 209 198 190
-0.373526 0.077201 0.737541 216 201 192
-0.385081 0.079005 0.755618 210 198 188
-0.391208 0.080076 0.699217 213 200 192
-0.381955 0.076913 0.696355 215 202 193
-0.432697 0.098640 0.716738 147 135 117
-0.433194 0.099461 0.737289 143 132 113
-0.438007 0.094500 0.714047 166 152 128
-0.191701 0.080715 0.710367 217 201 193
-0.516009 0.073765 0.573357 215 206 201
-0.335472 0.101400 0.645167 203 192 185
-0.216583 0.077472 0.709700 222 204 198
-0.224412 0.082458 0.689039 222 204 196
-0.216735 0.076793 0.696761 220 206 196
-0.199254 0.082285 0.689265 220 205 196
-0.246893 0.084891 0.689323 221 205 195
-0.363928 0.393033 0.501128 125 123 107
-0.361400 0.390348 0.494437 91 90 81
-0.363701 0.391040 0.512129 162 154 141
-0.358061 0.386055 0.517939 162 154 141
-0.371557 0.387470 0.513986 163 152 139
-0.378603 0.389594 0.505497 153 146 127
-0.348482 0.390734 0.512141 157 150 136
-0.542501 0.071043 0.529302 214 207 204
-0.559759 0.067419 0.493483 218 210 207
-0.498516 0.067205 0.482206 218 211 207
-0.526401 0.067689 0.481167 219 211 207
-0.531666 0.067002 0.470274 217 210 205
-0.524614 0.065049 0.460259 215 212 207
-0.395418 0.096095 0.675570 213 199 189
-0.384437 0.090095 0.682266 218 203 197
-0.314166 0.385248 0.523556 109 104 101
-0.397792 0.126063 0.495124 176 167 154
-0.398514 0.133528 0.507744 122 112 93
-0.391631 0.117252 0.501617 217 208 200
-0.384485 0.119498 0.509722 187 177 168
-0.483892 0.074307 0.591463 215 207 201
-0.462680 0.072494 0.561760 215 206 202
-0.495095 0.072397 0.567663 217 206 197
-0.480479 0.072769 0.564983 216 206 200
-0.400726 0.103549 0.566417 215 204 195
-0.402424 0.098720 0.589785 218 207 196
-0.399135 0.099736 0.580251 211 200 194
-0.389991 0.104741 0.571339 213 203 193
-0.379046 0.390252 0.459685 176 167 160
-0.298070 0.105953 0.571062 217 204 192
-0.277949 0.106192 0.571396 222 203 199
-0.314623 0.100322 0.580473 228 213 201
-0.302070 0.101287 0.590303 225 214 203
-0.286928 0.104925 0.560182 214 202 189
-0.306384 0.104762 0.563792 218 204 195
-0.305020 0.108898 0.554338 215 202 194
-0.447326 0.081117 0.754125 213 203 193
-0.442220 0.084888 0.758525 214 201 194
-0.451155 0.081423 0.774542 210 198 192
-0.469987 0.080938 0.767298 213 202 192
-0.443814 0.083373 0.773634 199 189 182
-0.380375 0.076584 0.764822 212 199 191
-0.389866 0.080146 0.765533 181 169 158
-0.371113 0.077443 0.756864 203 190 185
-0.458400 0.075998 0.638299 214 204 194
-0.297421 0.392862 0.471308 121 114 102
-0.310435 0.390465 0.464397 121 115 105
-0.298469 0.384430 0.490261 114 113 103
-0.311703 0.390869 0.485116 114 113 102
-0.180170 0.388711 0.468388 115 111 97
-0.190424 0.380134 0.481097 109 101 86
-0.191098 0.386483 0.476933 114 107 98
-0.195523 0.385349 0.465243 126 117 104
-0.172534 0.379253 0.479731 113 101 96
-0.422293 0.066610 0.479098 217 212 208
-0.414408 0.086350 0.491877 216 214 206
-0.406241 0.085291 0.481918 217 210 205
-0.414022 0.078309 0.480423 218 211 205
-0.421143 0.066669 0.465079 214 212 207
-0.366996 0.100052 0.589168 223 210 205
-0.339881 0.100428 0.583211 226 214 200
-0.372846 0.104457 0.571811 220 209 198
-0.371186 0.100895 0.580874 224 211 205
-0.334752 0.106146 0.560110 217 203 196
-0.365646 0.108737 0.551302 215 203 191
-0.338880 0.103703 0.573355 225 212 204
-0.397771 0.174821 0.456748 118 108 99
-0.284411 0.080534 0.720645 219 203 197
-0.479821 0.066647 0.483626 219 211 209
-0.478368 0.066842 0.476866 215 212 208
-0.493495 0.066201 0.466630 216 213 207
-0.455817 0.065162 0.465732 221 211 208
-0.466599 0.063667 0.460588 217 211 207
-0.491436 0.066331 0.489646 219 212 209
-0.432983 0.078231 0.554533 217 207 201
-0.423629 0.085090 0.549361 216 205 199
-0.421225 0.098312 0.557424 186 176 170
-0.425801 0.067881 0.532777 218 207 198
-0.423352 0.075517 0.542230 219 208 201
-0.419031 0.092419 0.547411 208 198 193
-0.416351 0.088518 0.527735 210 199 196
-0.428476 0.100023 0.752924 191 181 166
-0.435892 0.098745 0.748053 187 177 161
-0.431425 0.099279 0.761591 140 126 108
-0.437068 0.097386 0.760162 185 173 156
-0.437446 0.097203 0.775527 143 123 101
-0.209305 0.387509 0.461398 121 114 102
-0.414362 0.095080 0.585132 211 200 192
-0.423222 0.094456 0.582688 160 144 128
-0.431458 0.093655 0.601081 176 158 138
-0.433899 0.088666 0.606331 217 204 195
-0.420876 0.096465 0.615476 173 161 149
-0.437206 0.082035 0.644228 214 204 194
-0.450677 0.077976 0.674470 213 204 193
-0.440717 0.080190 0.671011 216 203 196
-0.543633 0.067913 0.492527 217 211 204
-0.555032 0.066410 0.459934 215 213 204
-0.557021 0.068028 0.481665 215 212 207
-0.164875 0.096841 0.586883 216 209 199
-0.320536 0.101563 0.607785 223 211 201
-0.322601 0.102723 0.625168 224 207 203
-0.333514 0.101876 0.609167 220 208 196
-0.167659 0.098980 0.647236 218 206 193
-0.389046 0.357491 0.495765 197 184 175
-0.390681 0.337417 0.488954 140 132 121
-0.395083 0.345235 0.472852 109 102 87
-0.335852 0.394236 0.510775 102 98 87
-0.344186 0.392316 0.500281 94 93 87
-0.322543 0.381717 0.529056 137 128 121
-0.327233 0.387845 0.520842 131 120 115
-0.333857 0.389180 0.519675 114 108 100
-0.320478 0.391996 0.496982 91 90 76
-0.314826 0.389426 0.490476 91 86 76
-0.321269 0.394879 0.511429 136 128 119
-0.346912 0.386351 0.517955 133 125 117
-0.329181 0.391002 0.501580 101 96 82
-0.331905 0.389109 0.489056 95 94 79
-0.332185 0.393374 0.529030 132 125 121
-0.538911 0.076218 0.635543 215 201 194
-0.573651 0.076840 0.644306 210 200 193
-0.543949 0.075485 0.616167 214 201 195
-0.390986 0.303220 0.488429 91 92 76
-0.227774 0.076956 0.720637 213 198 189
-0.231760 0.074254 0.728496 204 189 185
-0.400250 0.097286 0.657952 210 198 186
-0.429328 0.097380 0.648611 140 129 110
-0.411704 0.096322 0.678355 196 183 173
-0.433694 0.095596 0.662563 167 151 128
-0.437593 0.083886 0.680635 214 205 195
-0.437527 0.085855 0.668859 214 204 191
-0.402049 0.091191 0.685560 212 198 189
-0.463607 0.079307 0.721736 217 201 194
-0.485989 0.076180 0.642244 214 202 198
-0.462607 0.077381 0.656215 215 203 194
-0.252883 0.101359 0.585640 227 211 205
-0.261506 0.103451 0.617168 225 209 198
-0.265851 0.102103 0.596197 227 211 206
-0.252585 0.099755 0.656906 183 167 156
-0.256665 0.098586 0.671446 193 179 167
-0.244979 0.094774 0.680782 204 189 175
-0.258884 0.091367 0.683447 206 190 176
-0.264617 0.098989 0.658199 210 196 185
-0.237464 0.098329 0.668548 184 170 157
-0.216871 0.094727 0.678324 218 205 198
-0.219365 0.098206 0.656850 210 199 184
-0.253103 0.388565 0.459993 125 119 108
-0.275049 0.388925 0.461419 123 116 103
-0.254160 0.389912 0.471375 117 112 95
-0.273958 0.390202 0.470176 116 111 97
-0.261351 0.385817 0.486815 91 87 87
-0.251450 0.384123 0.486151 112 111 91
-0.241907 0.385245 0.480183 117 114 96
-0.261767 0.389005 0.482175 118 110 99
-0.275329 0.389804 0.480037 112 109 99
-0.488012 0.069579 0.539665 217 207 202
-0.483385 0.071709 0.553612 216 208 202
-0.481024 0.069998 0.530427 214 208 201
-0.503645 0.081263 0.777063 208 199 189
-0.492866 0.080814 0.792001 200 189 179
-0.436654 0.065662 0.469599 218 211 209
-0.451195 0.066343 0.478640 217 212 210
-0.444121 0.065449 0.485510 221 211 210
-0.468023 0.069006 0.492379 215 208 200
-0.366686 0.393091 0.451288 142 134 123
-0.355154 0.393870 0.466460 125 117 108
-0.378525 0.389742 0.494514 111 104 91
-0.361084 0.394160 0.483946 112 107 109
-0.350617 0.388797 0.493853 109 107 97
-0.372762 0.075851 0.699773 217 204 195
-0.378027 0.078891 0.691245 218 205 196
-0.401298 0.100735 0.636550 207 191 178
-0.351126 0.101648 0.634167 205 194 184
-0.356359 0.099320 0.648543 212 203 192
-0.492348 0.077579 0.659876 216 203 197
-0.495075 0.075711 0.624730 214 204 196
-0.399437 0.154274 0.476499 114 110 92
-0.397924 0.184654 0.468850 161 151 141
-0.396959 0.179602 0.488817 162 152 141
-0.173922 0.100635 0.609327 223 212 203
-0.188575 0.098478 0.587024 224 214 206
-0.187180 0.102951 0.613248 223 211 204
-0.196648 0.101015 0.605933 222 211 200
-0.157526 0.077205 0.698215 215 198 190
-0.204103 0.078524 0.694083 220 203 198
-0.186754 0.078795 0.699696 220 205 192
-0.178287 0.081233 0.690668 219 205 192
-0.177710 0.077166 0.714934 208 190 184
-0.193597 0.079026 0.718390 214 196 189
-0.159709 0.076756 0.710325 206 192 183
-0.162376 0.080895 0.692861 215 198 192
-0.361848 0.076560 0.697310 218 206 198
-0.351948 0.076943 0.710400 218 205 197
-0.351873 0.078823 0.693291 216 205 197
-0.349215 0.083615 0.689431 218 205 197
-0.338070 0.078280 0.696872 218 205 197
-0.152844 0.384623 0.459175 126 118 106
-0.312015 0.078667 0.705874 220 203 197
-0.322036 0.079954 0.693530 219 204 198
-0.311244 0.084767 0.687784 220 205 195
-0.288397 0.079900 0.694569 219 204 197
-0.298360 0.078327 0.705194 219 204 197
-0.358502 0.097321 0.661168 182 171 153
-0.330622 0.098574 0.673252 202 187 172
-0.369396 0.094657 0.676989 202 187 172
-0.375443 0.096576 0.671778 201 190 179
-0.350507 0.092413 0.683221 218 204 199
-0.447499 0.077282 0.783178 186 176 172
-0.467594 0.079434 0.786742 197 188 184
-0.286020 0.387450 0.501979 83 86 71
-0.280132 0.388964 0.517141 87 84 75
-0.276965 0.385976 0.487978 85 83 73
-0.380943 0.106114 0.559305 216 203 194
-0.345573 0.108214 0.554526 216 202 192
-0.436197 0.094937 0.680261 179 166 147
-0.420923 0.095674 0.702891 191 179 165
-0.417351 0.095431 0.690244 206 196 184
-0.087798 0.384363 0.467487 105 97 80
-0.110028 0.385018 0.465276 100 98 87
-0.087582 0.381106 0.458802 92 84 69
-0.071993 0.382492 0.466895 89 82 75
-0.095707 0.377922 0.472837 61 57 47
-0.239842 0.107121 0.553790 213 202 187
-0.252910 0.111132 0.553198 215 202 192
-0.284629 0.102212 0.580858 226 213 207
-0.249239 0.107238 0.565954 221 207 200
-0.262600 0.104692 0.563231 218 202 193
-0.245012 0.105229 0.576234 227 212 208
-0.410457 0.092166 0.752793 204 195 183
-0.426038 0.099013 0.775779 200 188 178
-0.412197 0.092338 0.773335 167 154 140
-0.434499 0.093319 0.781371 140 124 106
-0.253465 0.388572 0.494352 74 73 62
-0.266976 0.388266 0.514624 105 102 95
-0.269096 0.392988 0.508366 102 100 89
-0.268331 0.384707 0.523425 87 82 80
-0.265833 0.386236 0.499306 74 73 65
-0.265256 0.387474 0.492363 81 81 74
-0.249821 0.386857 0.511586 57 52 50
-0.170811 0.096941 0.683560 209 195 180
-0.398714 0.123725 0.455753 210 199 192
-0.399367 0.136096 0.478177 206 198 183
-0.213865 0.075217 0.723956 207 191 183
-0.208809 0.080057 0.715992 214 196 192
-0.287864 0.391069 0.518036 91 85 79
-0.280873 0.393850 0.525303 91 85 79
-0.295792 0.388355 0.497967 86 84 76
-0.309754 0.387591 0.502555 72 69 68
-0.299295 0.390576 0.519372 155 145 141
-0.306308 0.386810 0.523698 137 131 123
-0.311386 0.388762 0.513953 131 124 117
-0.318730 0.078446 0.733967 216 202 192
-0.327998 0.077811 0.748708 215 201 194
-0.310557 0.079366 0.715650 220 204 197
-0.332028 0.078408 0.726723 218 204 198
-0.301312 0.078621 0.729362 215 200 193
-0.306802 0.078526 0.741972 210 196 193
-0.392659 0.216910 0.504364 158 149 131
-0.390298 0.226924 0.509643 168 160 145
-0.392507 0.230031 0.496401 100 91 80
-0.531709 0.081079 0.787223 211 196 193
-0.520011 0.080753 0.794662 209 197 192
-0.506962 0.082020 0.791461 203 194 183
-0.497153 0.078727 0.796675 198 187 183
-0.513696 0.078115 0.799832 203 193 187
-0.348044 0.393747 0.473729 125 117 107
-0.327386 0.390306 0.463959 127 125 112
-0.343266 0.392574 0.465820 131 128 118
-0.328620 0.392831 0.471767 124 124 112
-0.340329 0.392726 0.484892 116 112 102
-0.325820 0.393023 0.482962 120 116 104
-0.389617 0.321284 0.499476 155 145 134
-0.215051 0.101877 0.625454 214 200 188
-0.200821 0.101572 0.641246 207 193 179
-0.218717 0.101369 0.643564 221 208 196
-0.193405 0.099560 0.659287 221 209 196
-0.165641 0.098183 0.605531 225 213 205
-0.440113 0.073743 0.577148 213 206 199
-0.457448 0.073873 0.585400 218 206 197
-0.434191 0.076092 0.576151 220 205 199
-0.438437 0.075673 0.559799 217 206 200
-0.317713 0.104520 0.572449 223 210 200
-0.250358 0.076727 0.731866 211 197 191
-0.243141 0.077612 0.717463 210 198 189
-0.552151 0.078968 0.723776 215 202 196
-0.547581 0.077168 0.696173 210 200 190
-0.558336 0.078485 0.709417 212 200 193
-0.526758 0.074363 0.594168 217 204 200
-0.513225 0.075320 0.611668 216 202 193
-0.403220 0.099446 0.610209 168 156 147
-0.393021 0.176031 0.503495 161 152 140
-0.397487 0.157101 0.498395 157 150 132
-0.396076 0.153390 0.508881 188 179 169
-0.398159 0.156267 0.504921 168 158 147
-0.432130 0.080595 0.564559 216 206 198
-0.429964 0.090586 0.573869 197 181 172
-0.435244 0.078219 0.592268 216 201 192
-0.420351 0.098444 0.565382 212 202 193
-0.497206 0.063879 0.460186 217 214 206
-0.506145 0.066049 0.474571 219 211 208
-0.306187 0.099961 0.655860 188 173 158
-0.279388 0.099820 0.659189 206 198 186
-0.283175 0.098064 0.676598 191 174 165
-0.292464 0.093759 0.682644 213 200 191
-0.206231 0.107843 0.566409 214 203 194
-0.223978 0.105477 0.574993 216 205 195
-0.230335 0.103709 0.568975 220 206 191
-0.235154 0.101655 0.585514 225 213 202
-0.211207 0.105989 0.558196 190 176 171
-0.211890 0.101594 0.584471 224 213 203
-0.358520 0.079120 0.748376 210 200 191
-0.344251 0.078518 0.751837 210 196 190
-0.340473 0.074047 0.757288 204 191 184
-0.358985 0.077364 0.758240 203 190 186
-0.383939 0.369383 0.510677 172 162 149
-0.387359 0.359402 0.513181 174 164 150
-0.383044 0.369734 0.492741 123 114 108
-0.233584 0.076463 0.713565 220 204 193
-0.256433 0.078746 0.704628 217 205 197
-0.232545 0.077477 0.700787 222 205 198
-0.245020 0.080727 0.693682 221 204 197
-0.261653 0.078451 0.715173 221 203 196
-0.267567 0.079608 0.694798 220 205 199
-0.394546 0.111953 0.487193 218 207 205
-0.384978 0.087652 0.524465 209 196 189
-0.395513 0.091258 0.523474 205 198 188
-0.412642 0.089303 0.516433 205 198 190
-0.396782 0.090249 0.504069 215 208 200
-0.383942 0.092089 0.510759 176 170 159
-0.392175 0.101155 0.501568 195 183 176
-0.307329 0.073767 0.749077 192 179 174
-0.433278 0.098124 0.693972 144 129 119
-0.331942 0.079554 0.717678 217 203 196
-0.339308 0.077453 0.740860 221 200 192
-0.358663 0.077902 0.737603 221 200 194
-0.364863 0.077321 0.723609 217 203 197
-0.354706 0.076942 0.728343 217 203 194
-0.396989 0.223826 0.461355 107 100 93
-0.442797 0.068901 0.498822 213 207 200
-0.468537 0.070466 0.526508 216 206 201
-0.458841 0.069278 0.512211 215 210 203
-0.329388 0.099400 0.666584 183 174 158
-0.297390 0.099251 0.671276 190 180 159
-0.320034 0.100156 0.655510 202 192 179
-0.317802 0.095428 0.678739 218 201 191
-0.429327 0.095793 0.628673 198 185 173
-0.435847 0.079485 0.611985 216 205 196
-0.415976 0.097619 0.638595 216 203 194
-0.434390 0.093776 0.642394 163 150 125
-0.500894 0.073767 0.595470 217 206 197
-0.322593 0.099911 0.591421 225 211 206
-0.538554 0.080708 0.749283 213 200 196
-0.521678 0.080948 0.764128 210 201 196
-0.523573 0.082217 0.775476 213 198 195
-0.533490 0.080769 0.769601 214 199 194
-0.488076 0.079481 0.735139 212 203 194
-0.488079 0.081189 0.754612 212 200 195
-0.506690 0.080830 0.760549 213 202 195
-0.485367 0.081004 0.769388 213 200 196
-0.475573 0.080429 0.757919 213 201 195
-0.423301 0.070231 0.490119 217 207 202
-0.423258 0.069308 0.511758 216 206 205
-0.420579 0.078179 0.524617 215 207 202
-0.426001 0.070054 0.521542 216 209 206
-0.415607 0.085940 0.502440 209 197 193
-0.121678 0.382091 0.474023 101 96 85
-0.112063 0.381937 0.474273 88 78 71
-0.389955 0.303076 0.503009 119 111 101
-0.393331 0.316244 0.479201 126 119 107
-0.390546 0.304659 0.510688 169 156 146
-0.211767 0.101019 0.595344 224 210 203
-0.239984 0.102331 0.605686 225 212 202
-0.224297 0.102768 0.611977 222 211 199
-0.306040 0.103048 0.637988 218 206 198
-0.447454 0.075388 0.615168 216 203 192
-0.439130 0.076387 0.612505 217 202 195
-0.138938 0.382510 0.477396 113 107 100
-0.154205 0.387016 0.467513 117 113 94
-0.169209 0.387698 0.470650 110 106 95
-0.153498 0.385592 0.475008 117 106 92
-0.532359 0.078263 0.695310 213 201 195
-0.388852 0.284016 0.506187 163 151 145
-0.387085 0.267121 0.506745 166 157 141
-0.388108 0.256866 0.504265 139 130 114
-0.407750 0.090599 0.768966 200 187 181
-0.439990 0.078168 0.635422 217 204 195
-0.444030 0.077653 0.647167 215 204 197
-0.249234 0.101748 0.648589 218 207 192
-0.261042 0.103675 0.636936 218 206 190
-0.184998 0.097526 0.675877 184 171 148
-0.208508 0.098449 0.670444 180 169 146
-0.171089 0.096102 0.663482 225 208 201
-0.201245 0.096547 0.678499 217 202 195
-0.183439 0.093250 0.683859 215 199 185
-0.548082 0.070390 0.547997 213 206 201
-0.561672 0.071651 0.546459 216 205 201
-0.529356 0.072250 0.555818 216 206 202
-0.521328 0.069485 0.496679 215 208 203
-0.502491 0.070745 0.511393 214 206 204
-0.516794 0.070436 0.519197 214 207 206
-0.525054 0.069451 0.506745 216 207 203
-0.333742 0.096465 0.678340 216 203 193
-0.396165 0.252864 0.462642 106 98 92
-0.284865 0.107984 0.552686 212 196 188
-0.388635 0.338724 0.498963 162 152 145
-0.391818 0.332982 0.507509 178 167 158
-0.390167 0.349299 0.506238 180 168 158
-0.389282 0.331212 0.512973 182 168 162
-0.426789 0.098316 0.670172 147 134 118
-0.269396 0.110377 0.555391 210 197 187
-0.287385 0.102551 0.610917 214 201 186
-0.292101 0.101371 0.645990 219 206 195
-0.292012 0.103034 0.629126 205 191 180
-0.561972 0.074250 0.607932 216 206 199
-0.396546 0.216525 0.483146 103 100 90
-0.395599 0.243333 0.482374 99 96 81
-0.398375 0.093239 0.545980 219 207 204
-0.400823 0.089163 0.529380 217 205 199
-0.390526 0.106766 0.549758 213 204 195
-0.405475 0.098791 0.553857 215 202 198
-0.389236 0.094725 0.533216 174 163 154
-0.387151 0.097401 0.542588 166 155 148
-0.387706 0.214048 0.510432 161 152 137
-0.388929 0.183005 0.508845 166 158 148
-0.393583 0.197077 0.500939 114 107 94
-0.554310 0.076842 0.650967 213 203 194
-0.542707 0.077475 0.663463 215 203 192
-0.530662 0.077908 0.659094 212 202 196
-0.562299 0.080349 0.777452 211 199 193
-0.168038 0.099150 0.629362 222 208 203
-0.183707 0.102637 0.627605 222 208 202
-0.182337 0.101821 0.648732 221 206 196
-0.561328 0.079677 0.748107 213 198 196
-0.544941 0.081454 0.779135 206 198 194
-0.529630 0.079719 0.715168 216 203 193
-0.504132 0.078842 0.728449 213 202 196
-0.285769 0.388405 0.483820 94 83 74
-0.383818 0.380439 0.464834 171 165 156
-0.394386 0.365210 0.461803 119 111 101
-0.383302 0.382392 0.489749 124 115 104
-0.384688 0.382449 0.478037 135 128 116
-0.389233 0.369242 0.476274 138 130 120
-0.390897 0.358755 0.485189 104 99 88
-0.394030 0.365838 0.475830 105 101 93
-0.383273 0.388473 0.476604 147 141 131
-0.227625 0.110373 0.554201 212 200 190
-0.238231 0.107993 0.560545 215 201 190
-0.371057 0.100919 0.611668 205 194 189
-0.387284 0.100774 0.616418 205 194 183
-0.383888 0.097246 0.656935 218 204 198
-0.236069 0.102725 0.632167 208 193 181
-0.507491 0.071732 0.530419 214 207 204
-0.519186 0.070849 0.543399 214 207 204
-0.507100 0.072999 0.559184 218 208 201
-0.503683 0.071391 0.538366 216 208 201
-0.539749 0.070936 0.539797 214 208 198
-0.318028 0.109030 0.553543 218 202 194
-0.349146 0.104191 0.563632 217 203 191
-0.471195 0.077923 0.675355 216 203 197
-0.395365 0.097146 0.490081 217 207 199
-0.397115 0.087949 0.480567 215 205 200
-0.398712 0.091391 0.490067 215 205 200
-0.393053 0.091288 0.462989 216 208 202
-0.396502 0.086916 0.462871 214 206 203
-0.397373 0.119966 0.485323 215 210 201
-0.390530 0.107774 0.471028 218 209 205
-0.198539 0.112647 0.572109 214 202 195
-0.202639 0.103984 0.577488 220 209 202
-0.177100 0.099404 0.587428 221 209 199
-0.178189 0.108172 0.572241 214 203 193
-0.180913 0.104113 0.580294 215 202 195
-0.469784 0.069622 0.506575 216 207 200
-0.486089 0.069146 0.497278 216 208 200
-0.393906 0.273162 0.478876 105 100 88
-0.391054 0.271053 0.495364 102 94 84
-0.389865 0.283424 0.490240 92 95 75
-0.461338 0.078614 0.695043 215 204 195
-0.442553 0.078936 0.694716 217 204 193
-0.439426 0.086574 0.711483 217 206 194
-0.445643 0.079972 0.710279 216 202 198
-0.391325 0.233434 0.502869 150 142 125
-0.391961 0.248440 0.509269 159 154 138
-0.374532 0.393778 0.477052 109 104 92
-0.407661 0.089516 0.732100 208 197 189
-0.511628 0.079143 0.693571 212 203 190
-0.534152 0.078061 0.680668 212 203 192
-0.500456 0.078271 0.688138 212 203 191
-0.497145 -0.278092 -0.557301 172 167 153
-0.477042 -0.278818 -0.550168 175 164 153
-0.502862 -0.276910 -0.536499 174 166 155
-0.571830 -0.277261 -0.534833 173 164 148
-0.565677 -0.277842 -0.564957 172 163 142
-0.546297 -0.277026 -0.548332 175 163 146
-0.477325 -0.279815 -0.594959 176 169 149
-0.488949 -0.279351 -0.583230 179 169 148
-0.457669 -0.279057 -0.685546 163 155 138
-0.458731 -0.279035 -0.632997 165 154 138
-0.455817 -0.278715 -0.643550 173 155 135
-0.468777 -0.280105 -0.661020 168 158 140
-0.435161 -0.276743 -0.527436 177 168 161
-0.576825 -0.278883 -0.582957 174 167 145
-0.546786 -0.279816 -0.597365 179 162 152
-0.560720 -0.278835 -0.591044 174 165 154
-0.475564 -0.278035 -0.613894 167 160 135
-0.452842 -0.275814 -0.548072 179 169 151
-0.434748 -0.280028 -0.558089 179 168 148
-0.461384 -0.276686 -0.534770 177 167 151
-0.518862 -0.280569 -0.644590 176 165 150
-0.611481 -0.279005 -0.566082 172 162 158
-0.494168 -0.279244 -0.623598 173 158 137
-0.506721 -0.280141 -0.653457 168 157 138
-0.479125 -0.279717 -0.639083 167 159 132
-0.531205 -0.278174 -0.568019 175 164 152
-0.470530 -0.277813 -0.565312 179 167 157
-0.462971 -0.277930 -0.580263 179 168 149
-0.465021 -0.275697 -0.603572 177 162 149
-0.445122 -0.277682 -0.573060 173 161 151
-0.593484 -0.278594 -0.580582 171 163 150
-0.607151 -0.277820 -0.541832 174 164 155
-0.564893 -0.280111 -0.611083 172 162 151
-0.515826 -0.279594 -0.603318 181 163 160
-0.519834 -0.279560 -0.587397 168 168 142
-0.546479 -0.281143 -0.625957 174 166 152
-0.450823 -0.277200 -0.628494 165 151 137
-0.451726 -0.277854 -0.612133 170 156 142
-0.452815 -0.275567 -0.588078 171 157 141
-0.538427 -0.278010 -0.560457 174 162 153
-0.495795 -0.281054 -0.607439 178 165 150
-0.512884 -0.281710 -0.622702 176 170 152
-0.699223 -0.274086 -0.394457 175 165 155
-0.813184 -0.117612 0.048167 180 169 158
-0.549033 -0.269925 -0.307927 181 170 160
-0.815934 -0.173778 0.420668 190 183 175
-0.678589 -0.044030 -0.127920 203 189 169
-0.797755 0.146462 0.291842 135 125 106
-0.796864 0.176393 0.313530 128 121 108
-0.797988 0.150808 0.319351 133 123 106
-0.798019 0.123012 0.322830 146 138 126
-0.791092 0.148500 0.332857 130 126 116
-0.795641 0.149878 0.329268 139 133 121
-0.676482 -0.247725 -0.211360 178 169 156
-0.666839 -0.251283 -0.213302 178 169 153
-0.660371 -0.260428 -0.215516 173 163 145
-0.680862 -0.267064 -0.223861 169 161 154
-0.472931 -0.269691 -0.153062 187 171 157
-0.514957 -0.274001 -0.446894 177 164 158
-0.805610 0.382959 0.270357 103 100 83
-0.804440 0.389277 0.282033 92 88 81
-0.807331 0.378661 0.292567 101 97 80
-0.799872 0.143554 -0.126927 174 165 143
-0.819127 -0.243055 0.115981 177 172 160
-0.806594 0.383017 0.249154 110 98 86
-0.803622 0.388649 0.234349 105 95 82
-0.799763 0.392614 0.274689 106 97 86
-0.803199 0.388638 0.261519 106 95 82
-0.807099 0.374733 0.251056 111 101 95
-0.713470 -0.238226 -0.125825 201 192 175
-0.511200 -0.267740 -0.249001 181 174 163
-0.821691 -0.301443 -0.080332 166 155 148
-0.776182 -0.214697 -0.128723 204 192 180
-0.748073 -0.225273 -0.127528 207 191 176
-0.454905 -0.276430 -0.516015 179 168 151
-0.808147 -0.045347 0.288042 180 171 161
-0.579686 0.099663 0.340122 135 130 118
-0.716274 0.392487 0.285219 150 138 127
-0.686619 0.391076 0.285919 143 138 121
-0.807764 -0.001794 0.039168 180 168 157
-0.634005 -0.146133 -0.126561 203 188 173
-0.608501 -0.134923 -0.125931 208 193 173
-0.574789 0.059524 0.385378 181 178 161
-0.602132 0.059822 0.385374 216 209 202
-0.582772 0.062300 0.381135 169 165 147
-0.557068 0.074492 0.373117 168 164 155
-0.548644 0.060893 0.381483 181 178 161
-0.665312 0.062821 0.404961 211 208 198
-0.674781 0.064237 0.417668 214 208 200
-0.825168 -0.323461 0.163775 174 167 162
-0.823083 -0.303588 0.158356 176 167 161
-0.823402 -0.301048 0.191886 172 167 160
-0.806539 0.036031 0.015168 179 169 155
-0.806305 0.031085 -0.021332 178 171 156
-0.788386 0.355575 -0.111805 161 151 138
-0.802678 0.363206 -0.119164 142 131 123
-0.785002 0.353024 -0.124126 170 158 143
-0.809931 0.358023 -0.130581 136 126 117
-0.809286 0.351122 -0.131411 142 132 120
-0.794368 0.346975 -0.134607 183 176 154
-0.789951 0.352081 -0.131561 184 172 157
-0.793426 0.330404 -0.130896 188 173 156
-0.803219 0.353189 -0.135289 178 163 150
-0.806425 0.361862 -0.130567 127 118 110
-0.802357 0.064707 0.397293 183 173 167
-0.819221 -0.239928 0.203418 180 174 169
-0.812882 -0.114079 0.172668 174 169 161
-0.551817 -0.202474 -0.125362 203 187 178
-0.619236 0.226453 -0.129474 198 188 170
-0.594218 0.081707 0.359162 211 206 199
-0.577796 0.080475 0.349276 213 206 201
-0.594921 0.081118 0.365152 207 200 190
-0.587834 0.110288 0.338218 142 131 118
-0.600679 0.082022 0.349425 178 171 160
-0.592829 0.095418 0.341751 147 144 132
-0.595801 0.086707 0.345178 188 181 171
-0.573925 0.080510 0.363333 208 201 194
-0.713278 0.083997 0.364859 196 194 189
-0.779075 0.280425 -0.133518 196 184 165
-0.708460 0.349446 -0.063332 208 196 181
-0.756079 0.349743 -0.060832 207 197 181
-0.823141 -0.323987 -0.000082 170 159 152
-0.821727 -0.313095 0.004501 173 162 160
-0.816917 -0.195874 0.350168 187 176 178
-0.762368 -0.269796 -0.277292 173 165 158
-0.814880 -0.158007 0.422668 195 184 176
-0.803530 0.076545 0.108043 175 165 154
-0.803394 0.087988 0.083918 168 168 154
-0.565729 -0.263743 -0.131497 210 196 183
-0.563514 -0.267108 -0.138642 204 188 172
-0.530982 -0.266465 -0.137006 206 189 174
-0.780106 0.393850 0.271259 120 116 103
-0.765943 0.392609 0.253480 138 133 123
-0.813288 -0.132725 -0.046519 186 174 165
-0.820768 -0.291556 -0.008957 172 164 156
-0.752324 0.388285 0.306616 150 149 132
-0.759446 0.387592 0.313561 149 146 134
-0.752771 0.390757 0.313118 160 157 145
-0.802348 0.130051 -0.089208 177 168 152
-0.696091 0.388232 0.180967 154 151 140
-0.686662 0.382497 0.164938 162 153 139
-0.804685 0.366519 0.258297 124 116 102
-0.802811 0.364251 0.232479 116 109 99
-0.646657 -0.247499 -0.211318 178 169 153
-0.798833 0.124587 0.312356 150 143 133
-0.794731 0.109844 0.330943 156 147 133
-0.799791 0.098443 0.327904 159 154 142
-0.468005 -0.276235 -0.506739 175 163 149
-0.501477 -0.275651 -0.507645 174 163 153
-0.486937 -0.276998 -0.525351 177 164 151
-0.794055 0.318364 0.093485 171 164 155
-0.682501 0.389420 0.304487 142 137 117
-0.817033 -0.286444 -0.250769 133 125 121
-0.782763 0.092737 0.412424 148 142 134
-0.768623 0.076263 0.382905 151 145 139
-0.762217 0.071423 0.433334 163 162 155
-0.639854 -0.210968 -0.125549 202 191 179
-0.739901 -0.272286 -0.356832 176 170 156
-0.779791 -0.261665 -0.340284 172 166 160
-0.756978 -0.273200 -0.352832 175 169 157
-0.809129 -0.026061 0.046543 182 169 160
-0.800608 0.087979 0.276292 165 158 140
-0.801614 0.067156 0.299168 169 160 152
-0.631519 0.202910 -0.129805 200 188 169
-0.798039 0.250422 0.047719 180 171 155
-0.798686 0.098818 0.421979 153 149 145
-0.797820 0.097428 0.383451 165 157 145
-0.793869 0.099679 0.411356 152 147 138
-0.664955 -0.272567 -0.362177 177 169 162
-0.672973 -0.272299 -0.350256 176 170 156
-0.691057 -0.264044 -0.216256 172 163 154
-0.734669 -0.263017 -0.217046 174 163 147
-0.715607 -0.267399 -0.224725 172 163 159
-0.711864 -0.248483 -0.212416 178 166 149
-0.708799 -0.260362 -0.215097 173 164 151
-0.696610 -0.251893 -0.213810 172 164 148
-0.604237 -0.162292 -0.125482 205 188 172
-0.597373 -0.174806 -0.125729 203 186 175
-0.805654 -0.243703 -0.277757 108 104 102
-0.810923 -0.243134 -0.256833 109 104 99
-0.807706 -0.240744 -0.242537 104 102 97
-0.800646 -0.243773 -0.242250 109 104 101
-0.808471 -0.014631 0.015168 181 171 158
-0.805757 0.006204 0.389606 185 180 170
-0.749013 -0.271656 -0.334332 178 169 159
-0.732506 -0.270124 -0.300832 178 169 161
-0.670307 -0.268578 -0.262677 171 161 149
-0.803570 0.031925 0.299793 177 167 163
-0.804992 0.011149 0.317951 176 170 163
-0.805678 -0.002327 0.300851 179 169 161
-0.650698 -0.229436 -0.125321 200 190 174
-0.648541 -0.246349 -0.124366 209 198 184
-0.814676 -0.162308 -0.028332 183 173 166
-0.803057 0.110736 -0.060863 181 169 156
-0.575261 0.065528 0.457425 216 209 207
-0.518407 -0.243784 -0.195286 153 144 125
-0.536488 -0.245286 -0.209065 178 168 151
-0.554196 -0.245588 -0.206892 173 160 145
-0.821471 -0.270838 0.280793 181 176 173
-0.687367 -0.276631 -0.472832 173 164 154
-0.684260 0.288104 -0.131379 202 188 173
-0.804298 0.032373 0.220292 169 165 154
-0.803266 0.056024 0.221854 173 163 154
-0.823824 -0.376638 -0.059832 149 146 129
-0.799157 0.216623 0.048355 178 171 157
-0.797322 0.389074 0.163322 136 132 122
-0.779104 0.389519 0.164305 143 144 129
-0.810714 -0.100802 0.294168 179 170 164
-0.800433 -0.248275 -0.332846 109 107 98
-0.824002 -0.308691 0.214015 173 168 157
-0.658798 0.066843 0.456167 213 208 207
-0.647823 0.063907 0.427918 214 207 201
-0.839262 -0.338820 0.147756 155 148 140
-0.833155 -0.355085 0.161917 142 135 120
-0.828796 -0.332390 0.166719 175 170 161
-0.831852 -0.335638 0.149168 173 170 161
-0.656515 -0.251362 -0.178548 151 142 128
-0.665787 -0.258782 -0.170718 171 156 145
-0.697192 -0.257760 -0.171499 173 158 146
-0.791396 0.099293 0.377811 150 147 140
-0.800298 0.081361 0.377373 174 165 156
-0.801270 0.078819 0.412689 175 166 157
-0.790626 0.098222 0.382906 149 144 136
-0.787389 0.095722 0.365016 156 146 139
-0.805488 0.006015 0.349167 182 171 168
-0.803496 0.033985 0.340168 183 176 171
-0.805723 -0.003376 0.279792 175 166 159
-0.591697 -0.267690 -0.227832 173 164 154
-0.600769 -0.266626 -0.218810 174 162 155
-0.591819 -0.248765 -0.211949 171 160 138
-0.617484 -0.248487 -0.210970 183 174 156
-0.515605 -0.201346 -0.124898 199 188 172
-0.746894 -0.031476 -0.129804 204 187 176
-0.762317 -0.034096 -0.130102 205 189 172
-0.811434 -0.113696 -0.121403 147 140 129
-0.809381 -0.148115 -0.131315 169 159 148
-0.810915 -0.117956 -0.126868 165 155 146
-0.821160 -0.311870 -0.131288 158 148 141
-0.825075 -0.339297 -0.118260 161 155 144
-0.823082 -0.327601 -0.121886 158 152 142
-0.807457 -0.003001 0.108542 176 170 160
-0.768620 0.112106 0.335045 122 116 99
-0.780144 0.111436 0.333488 147 140 124
-0.786712 0.127162 0.334657 140 138 118
-0.592263 -0.248733 -0.181595 148 139 122
-0.586408 -0.243751 -0.195904 154 148 129
-0.536215 -0.243832 -0.194401 145 133 120
-0.577054 -0.244706 -0.189148 141 131 110
-0.555523 -0.246989 -0.183701 148 138 120
-0.585104 -0.245389 -0.206798 182 172 160
-0.538136 -0.251858 -0.177395 147 135 123
-0.566026 -0.244379 -0.198464 159 150 135
-0.794804 0.256896 0.252793 133 123 114
-0.814907 -0.203021 -0.117317 132 131 122
-0.805314 -0.216873 -0.132260 171 166 150
-0.811307 -0.190760 -0.131645 143 139 131
-0.659701 0.128017 -0.129763 199 187 170
-0.559034 -0.271459 -0.357083 181 168 163
-0.815933 -0.265074 -0.227832 123 118 111
-0.818212 -0.237165 0.040543 176 166 163
-0.818151 -0.230135 0.029168 177 167 159
-0.622950 -0.274984 -0.441457 174 164 151
-0.462681 -0.269372 -0.322832 181 172 155
-0.457430 -0.269412 -0.330582 181 173 161
-0.789346 -0.151164 -0.130689 204 196 180
-0.803073 -0.148883 -0.133143 206 194 181
-0.809882 -0.175272 -0.132319 182 173 161
-0.811805 -0.147174 -0.126639 143 136 127
-0.813070 -0.165201 -0.122351 151 144 137
-0.818636 -0.226468 0.143418 176 169 160
-0.734017 0.064118 0.385435 207 205 201
-0.738115 0.065329 0.381042 184 182 175
-0.758359 0.080010 0.368920 168 167 159
-0.740549 0.068785 0.376879 175 174 165
-0.699012 0.382714 0.091167 195 182 171
-0.712401 0.384259 0.081167 194 188 174
-0.685229 0.380114 0.123168 193 181 172
-0.826178 -0.338358 0.035121 173 163 155
-0.443421 -0.271170 -0.367582 177 170 159
-0.718036 0.149478 -0.131120 196 185 168
-0.800628 0.131354 0.152417 170 163 154
-0.717288 0.390573 0.238658 148 144 118
-0.736566 0.391998 0.254167 153 143 128
-0.741690 0.390016 0.227880 147 141 127
-0.821599 -0.380745 0.016204 157 152 142
-0.821927 -0.378063 0.041168 149 140 130
-0.829795 -0.364209 0.022167 139 130 116
-0.825712 -0.372004 -0.031582 135 126 107
-0.639327 -0.040922 -0.127196 204 190 170
-0.586839 -0.062231 -0.126112 207 188 180
-0.639586 -0.068091 -0.127450 205 193 169
-0.808803 -0.026997 -0.009708 183 171 164
-0.806535 0.355523 0.023075 154 148 131
-0.732503 0.349199 -0.121667 209 199 179
-0.724627 0.349855 -0.097333 210 199 181
