ply
format ascii 1.0
element vertex 1226
property float x
property float y
property float z
property uchar red
property uchar green
property uchar blue
end_header
-0.683381 1.018858 -0.319297 255 125 0
-0.675694 0.997307 -0.208836 255 125 0
-0.650675 1.057296 -0.208297 255 125 0
-0.684577 1.020664 -0.157297 255 125 0
-0.638959 1.014035 -0.241297 255 125 0
-0.694525 1.024148 -0.139297 255 125 0
-0.694115 1.010424 -0.223297 255 125 0
-0.650189 1.037891 -0.163297 255 125 0
-0.659406 1.030649 -0.134739 255 125 0
-0.648293 1.003751 -0.175297 255 125 0
-0.659798 1.057664 -0.142297 255 125 0
-0.672820 0.996398 -0.307297 255 125 0
-0.692087 1.006926 -0.181297 255 125 0
-0.636453 1.037627 -0.274297 255 125 0
-0.663527 0.996829 -0.274297 255 125 0
-0.696494 1.014885 -0.274297 255 125 0
-0.648421 1.039041 -0.244297 255 125 0
-0.634878 1.031569 -0.217297 255 125 0
-0.701555 1.030407 -0.322297 255 125 0
-0.691500 1.052806 -0.146857 255 125 0
-0.649508 1.040813 -0.301297 255 125 0
-0.657670 1.053245 -0.058297 255 125 0
-0.689313 1.005378 -0.208297 255 125 0
-0.672575 1.011979 -0.278791 255 125 0
-0.674049 1.012292 -0.202297 255 125 0
-0.656978 1.013214 -0.319297 255 125 0
-0.661335 1.018791 -0.109297 255 125 0
-0.645020 1.006122 -0.265297 255 125 0
-0.661704 1.018869 -0.070297 255 125 0
-0.638213 1.014921 -0.295297 255 125 0
-0.634650 1.028454 -0.322297 255 125 0
-0.674210 1.047576 -0.064296 255 125 0
-0.678140 1.014655 -0.235297 255 125 0
-0.642992 1.050153 -0.220297 255 125 0
-0.636771 1.016637 -0.256297 255 125 0
-0.666851 1.059835 -0.313297 255 125 0
-0.694322 1.010672 -0.256297 255 125 0
-0.652749 1.033110 -0.121297 255 125 0
-0.653430 1.015469 -0.193297 255 125 0
-0.694937 1.036638 -0.301297 255 125 0
-0.676571 1.043499 -0.094297 255 125 0
-0.638577 1.020088 -0.226297 255 125 0
-0.642661 1.008688 -0.280297 255 125 0
-0.635771 1.019491 -0.310297 255 125 0
-0.642369 1.053085 -0.277297 255 125 0
-0.635324 1.025530 -0.175297 255 125 0
-0.658692 1.012095 -0.256297 255 125 0
-0.687518 1.021290 -0.301297 255 125 0
-0.666395 1.012197 -0.226297 255 125 0
-0.672997 0.995559 -0.244297 255 125 0
-0.648471 1.031392 -0.268297 255 125 0
-0.681213 1.000198 -0.172297 255 125 0
-0.692629 1.033067 -0.166297 255 125 0
-0.652729 1.047632 -0.173794 255 125 0
-0.662245 1.009783 -0.295297 255 125 0
-0.636554 1.022725 -0.150138 255 125 0
-0.701243 1.027274 -0.196297 255 125 0
-0.681379 1.013850 -0.332674 255 125 0
-0.650365 1.022593 -0.217297 255 125 0
-0.651666 1.038205 -0.057480 255 125 0
-0.672088 1.014274 -0.121297 255 125 0
-0.645089 1.006137 -0.205297 255 125 0
-0.679947 1.035015 -0.106047 255 125 0
-0.697130 1.014131 -0.316297 255 125 0
-0.691685 1.037510 -0.149743 255 125 0
-0.686337 1.019378 -0.205297 255 125 0
-0.662780 1.043634 -0.071817 255 125 0
-0.694921 1.044332 -0.175297 255 125 0
-0.681082 1.015247 -0.289297 255 125 0
-0.646253 1.015585 -0.136297 255 125 0
-0.660192 0.998094 -0.205297 255 125 0
-0.642425 1.052822 -0.325297 255 125 0
-0.666625 0.996679 -0.190297 255 125 0
-0.667840 1.063112 -0.212432 255 125 0
-0.695391 1.048932 -0.214297 255 125 0
-0.657025 0.998562 -0.259297 255 125 0
-0.683954 1.001736 -0.265297 255 125 0
-0.694452 1.010059 -0.196297 255 125 0
-0.691485 1.031334 -0.235297 255 125 0
-0.665459 1.016601 -0.140698 255 125 0
-0.686344 1.019351 -0.175297 255 125 0
-0.701206 1.036006 -0.286297 255 125 0
-0.645387 1.053316 -0.196297 255 125 0
-0.645194 1.006159 -0.310297 255 125 0
-0.665387 1.045797 -0.136297 255 125 0
-0.641615 1.042203 -0.140641 255 125 0
-0.653425 1.015498 -0.244297 255 125 0
-0.643435 1.008852 -0.154297 255 125 0
-0.655337 1.049790 -0.310297 255 125 0
-0.635014 1.025465 -0.286297 255 125 0
-0.700488 1.039381 -0.260966 255 125 0
-0.672919 1.010362 -0.319297 255 125 0
-0.671283 1.018060 -0.097296 255 125 0
-0.663264 0.998069 -0.151297 255 125 0
-0.655890 1.026835 -0.091297 255 125 0
-0.677237 1.040573 -0.130297 255 125 0
-0.651880 1.044384 -0.268297 255 125 0
-0.674702 1.030833 -0.052450 255 125 0
-0.646973 1.055610 -0.145297 255 125 0
-0.651873 1.044383 -0.205297 255 125 0
-0.637040 1.041230 -0.289297 255 125 0
-0.660189 1.041392 -0.112297 255 125 0
-0.693556 1.028707 -0.332665 255 125 0
-0.636300 1.041073 -0.190297 255 125 0
-0.662807 1.062042 -0.160296 255 125 0
-0.681118 1.000641 -0.295297 255 125 0
-0.636462 1.041107 -0.319297 255 125 0
-0.670833 1.034604 -0.064296 255 125 0
-0.702321 1.021369 -0.250297 255 125 0
-0.680939 1.001489 -0.143160 255 125 0
-0.656031 1.060957 -0.172297 255 125 0
-0.664244 1.043945 -0.100296 255 125 0
-0.649113 1.028461 -0.235297 255 125 0
-0.674353 1.018043 -0.076297 255 125 0
-0.640690 1.046552 -0.163297 255 125 0
-0.661358 0.997327 -0.325297 255 125 0
-0.697501 1.017277 -0.292297 255 125 0
-0.664128 1.008434 -0.166297 255 125 0
-0.669989 1.009715 -0.265297 255 125 0
-0.693258 1.030109 -0.274297 255 125 0
-0.665242 1.060908 -0.184297 255 125 0
-0.683464 1.002026 -0.328297 255 125 0
-0.647351 1.029644 -0.295297 255 125 0
-0.656978 1.013213 -0.178297 255 125 0
-0.700996 1.033355 -0.217297 255 125 0
-0.698676 1.019048 -0.187297 255 125 0
-0.660133 0.998372 -0.301297 255 125 0
-0.660161 0.998236 -0.247297 255 125 0
-0.668536 1.030984 -0.109297 255 125 0
-0.667047 1.009129 -0.214297 255 125 0
-0.675430 0.998550 -0.277297 255 125 0
-0.684041 1.015756 -0.274297 255 125 0
-0.681083 1.015243 -0.247297 255 125 0
-0.635190 1.034703 -0.166297 255 125 0
-0.653484 1.000790 -0.280297 255 125 0
-0.651000 1.019661 -0.265297 255 125 0
-0.670855 1.034503 -0.085297 255 125 0
-0.694753 1.051931 -0.202297 255 125 0
-0.679096 1.039020 -0.118297 255 125 0
-0.661241 1.007588 -0.130297 255 125 0
-0.646394 1.040151 -0.256297 255 125 0
-0.666816 1.047559 -0.124297 255 125 0
-0.664119 1.008474 -0.310297 255 125 0
-0.669644 0.996910 -0.232297 255 125 0
-0.646165 1.006366 -0.233198 255 125 0
-0.660539 1.010887 -0.283297 255 125 0
-0.649037 1.036143 -0.175297 255 125 0
-0.639045 1.047790 -0.247297 255 125 0
-0.638109 1.015410 -0.199297 255 125 0
-0.685061 1.033035 -0.139297 255 125 0
-0.672470 0.998044 -0.319297 255 125 0
-0.697698 1.014252 -0.157297 255 125 0
-0.685287 1.002413 -0.253297 255 125 0
-0.638761 1.013993 -0.175297 255 125 0
-0.634631 1.031517 -0.205297 255 125 0
-0.635046 1.031605 -0.310297 255 125 0
-0.666681 0.996420 -0.163297 255 125 0
-0.685954 1.050040 -0.136297 255 125 0
-0.685275 1.017746 -0.226297 255 125 0
-0.648407 1.039105 -0.325297 255 125 0
-0.677522 1.017564 -0.148297 255 125 0
-0.647350 1.029648 -0.193297 255 125 0
-0.637915 1.041416 -0.226297 255 125 0
-0.656450 1.051490 -0.193297 255 125 0
-0.692935 1.025508 -0.316297 255 125 0
-0.697219 1.014150 -0.241297 255 125 0
-0.656919 0.999060 -0.181297 255 125 0
-0.649979 1.031712 -0.152757 255 125 0
-0.701204 1.030333 -0.241297 255 125 0
-0.647971 1.026731 -0.166297 255 125 0
-0.699831 1.028037 -0.295297 255 125 0
-0.651832 1.051852 -0.286297 255 125 0
-0.649230 1.020804 -0.322297 255 125 0
-0.688642 1.022965 -0.265297 255 125 0
-0.678146 1.014628 -0.184297 255 125 0
-0.656988 1.013165 -0.220297 255 125 0
-0.653032 1.046204 -0.217297 255 125 0
-0.693187 1.037829 -0.322297 255 125 0
-0.692168 1.028412 -0.208297 255 125 0
-0.647753 1.042186 -0.313297 255 125 0
-0.658125 1.027310 -0.079296 255 125 0
-0.647889 1.025134 -0.127297 255 125 0
-0.656040 1.060913 -0.307297 255 125 0
-0.636978 1.044284 -0.301297 255 125 0
-0.663462 1.011567 -0.199297 255 125 0
-0.691477 1.031332 -0.178297 255 125 0
-0.648182 1.003727 -0.322297 255 125 0
-0.688018 1.025901 -0.148297 255 125 0
-0.672646 1.054933 -0.140706 255 125 0
-0.700052 1.023954 -0.280297 255 125 0
-0.701296 1.021151 -0.221468 255 125 0
-0.634528 1.022294 -0.247297 255 125 0
-0.653433 1.015461 -0.331297 255 125 0
-0.648011 1.055400 -0.301297 255 125 0
-0.667770 1.020159 -0.053514 255 125 0
-0.686980 1.021175 -0.130297 255 125 0
-0.675482 0.998303 -0.184297 255 125 0
-0.672266 1.013432 -0.253297 255 125 0
-0.686764 1.002945 -0.154297 255 125 0
-0.647815 1.041894 -0.232297 255 125 0
-0.634521 1.032288 -0.145297 255 125 0
-0.636403 1.037866 -0.250297 255 125 0
-0.642456 1.051582 -0.181297 255 125 0
-0.660538 1.010893 -0.235297 255 125 0
-0.653548 1.000489 -0.214297 255 125 0
-0.643664 1.008901 -0.166297 255 125 0
-0.681391 1.028223 -0.061297 255 125 0
-0.695586 1.033584 -0.253297 255 125 0
-0.647668 1.028154 -0.305795 255 125 0
-0.694746 1.051959 -0.274297 255 125 0
-0.660591 1.053932 -0.211296 255 125 0
-0.695243 1.035199 -0.311788 255 125 0
-0.648915 1.022285 -0.275815 255 125 0
-0.659422 1.052122 -0.151297 255 125 0
-0.642053 1.048430 -0.151297 255 125 0
-0.669158 1.028057 -0.130297 255 125 0
-0.696906 1.012945 -0.172297 255 125 0
-0.661362 1.043333 -0.061297 255 125 0
-0.680268 1.038150 -0.067297 255 125 0
-0.679795 1.021300 -0.121297 255 125 0
-0.645398 1.038836 -0.130297 255 125 0
-0.697277 1.044833 -0.193297 255 125 0
-0.692103 1.006929 -0.325297 255 125 0
-0.635219 1.034709 -0.181297 255 125 0
-0.685222 1.002399 -0.217297 255 125 0
-0.690941 1.026581 -0.196297 255 125 0
-0.697013 1.014107 -0.304297 255 125 0
-0.683194 1.034166 -0.082296 255 125 0
-0.645342 1.053525 -0.169297 255 125 0
-0.694230 1.010448 -0.283297 255 125 0
-0.655580 1.026769 -0.112297 255 125 0
-0.691829 1.007975 -0.268297 255 125 0
-0.650973 1.019656 -0.202297 255 125 0
-0.656727 1.057683 -0.329533 255 125 0
-0.687229 1.039630 -0.127297 255 125 0
-0.656656 1.014729 -0.155743 255 125 0
-0.687500 1.021286 -0.328297 255 125 0
-0.679060 1.024756 -0.082296 255 125 0
-0.701236 1.033406 -0.229297 255 125 0
-0.681158 1.000457 -0.238297 255 125 0
-0.695739 1.018434 -0.148297 255 125 0
-0.696010 1.046017 -0.238297 255 125 0
-0.675931 1.043363 -0.055297 255 125 0
-0.698290 1.038914 -0.157297 255 125 0
-0.643000 1.014894 -0.331297 255 125 0
-0.672512 0.997848 -0.199297 255 125 0
-0.672923 1.010342 -0.292297 255 125 0
-0.657954 1.023048 -0.100296 255 125 0
-0.688641 1.022969 -0.166297 255 125 0
-0.635834 1.026114 -0.160296 255 125 0
-0.687525 1.021291 -0.238297 255 125 0
-0.648451 1.031388 -0.280297 255 125 0
-0.654156 1.047935 -0.277297 255 125 0
-0.679680 1.025757 -0.100296 255 125 0
-0.655439 1.023672 -0.064296 255 125 0
-0.692932 1.031641 -0.133038 255 125 0
-0.657979 1.037357 -0.079296 255 125 0
-0.695620 1.047856 -0.259297 255 125 0
-0.654171 1.047939 -0.163297 255 125 0
-0.695144 1.044379 -0.283297 255 125 0
-0.653633 1.035556 -0.142297 255 125 0
-0.653592 1.000284 -0.268297 255 125 0
-0.663451 1.054906 -0.133297 255 125 0
-0.665466 1.038071 -0.130297 255 125 0
-0.651167 1.001295 -0.304297 255 125 0
-0.672540 0.997718 -0.148297 255 125 0
-0.683834 1.002104 -0.307297 255 125 0
-0.681081 1.015250 -0.310297 255 125 0
-0.670520 1.036079 -0.095823 255 125 0
-0.640454 1.038889 -0.238297 255 125 0
-0.656884 0.999228 -0.169297 255 125 0
-0.647125 1.037240 -0.211296 255 125 0
-0.647089 1.037232 -0.199297 255 125 0
-0.701632 1.030424 -0.184297 255 125 0
-0.635916 1.040991 -0.265297 255 125 0
-0.674638 1.018552 -0.088297 255 125 0
-0.642946 1.014882 -0.145297 255 125 0
-0.636618 1.019671 -0.184297 255 125 0
-0.658782 1.033584 -0.052965 255 125 0
-0.700152 1.027042 -0.166297 255 125 0
-0.651840 1.044376 -0.292297 255 125 0
-0.691799 1.008113 -0.232297 255 125 0
-0.637022 1.041227 -0.214297 255 125 0
-0.682240 1.029369 -0.115297 255 125 0
-0.638030 1.016904 -0.283297 255 125 0
-0.675865 1.010930 -0.226297 255 125 0
-0.637177 1.019790 -0.325538 255 125 0
-0.643641 1.008896 -0.301297 255 125 0
-0.670189 1.037633 -0.073297 255 125 0
-0.634894 1.028506 -0.268297 255 125 0
-0.684011 1.001459 -0.181297 255 125 0
-0.634665 1.022324 -0.301297 255 125 0
-0.653378 1.050837 -0.322297 255 125 0
-0.669971 1.009800 -0.235297 255 125 0
-0.667046 1.009133 -0.175297 255 125 0
-0.678297 0.999490 -0.286297 255 125 0
-0.675212 1.014002 -0.157297 255 125 0
-0.662844 1.057761 -0.322297 255 125 0
-0.646708 1.024883 -0.226297 255 125 0
-0.670626 1.006719 -0.130297 255 125 0
-0.697679 1.017315 -0.265297 255 125 0
-0.696021 1.045970 -0.301297 255 125 0
-0.699825 1.020838 -0.322297 255 125 0
-0.672853 0.996243 -0.220297 255 125 0
-0.700062 1.033157 -0.268297 255 125 0
-0.660181 0.998144 -0.286297 255 125 0
-0.644996 1.006117 -0.193297 255 125 0
-0.634905 1.028508 -0.229297 255 125 0
-0.689351 1.005200 -0.289297 255 125 0
-0.658049 1.022605 -0.139297 255 125 0
-0.653577 1.000355 -0.226297 255 125 0
-0.690876 1.055741 -0.155688 255 125 0
-0.684064 1.001216 -0.163297 255 125 0
-0.653587 1.058022 -0.199297 255 125 0
-0.689365 1.005137 -0.190297 255 125 0
-0.647887 1.019000 -0.295297 255 125 0
-0.647881 1.018998 -0.313297 255 125 0
-0.672922 1.010346 -0.193297 255 125 0
-0.654718 1.052702 -0.136297 255 125 0
-0.684536 1.020656 -0.214297 255 125 0
-0.640133 1.011217 -0.271297 255 125 0
-0.650366 1.022594 -0.157297 255 125 0
-0.698920 1.035981 -0.175297 255 125 0
-0.672423 0.998268 -0.268297 255 125 0
-0.671703 1.059368 -0.160296 255 125 0
-0.677452 1.046753 -0.123070 255 125 0
-0.693827 1.034899 -0.292297 255 125 0
-0.655334 1.049804 -0.184297 255 125 0
-0.696990 1.032504 -0.142297 255 125 0
-0.687584 1.021304 -0.256297 255 125 0
-0.687871 1.012163 -0.137233 255 125 0
-0.700194 1.017850 -0.196297 255 125 0
-0.659055 1.042843 -0.121297 255 125 0
-0.695996 1.046084 -0.184297 255 125 0
-0.639309 1.032511 -0.331297 255 125 0
-0.669836 0.996006 -0.298297 255 125 0
-0.662251 1.009785 -0.328297 255 125 0
-0.669082 1.042841 -0.115297 255 125 0
-0.639488 1.023348 -0.141500 255 125 0
-0.671309 1.039313 -0.106297 255 125 0
-0.652514 1.001581 -0.151297 255 125 0
-0.642980 1.051694 -0.211296 255 125 0
-0.649988 1.002811 -0.241297 255 125 0
-0.645375 1.030734 -0.247297 255 125 0
-0.700387 1.036293 -0.196297 255 125 0
-0.662098 1.017984 -0.061297 255 125 0
-0.662055 1.061474 -0.151297 255 125 0
-0.637759 1.045912 -0.280297 255 125 0
-0.649106 1.003924 -0.184297 255 125 0
-0.648617 1.055959 -0.310297 255 125 0
-0.655080 1.014395 -0.292297 255 125 0
-0.643356 1.008835 -0.289297 255 125 0
-0.647786 1.034313 -0.184297 255 125 0
-0.640993 1.011400 -0.226297 255 125 0
-0.694646 1.010536 -0.214297 255 125 0
-0.650715 1.042679 -0.181297 255 125 0
-0.699747 1.023889 -0.271297 255 125 0
-0.669089 1.042809 -0.088297 255 125 0
-0.650166 1.037886 -0.274297 255 125 0
-0.691984 1.007243 -0.307297 255 125 0
-0.634741 1.028473 -0.277297 255 125 0
-0.681247 1.000038 -0.202297 255 125 0
-0.651517 1.016704 -0.253297 255 125 0
-0.663521 0.996860 -0.265297 255 125 0
-0.681087 1.015218 -0.298297 255 125 0
-0.636486 1.041113 -0.310297 255 125 0
-0.690946 1.026558 -0.187297 255 125 0
-0.681089 1.015214 -0.196297 255 125 0
-0.688636 1.022997 -0.277297 255 125 0
-0.692197 1.028418 -0.157297 255 125 0
-0.638433 1.047660 -0.271297 255 125 0
-0.643761 1.008922 -0.256297 255 125 0
-0.653428 1.015487 -0.280297 255 125 0
-0.700533 1.027123 -0.205297 255 125 0
-0.689884 1.024859 -0.229297 255 125 0
-0.667737 1.049167 -0.058297 255 125 0
-0.675941 0.996145 -0.166297 255 125 0
-0.666656 0.996540 -0.211296 255 125 0
-0.687602 1.021307 -0.310297 255 125 0
-0.658864 1.047622 -0.142297 255 125 0
-0.693556 1.028707 -0.305830 255 125 0
-0.693796 1.034892 -0.244297 255 125 0
-0.658679 1.055031 -0.166297 255 125 0
-0.651521 1.016705 -0.184297 255 125 0
-0.635828 1.034839 -0.283297 255 125 0
-0.635602 1.037858 -0.199297 255 125 0
-0.702243 1.021352 -0.241297 255 125 0
-0.695998 1.046077 -0.322297 255 125 0
-0.645368 1.030732 -0.325297 255 125 0
-0.687490 1.021284 -0.292297 255 125 0
-0.661035 1.015660 -0.148297 255 125 0
-0.666625 0.996687 -0.253297 255 125 0
-0.651709 1.001410 -0.202297 255 125 0
-0.658713 1.055038 -0.178297 255 125 0
-0.659131 1.060802 -0.205297 255 125 0
-0.637177 1.019790 -0.234792 255 125 0
-0.633348 1.023377 -0.220297 255 125 0
-0.651242 1.054626 -0.217297 255 125 0
-0.692250 1.028429 -0.259297 255 125 0
-0.684045 1.015733 -0.166297 255 125 0
-0.696306 1.044626 -0.148607 255 125 0
-0.641706 1.012917 -0.217297 255 125 0
-0.656983 1.013191 -0.310297 255 125 0
-0.649235 1.020781 -0.172297 255 125 0
-0.634611 1.022312 -0.262296 255 125 0
-0.635063 1.025475 -0.211296 255 125 0
-0.662220 1.017408 -0.118297 255 125 0
-0.678856 0.996859 -0.313297 255 125 0
-0.659470 1.059203 -0.190297 255 125 0
-0.683121 1.041824 -0.136297 255 125 0
-0.665898 1.028962 -0.053289 255 125 0
-0.661719 0.997403 -0.229297 255 125 0
-0.666612 0.996746 -0.313297 255 125 0
-0.648448 1.031387 -0.259297 255 125 0
-0.668679 1.015881 -0.112297 255 125 0
-0.663437 0.997255 -0.238297 255 125 0
-0.662187 1.018972 -0.094297 255 125 0
-0.694948 1.036584 -0.280297 255 125 0
-0.676573 1.022030 -0.053794 255 125 0
-0.662709 1.000681 -0.332790 255 125 0
-0.658669 1.012090 -0.187297 255 125 0
-0.677267 1.004336 -0.136297 255 125 0
-0.650375 1.022595 -0.241297 255 125 0
-0.647284 1.021938 -0.190297 255 125 0
-0.698435 1.038945 -0.166297 255 125 0
-0.652205 1.010717 -0.133297 255 125 0
-0.675862 1.010945 -0.271297 255 125 0
-0.675510 1.012603 -0.326796 255 125 0
-0.634876 1.022368 -0.202297 255 125 0
-0.677326 1.032917 -0.133297 255 125 0
-0.659001 1.061412 -0.214297 255 125 0
-0.678728 1.062359 -0.157297 255 125 0
-0.648820 1.003863 -0.274297 255 125 0
-0.640509 1.048102 -0.190297 255 125 0
-0.651042 1.041139 -0.155757 255 125 0
-0.666444 1.055254 -0.148297 255 125 0
-0.678323 0.999366 -0.250297 255 125 0
-0.647127 1.037240 -0.292297 255 125 0
-0.686724 1.003132 -0.226297 255 125 0
-0.647484 1.043450 -0.332516 255 125 0
-0.695372 1.049022 -0.229297 255 125 0
-0.653627 1.057837 -0.151297 255 125 0
-0.697230 1.014153 -0.232297 255 125 0
-0.693413 1.010274 -0.247297 255 125 0
-0.646976 1.046410 -0.136297 255 125 0
-0.638258 1.014708 -0.304297 255 125 0
-0.698474 1.038953 -0.235297 255 125 0
-0.697932 1.041905 -0.217297 255 125 0
-0.677653 1.037595 -0.088297 255 125 0
-0.657197 1.036314 -0.094297 255 125 0
-0.634940 1.030320 -0.247297 255 125 0
-0.677616 1.037587 -0.076297 255 125 0
-0.640577 1.045049 -0.325297 255 125 0
-0.701589 1.033481 -0.307297 255 125 0
-0.642313 1.010055 -0.247297 255 125 0
-0.694544 1.010515 -0.205297 255 125 0
-0.690144 1.044760 -0.142297 255 125 0
-0.640777 1.051226 -0.301297 255 125 0
-0.693857 1.034905 -0.220297 255 125 0
-0.689387 1.005032 -0.172297 255 125 0
-0.678115 1.034626 -0.097296 255 125 0
-0.698482 1.019961 -0.163297 255 125 0
-0.663148 1.013042 -0.124776 255 125 0
-0.659469 1.001494 -0.142297 255 125 0
-0.700631 1.024281 -0.214297 255 125 0
-0.664200 1.043936 -0.082296 255 125 0
-0.655662 1.032920 -0.085297 255 125 0
-0.689322 1.005336 -0.259297 255 125 0
-0.668519 1.016632 -0.067297 255 125 0
-0.681658 1.047647 -0.130297 255 125 0
-0.650136 1.002114 -0.259297 255 125 0
-0.658758 1.055048 -0.316297 255 125 0
-0.656472 1.051495 -0.202297 255 125 0
-0.685284 1.017748 -0.283297 255 125 0
-0.697723 1.014257 -0.181297 255 125 0
-0.700133 1.036239 -0.148297 255 125 0
-0.672709 1.033477 -0.115297 255 125 0
-0.652398 1.049190 -0.298297 255 125 0
-0.657835 1.038034 -0.136297 255 125 0
-0.667043 1.009147 -0.301297 255 125 0
-0.660240 0.997866 -0.196297 255 125 0
-0.665225 1.010417 -0.319297 255 125 0
-0.666706 1.010732 -0.206792 255 125 0
-0.674045 1.012292 -0.244297 255 125 0
-0.638563 1.042133 -0.256297 255 125 0
-0.692144 1.028407 -0.298297 255 125 0
-0.645066 1.052137 -0.157297 255 125 0
-0.648444 1.031386 -0.217297 255 125 0
-0.635561 1.019447 -0.193297 255 125 0
-0.667041 1.009156 -0.274297 255 125 0
-0.640316 1.011256 -0.313297 255 125 0
-0.649350 1.056115 -0.175297 255 125 0
-0.682135 1.024720 -0.142297 255 125 0
-0.651875 1.044384 -0.226297 255 125 0
-0.661901 1.018911 -0.078431 255 125 0
-0.671583 1.045506 -0.131744 255 125 0
-0.684257 1.043597 -0.058297 255 125 0
-0.678144 1.014638 -0.208297 255 125 0
-0.674057 1.012294 -0.178297 255 125 0
-0.676783 1.022075 -0.070297 255 125 0
-0.646619 1.047519 -0.274297 255 125 0
-0.696917 1.047823 -0.268297 255 125 0
-0.665678 1.022781 -0.136297 255 125 0
-0.692932 1.031641 -0.227832 255 125 0
-0.654784 1.023533 -0.120776 255 125 0
-0.689315 1.005370 -0.199297 255 125 0
-0.694921 1.010595 -0.187297 255 125 0
-0.638824 1.041610 -0.148297 255 125 0
-0.677243 0.997636 -0.301297 255 125 0
-0.694952 1.036561 -0.211296 255 125 0
-0.671935 1.043848 -0.100296 255 125 0
-0.640236 1.048688 -0.199297 255 125 0
-0.636682 1.036553 -0.304297 255 125 0
-0.696365 1.050773 -0.154297 255 125 0
-0.672493 1.041225 -0.124297 255 125 0
-0.644329 1.043863 -0.265297 255 125 0
-0.669201 0.998994 -0.326008 255 125 0
-0.646397 1.005276 -0.160296 255 125 0
-0.698117 1.041944 -0.307297 255 125 0
-0.645702 1.008547 -0.328297 255 125 0
-0.656782 1.005555 -0.136297 255 125 0
-0.687871 1.012163 -0.329278 255 125 0
-0.697909 1.041900 -0.292297 255 125 0
-0.693277 1.030020 -0.322297 255 125 0
-0.669271 1.041947 -0.059680 255 125 0
-0.645516 1.052709 -0.316297 255 125 0
-0.698801 1.032889 -0.329322 255 125 0
-0.695814 1.023053 -0.328297 255 125 0
-0.700760 1.023672 -0.289297 255 125 0
-0.681563 0.998554 -0.150005 255 125 0
-0.674517 1.046129 -0.072019 255 125 0
-0.654428 1.029591 -0.058297 255 125 0
-0.677044 1.005385 -0.331297 255 125 0
-0.697677 1.017315 -0.256297 255 125 0
-0.647854 1.034328 -0.331297 255 125 0
-0.663461 1.011570 -0.262296 255 125 0
-0.645995 1.027799 -0.286297 255 125 0
-0.639022 1.017115 -0.154297 255 125 0
-0.672929 1.010317 -0.163297 255 125 0
-0.635497 1.037835 -0.232297 255 125 0
-0.647307 1.021943 -0.208297 255 125 0
-0.654825 1.045010 -0.058297 255 125 0
-0.658502 1.039658 -0.067297 255 125 0
-0.647112 1.037237 -0.307297 255 125 0
-0.678699 1.040884 -0.110342 255 125 0
-0.668709 1.015738 -0.148297 255 125 0
-0.667034 1.009189 -0.256297 255 125 0
-0.651175 1.047302 -0.196297 255 125 0
-0.660542 1.010871 -0.247297 255 125 0
-0.692178 1.006945 -0.157297 255 125 0
-0.648452 1.031388 -0.160296 255 125 0
-0.694520 1.031979 -0.202297 255 125 0
-0.667040 1.009161 -0.286297 255 125 0
-0.660545 1.010859 -0.172297 255 125 0
-0.693966 1.034928 -0.262296 255 125 0
-0.640068 1.049479 -0.286297 255 125 0
-0.688632 1.023008 -0.181297 255 125 0
-0.690954 1.026519 -0.172297 255 125 0
-0.658704 1.012098 -0.301297 255 125 0
-0.651963 1.029067 -0.145297 255 125 0
-0.653430 1.015471 -0.214297 255 125 0
-0.667840 1.063112 -0.205105 255 125 0
-0.655107 1.014400 -0.262296 255 125 0
-0.676850 1.022089 -0.094297 255 125 0
-0.642810 1.008719 -0.178297 255 125 0
-0.665262 1.017527 -0.103297 255 125 0
-0.651857 1.044380 -0.319297 255 125 0
-0.675931 0.996192 -0.175297 255 125 0
-0.699780 1.026963 -0.226297 255 125 0
-0.642989 1.042495 -0.250297 255 125 0
-0.693116 1.016345 -0.141874 255 125 0
-0.694533 1.010512 -0.292297 255 125 0
-0.658659 1.012088 -0.163297 255 125 0
-0.681359 1.032248 -0.055297 255 125 0
-0.637953 1.045002 -0.184297 255 125 0
-0.650082 1.002366 -0.166297 255 125 0
-0.641308 1.011467 -0.208297 255 125 0
-0.672520 1.041096 -0.067297 255 125 0
-0.642161 1.045386 -0.241297 255 125 0
-0.651517 1.016704 -0.223297 255 125 0
-0.701234 1.030339 -0.250297 255 125 0
-0.699352 1.020738 -0.298297 255 125 0
-0.656447 0.999350 -0.292297 255 125 0
-0.645755 1.008295 -0.145297 255 125 0
-0.694546 1.031984 -0.193297 255 125 0
-0.698872 1.017569 -0.283297 255 125 0
-0.695196 1.044391 -0.208297 255 125 0
-0.639033 1.047788 -0.295297 255 125 0
-0.661690 1.055671 -0.157297 255 125 0
-0.650392 1.053269 -0.328297 255 125 0
-0.681292 0.999828 -0.319297 255 125 0
-0.659280 1.039823 -0.103297 255 125 0
-0.695580 1.041405 -0.199297 255 125 0
-0.653563 1.000418 -0.253297 255 125 0
-0.660222 0.997949 -0.160296 255 125 0
-0.699890 1.026986 -0.316297 255 125 0
-0.635661 1.034803 -0.325297 255 125 0
-0.647971 1.003682 -0.211296 255 125 0
-0.653596 1.000267 -0.325297 255 125 0
-0.689713 1.032350 -0.145297 255 125 0
-0.682051 1.017060 -0.127297 255 125 0
-0.672626 1.033459 -0.127297 255 125 0
-0.651877 1.044384 -0.307297 255 125 0
-0.640913 1.011383 -0.262296 255 125 0
-0.675845 1.011025 -0.127297 255 125 0
-0.695590 1.041407 -0.256297 255 125 0
-0.673954 1.019917 -0.142297 255 125 0
-0.700372 1.033223 -0.277297 255 125 0
-0.676344 1.058785 -0.145297 255 125 0
-0.685269 1.005476 -0.139297 255 125 0
-0.634398 1.028401 -0.184297 255 125 0
-0.650730 1.042609 -0.169297 255 125 0
-0.650163 1.016416 -0.129722 255 125 0
-0.662156 1.046569 -0.054311 255 125 0
-0.660326 0.997464 -0.187297 255 125 0
-0.655974 1.046793 -0.154297 255 125 0
-0.655675 1.033773 -0.112297 255 125 0
-0.642359 1.009843 -0.199297 255 125 0
-0.635752 1.037889 -0.208297 255 125 0
-0.656160 1.060348 -0.157297 255 125 0
-0.701423 1.033446 -0.160296 255 125 0
-0.678823 0.997011 -0.265297 255 125 0
-0.656885 1.023979 -0.073297 255 125 0
-0.662292 1.060358 -0.169297 255 125 0
-0.637053 1.016697 -0.319297 255 125 0
-0.638092 1.026119 -0.328297 255 125 0
-0.691854 1.007852 -0.277297 255 125 0
-0.647982 1.055824 -0.322297 255 125 0
-0.639699 1.035661 -0.139297 255 125 0
-0.663563 0.997795 -0.295297 255 125 0
-0.640011 1.049750 -0.319297 255 125 0
-0.699427 1.020754 -0.313297 255 125 0
-0.656884 0.999225 -0.274297 255 125 0
-0.686673 1.003371 -0.235297 255 125 0
-0.678368 0.999154 -0.217297 255 125 0
-0.641165 1.011437 -0.235297 255 125 0
-0.666054 1.057088 -0.139297 255 125 0
-0.635174 1.037767 -0.220297 255 125 0
-0.660122 0.998421 -0.214297 255 125 0
-0.636189 1.034916 -0.316297 255 125 0
-0.686567 1.003870 -0.271297 255 125 0
-0.644312 1.043944 -0.226297 255 125 0
-0.686518 1.004101 -0.301297 255 125 0
-0.650078 1.002388 -0.313297 255 125 0
-0.695566 1.041402 -0.265297 255 125 0
-0.647648 1.055753 -0.190297 255 125 0
-0.694612 1.010529 -0.151297 255 125 0
-0.641485 1.011505 -0.160296 255 125 0
-0.658298 1.050289 -0.130297 255 125 0
-0.654658 1.052987 -0.304297 255 125 0
-0.635878 1.034849 -0.292297 255 125 0
-0.635280 1.025521 -0.295297 255 125 0
-0.663517 0.996873 -0.181297 255 125 0
-0.637877 1.016872 -0.265297 255 125 0
-0.699165 1.016746 -0.226297 255 125 0
-0.699980 1.027343 -0.235297 255 125 0
-0.635118 1.019353 -0.289297 255 125 0
-0.701302 1.030353 -0.172297 255 125 0
-0.646616 1.024864 -0.265297 255 125 0
-0.666665 0.996496 -0.304297 255 125 0
-0.694966 1.036503 -0.271297 255 125 0
-0.638039 1.044598 -0.220297 255 125 0
-0.674438 1.017645 -0.103297 255 125 0
-0.645318 1.049124 -0.142297 255 125 0
-0.700469 1.039471 -0.190297 255 125 0
-0.634902 1.025441 -0.253297 255 125 0
-0.683387 1.018831 -0.268297 255 125 0
-0.697265 1.025684 -0.145297 255 125 0
-0.647303 1.021943 -0.247297 255 125 0
-0.669887 0.995766 -0.169297 255 125 0
-0.635351 1.025536 -0.313297 255 125 0
-0.634857 1.028498 -0.304297 255 125 0
-0.666631 0.996659 -0.280297 255 125 0
-0.681132 1.000581 -0.274297 255 125 0
-0.666033 0.999469 -0.145297 255 125 0
-0.647326 1.021947 -0.235297 255 125 0
-0.681762 1.055333 -0.136297 255 125 0
-0.698562 1.038972 -0.316297 255 125 0
-0.681164 1.000431 -0.259297 255 125 0
-0.656987 0.998739 -0.220297 255 125 0
-0.647881 1.056012 -0.202297 255 125 0
-0.660539 1.010890 -0.214297 255 125 0
-0.634699 1.031532 -0.172297 255 125 0
-0.683962 1.001694 -0.244297 255 125 0
-0.677117 1.040548 -0.061297 255 125 0
-0.646080 1.050054 -0.283297 255 125 0
-0.642528 1.048531 -0.175297 255 125 0
-0.635416 1.022483 -0.169297 255 125 0
-0.635340 1.034735 -0.226297 255 125 0
-0.669703 0.996630 -0.157297 255 125 0
-0.666555 0.997015 -0.202297 255 125 0
-0.635251 1.022448 -0.280297 255 125 0
-0.649511 1.040814 -0.262296 255 125 0
-0.700099 1.030098 -0.283297 255 125 0
-0.674481 1.017443 -0.115297 255 125 0
-0.655349 1.049735 -0.211296 255 125 0
-0.698586 1.038977 -0.181297 255 125 0
-0.668424 1.017080 -0.079296 255 125 0
-0.670520 1.036079 -0.052703 255 125 0
-0.678139 1.014664 -0.319297 255 125 0
-0.675461 0.998402 -0.235297 255 125 0
-0.658963 1.024421 -0.085297 255 125 0
-0.645177 1.021491 -0.133297 255 125 0
-0.692731 1.007062 -0.316297 255 125 0
-0.672458 0.998100 -0.283297 255 125 0
-0.675394 0.998717 -0.292297 255 125 0
-0.700220 1.033190 -0.208297 255 125 0
-0.646735 1.024889 -0.316297 255 125 0
-0.638785 1.013998 -0.277297 255 125 0
-0.651510 1.016703 -0.160296 255 125 0
-0.647807 1.034318 -0.232297 255 125 0
-0.699439 1.020756 -0.202297 255 125 0
-0.668327 1.017538 -0.091297 255 125 0
-0.683391 1.018814 -0.181297 255 125 0
-0.691589 1.023533 -0.271297 255 125 0
-0.663830 1.038692 -0.076297 255 125 0
-0.672924 1.010340 -0.211296 255 125 0
-0.681091 1.015203 -0.172297 255 125 0
-0.675866 1.010929 -0.286297 255 125 0
-0.669969 1.009813 -0.220297 255 125 0
-0.681098 1.015170 -0.160296 255 125 0
-0.669969 1.009811 -0.169297 255 125 0
-0.648504 1.031399 -0.241297 255 125 0
-0.651538 1.016709 -0.271297 255 125 0
-0.655204 1.029756 -0.097296 255 125 0
-0.647754 1.034306 -0.253297 255 125 0
-0.675861 1.010950 -0.313297 255 125 0
-0.675198 1.014070 -0.265297 255 125 0
-0.647314 1.021945 -0.301297 255 125 0
-0.650370 1.022594 -0.259297 255 125 0
-0.678140 1.014657 -0.256297 255 125 0
-0.647789 1.034314 -0.286297 255 125 0
-0.692135 1.028405 -0.241297 255 125 0
-0.649114 1.028461 -0.175297 255 125 0
-0.650362 1.022593 -0.196297 255 125 0
-0.664120 1.008469 -0.268297 255 125 0
-0.650194 1.037892 -0.205297 255 125 0
-0.647829 1.034322 -0.301297 255 125 0
-0.637683 1.041367 -0.160296 255 125 0
-0.681213 1.000199 -0.211296 255 125 0
-0.666514 0.997209 -0.244297 255 125 0
-0.682765 1.021759 -0.148297 255 125 0
-0.666131 1.042293 -0.109297 255 125 0
-0.648744 1.043718 -0.211296 255 125 0
-0.663461 1.011569 -0.220297 255 125 0
-0.656989 1.013163 -0.199297 255 125 0
-0.651231 1.054677 -0.292297 255 125 0
-0.665236 1.060932 -0.193297 255 125 0
-0.690484 1.018853 -0.136297 255 125 0
-0.681252 1.041427 -0.124297 255 125 0
-0.677122 1.040549 -0.103297 255 125 0
-0.661330 1.043326 -0.094297 255 125 0
-0.634506 1.031490 -0.154297 255 125 0
-0.667942 1.050866 -0.130297 255 125 0
-0.688439 1.038350 -0.142297 255 125 0
-0.697674 1.044917 -0.169297 255 125 0
-0.645370 1.006197 -0.295297 255 125 0
-0.681462 1.027886 -0.106297 255 125 0
-0.664906 1.062488 -0.218307 255 125 0
-0.682002 1.010916 -0.326543 255 125 0
-0.641706 1.048356 -0.253297 255 125 0
-0.638323 1.014405 -0.250297 255 125 0
-0.699215 1.016510 -0.217297 255 125 0
-0.665802 1.058276 -0.178297 255 125 0
-0.653612 1.000190 -0.298297 255 125 0
-0.669637 1.040233 -0.079296 255 125 0
-0.645784 1.030821 -0.130297 255 125 0
-0.637926 1.041419 -0.244297 255 125 0
-0.699812 1.033104 -0.259297 255 125 0
-0.697501 1.039003 -0.142297 255 125 0
-0.657763 1.021099 -0.115297 255 125 0
-0.694705 1.013616 -0.325297 255 125 0
-0.653413 1.058844 -0.166297 255 125 0
-0.690454 1.006579 -0.217297 255 125 0
-0.686337 1.019383 -0.247297 255 125 0
-0.637177 1.019790 -0.177738 255 125 0
-0.654600 1.038829 -0.123764 255 125 0
-0.635157 1.034696 -0.190297 255 125 0
-0.648605 1.003817 -0.283297 255 125 0
-0.694695 1.032016 -0.286297 255 125 0
-0.654927 1.029697 -0.139297 255 125 0
-0.679173 1.031784 -0.067297 255 125 0
-0.664132 1.051704 -0.142297 255 125 0
-0.649498 1.040811 -0.217297 255 125 0
-0.684042 1.015751 -0.232297 255 125 0
-0.635927 1.034860 -0.268297 255 125 0
-0.699549 1.020780 -0.154297 255 125 0
-0.670640 1.049943 -0.136297 255 125 0
-0.647554 1.009728 -0.139297 255 125 0
-0.660380 0.997209 -0.175297 255 125 0
-0.646012 1.027802 -0.211296 255 125 0
-0.646000 1.027800 -0.187297 255 125 0
-0.687575 1.021302 -0.199297 255 125 0
-0.700552 1.030194 -0.301297 255 125 0
-0.646019 1.027804 -0.274297 255 125 0
-0.659952 1.056936 -0.184297 255 125 0
-0.651531 1.016707 -0.208297 255 125 0
-0.699186 1.016649 -0.247297 255 125 0
-0.647061 1.037226 -0.169297 255 125 0
-0.669990 1.009714 -0.325297 255 125 0
-0.647087 1.037232 -0.238297 255 125 0
-0.647146 1.037244 -0.319297 255 125 0
-0.675858 1.010965 -0.298297 255 125 0
-0.660545 1.010862 -0.193297 255 125 0
-0.647896 1.019001 -0.328297 255 125 0
-0.655082 1.014395 -0.172297 255 125 0
-0.658652 1.012087 -0.241297 255 125 0
-0.651558 1.016713 -0.238297 255 125 0
-0.663527 0.996825 -0.319297 255 125 0
-0.682285 1.017110 -0.241297 255 125 0
-0.672916 1.010378 -0.184297 255 125 0
-0.657450 1.039848 -0.055297 255 125 0
-0.658674 1.012091 -0.229297 255 125 0
-0.693856 1.034905 -0.160296 255 125 0
-0.649355 1.034647 -0.126640 255 125 0
-0.646165 1.006366 -0.226622 255 125 0
-0.663566 0.996648 -0.169297 255 125 0
-0.682228 1.017098 -0.304297 255 125 0
-0.637401 1.018739 -0.217297 255 125 0
-0.683380 1.018861 -0.220297 255 125 0
-0.683926 1.001865 -0.289297 255 125 0
-0.649123 1.028463 -0.199297 255 125 0
-0.680447 1.035122 -0.061297 255 125 0
-0.639477 1.044815 -0.169297 255 125 0
-0.698675 1.038996 -0.325297 255 125 0
-0.666398 1.012181 -0.280297 255 125 0
-0.678138 1.014667 -0.280297 255 125 0
-0.694236 1.047254 -0.223297 255 125 0
-0.699827 1.023906 -0.256297 255 125 0
-0.691545 1.031346 -0.151297 255 125 0
-0.678092 1.000450 -0.325297 255 125 0
-0.655312 1.042047 -0.142297 255 125 0
-0.653035 1.046190 -0.283297 255 125 0
-0.696479 1.050797 -0.196297 255 125 0
-0.650964 1.019654 -0.178297 255 125 0
-0.690942 1.026572 -0.253297 255 125 0
-0.651977 1.036742 -0.148297 255 125 0
-0.688644 1.022956 -0.322297 255 125 0
-0.692235 1.025359 -0.133297 255 125 0
-0.687212 1.051895 -0.142297 255 125 0
-0.699274 1.036056 -0.295297 255 125 0
-0.692191 1.028417 -0.280297 255 125 0
-0.689871 1.024857 -0.214297 255 125 0
-0.657722 0.999621 -0.148297 255 125 0
-0.655115 1.014402 -0.325297 255 125 0
-0.657279 1.011795 -0.127746 255 125 0
-0.653429 1.015481 -0.298297 255 125 0
-0.682226 1.017098 -0.325297 255 125 0
-0.659876 1.057297 -0.196297 255 125 0
-0.657636 1.053402 -0.172297 255 125 0
-0.659944 1.056977 -0.310297 255 125 0
-0.655400 1.035068 -0.064296 255 125 0
-0.635318 1.037797 -0.172297 255 125 0
-0.676495 1.043482 -0.085297 255 125 0
-0.648398 1.039149 -0.268297 255 125 0
-0.700727 1.039432 -0.268297 255 125 0
-0.665842 1.058087 -0.208297 255 125 0
-0.654012 1.056023 -0.145297 255 125 0
-0.680516 1.035136 -0.112297 255 125 0
-0.634636 1.028451 -0.166297 255 125 0
-0.668393 1.017224 -0.059025 255 125 0
-0.663736 1.031569 -0.130297 255 125 0
-0.635485 1.025565 -0.241297 255 125 0
-0.699230 1.036047 -0.223297 255 125 0
-0.675070 1.000241 -0.141392 255 125 0
-0.638425 1.013921 -0.181878 255 125 0
-0.672487 0.997964 -0.226297 255 125 0
-0.637215 1.038200 -0.298297 255 125 0
-0.657903 1.008861 -0.332680 255 125 0
-0.699172 1.020700 -0.181297 255 125 0
-0.665019 1.004239 -0.134823 255 125 0
-0.693247 1.037842 -0.178297 255 125 0
-0.700284 1.025909 -0.190297 255 125 0
-0.690674 1.006625 -0.253297 255 125 0
-0.656565 1.023911 -0.106297 255 125 0
-0.693269 1.030056 -0.214297 255 125 0
-0.697736 1.014260 -0.166297 255 125 0
-0.638627 1.013964 -0.193297 255 125 0
-0.660913 1.058573 -0.304297 255 125 0
-0.666663 1.032192 -0.115297 255 125 0
-0.643006 1.008761 -0.241297 255 125 0
-0.686399 1.004663 -0.145297 255 125 0
-0.669675 0.996765 -0.181297 255 125 0
-0.676389 1.037326 -0.054085 255 125 0
-0.644317 1.051978 -0.205297 255 125 0
-0.660408 0.997074 -0.307297 255 125 0
-0.693495 1.010292 -0.238297 255 125 0
-0.699785 1.033098 -0.190297 255 125 0
-0.678302 0.999464 -0.307297 255 125 0
-0.656976 0.998792 -0.241297 255 125 0
-0.653531 1.000571 -0.175297 255 125 0
-0.701735 1.033512 -0.166414 255 125 0
-0.639043 1.014053 -0.289297 255 125 0
-0.675784 1.018795 -0.082296 255 125 0
-0.675591 0.997790 -0.193297 255 125 0
-0.699285 1.020724 -0.169297 255 125 0
-0.669624 0.997006 -0.274297 255 125 0
-0.645118 1.054579 -0.163297 255 125 0
-0.700813 1.027182 -0.220297 255 125 0
-0.639777 1.014209 -0.169297 255 125 0
-0.653224 1.059730 -0.178297 255 125 0
-0.656226 0.999303 -0.319297 255 125 0
-0.683196 1.035706 -0.121297 255 125 0
-0.647789 1.055783 -0.151297 255 125 0
-0.696525 1.014737 -0.298297 255 125 0
-0.693682 1.010332 -0.262296 255 125 0
-0.686847 1.002551 -0.322297 255 125 0
-0.636049 1.019550 -0.241297 255 125 0
-0.696784 1.013515 -0.310297 255 125 0
-0.635844 1.040976 -0.325297 255 125 0
-0.667794 1.017097 -0.073297 255 125 0
-0.701735 1.033512 -0.235308 255 125 0
-0.700818 1.033317 -0.154297 255 125 0
-0.669520 0.997494 -0.238297 255 125 0
-0.635288 1.022456 -0.319297 255 125 0
-0.653242 1.059647 -0.313297 255 125 0
-0.666728 0.996197 -0.259297 255 125 0
-0.694309 1.039595 -0.193297 255 125 0
-0.686619 1.003625 -0.295297 255 125 0
-0.699680 1.026942 -0.160296 255 125 0
-0.652105 1.050566 -0.221654 255 125 0
-0.642640 1.037379 -0.244297 255 125 0
-0.674867 1.044484 -0.115297 255 125 0
-0.693825 1.034898 -0.172297 255 125 0
-0.653556 1.000455 -0.286297 255 125 0
-0.672927 0.995893 -0.250297 255 125 0
-0.660251 0.997813 -0.280297 255 125 0
-0.634616 1.031842 -0.199297 255 125 0
-0.689281 1.005527 -0.247297 255 125 0
-0.672417 0.998296 -0.313297 255 125 0
-0.672904 0.996000 -0.214297 255 125 0
-0.636647 1.016610 -0.205297 255 125 0
-0.634670 1.028458 -0.223297 255 125 0
-0.653594 1.000273 -0.208297 255 125 0
-0.666695 1.039645 -0.067297 255 125 0
-0.673795 1.035098 -0.121297 255 125 0
-0.635308 1.025527 -0.235297 255 125 0
-0.653529 1.000583 -0.247297 255 125 0
-0.701467 1.030388 -0.178297 255 125 0
-0.678357 0.999209 -0.244297 255 125 0
-0.653555 1.000457 -0.187297 255 125 0
-0.669963 1.009838 -0.310297 255 125 0
-0.669064 1.042926 -0.094297 255 125 0
-0.681184 1.000338 -0.232297 255 125 0
-0.634956 1.031586 -0.253297 255 125 0
-0.683989 1.001567 -0.187297 255 125 0
-0.700205 1.030120 -0.289297 255 125 0
-0.634736 1.031539 -0.211296 255 125 0
-0.635090 1.034682 -0.160296 255 125 0
-0.679080 1.024662 -0.088297 255 125 0
-0.658000 1.037261 -0.073297 255 125 0
-0.645286 1.006179 -0.316297 255 125 0
-0.642718 1.008700 -0.172297 255 125 0
-0.664651 1.034831 -0.053197 255 125 0
-0.693273 1.030038 -0.268297 255 125 0
-0.682626 1.007981 -0.332665 255 125 0
-0.666398 1.012183 -0.160296 255 125 0
-0.660149 0.998296 -0.253297 255 125 0
-0.699753 1.033091 -0.316297 255 125 0
-0.660551 1.010834 -0.277297 255 125 0
-0.640679 1.046604 -0.157297 255 125 0
-0.655118 1.014403 -0.286297 255 125 0
-0.690954 1.026517 -0.292297 255 125 0
-0.681125 1.000612 -0.280297 255 125 0
-0.690938 1.026596 -0.202297 255 125 0
-0.681085 1.015230 -0.202297 255 125 0
-0.693172 1.037826 -0.328297 255 125 0
-0.698501 1.038959 -0.241297 255 125 0
-0.653593 1.057996 -0.193297 255 125 0
-0.647331 1.021948 -0.307297 255 125 0
-0.681092 1.015198 -0.190297 255 125 0
-0.667037 1.009173 -0.250297 255 125 0
-0.655341 1.049774 -0.316297 255 125 0
-0.660536 1.010902 -0.289297 255 125 0
-0.651160 1.047298 -0.190297 255 125 0
-0.672263 1.013446 -0.259297 255 125 0
-0.651872 1.044383 -0.325297 255 125 0
-0.649238 1.020766 -0.166297 255 125 0
-0.666628 0.996671 -0.196297 255 125 0
-0.677635 1.037591 -0.082296 255 125 0
-0.667048 1.009127 -0.193297 255 125 0
-0.698874 1.035971 -0.247297 255 125 0
-0.657885 1.037805 -0.118297 255 125 0
-0.679055 1.024784 -0.076297 255 125 0
-0.666912 1.059848 -0.154297 255 125 0
-0.681767 1.029268 -0.079296 255 125 0
-0.646624 1.047497 -0.328297 255 125 0
-0.681804 1.029276 -0.085297 255 125 0
-0.700289 1.033205 -0.202297 255 125 0
-0.639600 1.047908 -0.214297 255 125 0
-0.646348 1.005505 -0.199297 255 125 0
-0.638152 1.044066 -0.196297 255 125 0
-0.679139 1.024386 -0.115297 255 125 0
-0.665396 1.060186 -0.145297 255 125 0
-0.642652 1.037324 -0.331297 255 125 0
-0.651798 1.001429 -0.220297 255 125 0
-0.698526 1.019751 -0.304297 255 125 0
-0.655538 1.032894 -0.076297 255 125 0
-0.686879 1.045690 -0.132522 255 125 0
-0.666649 0.996573 -0.226297 255 125 0
-0.669641 1.011355 -0.125708 255 125 0
-0.670846 1.034541 -0.079296 255 125 0
-0.687687 1.027459 -0.128977 255 125 0
-0.650037 1.002579 -0.235297 255 125 0
-0.637523 1.029065 -0.139297 255 125 0
-0.656882 0.999234 -0.154297 255 125 0
-0.697364 1.044851 -0.154297 255 125 0
-0.657654 1.053317 -0.325297 255 125 0
-0.675987 1.061777 -0.211296 255 125 0
-0.674417 1.017742 -0.067297 255 125 0
-0.673794 1.035104 -0.103297 255 125 0
-0.693273 1.030036 -0.247297 255 125 0
-0.650681 1.041063 -0.127297 255 125 0
-0.654043 1.029509 -0.064296 255 125 0
-0.693216 1.037836 -0.250297 255 125 0
-0.683383 1.018844 -0.253297 255 125 0
-0.682881 1.035639 -0.134697 255 125 0
-0.687585 1.021304 -0.316297 255 125 0
-0.649621 1.025502 -0.151297 255 125 0
-0.636423 1.037771 -0.259297 255 125 0
-0.688004 1.025968 -0.154297 255 125 0
-0.651165 1.047300 -0.313297 255 125 0
-0.653649 1.057733 -0.301297 255 125 0
-0.681194 1.029146 -0.137739 255 125 0
-0.667042 1.009150 -0.292297 255 125 0
-0.658966 1.018288 -0.143712 255 125 0
-0.670200 1.037584 -0.112297 255 125 0
-0.647979 1.026693 -0.322297 255 125 0
-0.685412 1.002440 -0.205297 255 125 0
-0.677820 1.016161 -0.122632 255 125 0
-0.679826 1.025788 -0.067297 255 125 0
-0.646724 1.024887 -0.292297 255 125 0
-0.655040 1.051190 -0.158749 255 125 0
-0.663588 1.025404 -0.131741 255 125 0
-0.669981 1.009757 -0.199297 255 125 0
-0.680446 1.018239 -0.154297 255 125 0
-0.675325 1.027899 -0.131644 255 125 0
-0.690557 1.006600 -0.151297 255 125 0
-0.636074 1.039410 -0.184297 255 125 0
-0.648467 1.031391 -0.226297 255 125 0
-0.659222 1.045945 -0.125993 255 125 0
-0.661623 1.020212 -0.055297 255 125 0
-0.672575 1.011979 -0.230813 255 125 0
-0.675510 1.012603 -0.188833 255 125 0
-0.661674 1.012729 -0.157297 255 125 0
-0.654784 1.023533 -0.143778 255 125 0
-0.692932 1.031641 -0.185836 255 125 0
-0.663461 1.011568 -0.181297 255 125 0
-0.670704 1.020783 -0.137766 255 125 0
-0.648476 1.031393 -0.310297 255 125 0
-0.649038 1.036138 -0.157297 255 125 0
-0.649748 1.025529 -0.280297 255 125 0
-0.697488 1.014208 -0.202297 255 125 0
-0.665232 1.010418 -0.238297 255 125 0
-0.690934 1.026613 -0.310297 255 125 0
-0.650722 1.042643 -0.175297 255 125 0
-0.651559 1.016713 -0.319297 255 125 0
-0.653460 1.050854 -0.169297 255 125 0
-0.653428 1.050848 -0.178297 255 125 0
-0.649237 1.020773 -0.229297 255 125 0
-0.680509 0.998331 -0.178297 255 125 0
-0.697005 1.047842 -0.277297 255 125 0
-0.665209 1.010414 -0.232297 255 125 0
-0.676389 1.037326 -0.125695 255 125 0
-0.644364 1.009050 -0.214297 255 125 0
-0.694987 1.044346 -0.232297 255 125 0
-0.647802 1.034317 -0.190297 255 125 0
-0.650724 1.042633 -0.199297 255 125 0
-0.648475 1.031393 -0.169297 255 125 0
-0.652794 1.018465 -0.154297 255 125 0
-0.694942 1.036609 -0.229297 255 125 0
-0.655700 1.054398 -0.208297 255 125 0
-0.692181 1.028415 -0.163297 255 125 0
-0.657614 1.053508 -0.217297 255 125 0
-0.677029 1.012926 -0.250297 255 125 0
-0.688645 1.022953 -0.160296 255 125 0
-0.669825 0.996060 -0.206767 255 125 0
-0.663403 1.040700 -0.134723 255 125 0
-0.646860 1.046385 -0.221548 255 125 0
-0.669907 1.060484 -0.181297 255 125 0
-0.657784 1.002701 -0.331297 255 125 0
-0.637331 1.041292 -0.283297 255 125 0
-0.682258 1.038573 -0.057026 255 125 0
-0.699248 1.030787 -0.148297 255 125 0
-0.690935 1.026608 -0.328297 255 125 0
-0.675310 1.049365 -0.133297 255 125 0
-0.681536 1.027538 -0.121297 255 125 0
-0.696007 1.046033 -0.244297 255 125 0
-0.662848 1.057741 -0.328297 255 125 0
-0.696294 1.038490 -0.286297 255 125 0
-0.636683 1.036547 -0.148297 255 125 0
-0.664396 1.007174 -0.332629 255 125 0
-0.642183 1.010672 -0.295297 255 125 0
-0.666938 1.059853 -0.325297 255 125 0
-0.694946 1.010600 -0.178297 255 125 0
-0.651410 1.010548 -0.332658 255 125 0
-0.677483 0.997687 -0.256297 255 125 0
-0.675765 1.040260 -0.071881 255 125 0
-0.695384 1.048963 -0.286297 255 125 0
-0.693202 1.037833 -0.316297 255 125 0
-0.646325 1.005614 -0.244297 255 125 0
-0.642567 1.045472 -0.145297 255 125 0
-0.697669 1.014246 -0.190297 255 125 0
-0.657535 1.039452 -0.060747 255 125 0
-0.645905 1.050878 -0.148297 255 125 0
-0.696490 1.029331 -0.137891 255 125 0
-0.673145 1.038156 -0.091297 255 125 0
-0.662892 1.057534 -0.217297 255 125 0
-0.692715 1.018231 -0.328297 255 125 0
-0.666868 1.059838 -0.319297 255 125 0
-0.642130 1.045379 -0.232297 255 125 0
-0.662896 1.057517 -0.163297 255 125 0
-0.698013 1.041922 -0.298297 255 125 0
-0.669548 1.055079 -0.133297 255 125 0
-0.662352 1.060078 -0.316297 255 125 0
-0.641814 1.036111 -0.133297 255 125 0
-0.674222 1.047520 -0.058297 255 125 0
-0.697293 1.014166 -0.211296 255 125 0
-0.646453 1.005012 -0.169297 255 125 0
-0.649199 1.003943 -0.328297 255 125 0
-0.690351 1.006556 -0.223297 255 125 0
-0.635502 1.034769 -0.244297 255 125 0
-0.642239 1.039268 -0.233227 255 125 0
-0.695243 1.035199 -0.332628 255 125 0
-0.674220 1.047530 -0.127297 255 125 0
-0.641834 1.020780 -0.331297 255 125 0
-0.644110 1.030465 -0.332537 255 125 0
-0.689373 1.033952 -0.129773 255 125 0
-0.695129 1.010639 -0.160296 255 125 0
-0.635259 1.019383 -0.295297 255 125 0
-0.642082 1.045369 -0.259297 255 125 0
-0.649968 1.002902 -0.229297 255 125 0
-0.698361 1.020527 -0.275206 255 125 0
-0.697602 1.017299 -0.175297 255 125 0
-0.680571 1.032081 -0.101287 255 125 0
-0.694540 1.031983 -0.316297 255 125 0
-0.685773 1.002516 -0.175297 255 125 0
-0.642251 1.024780 -0.136297 255 125 0
-0.646360 1.005447 -0.304297 255 125 0
-0.678136 1.014675 -0.223297 255 125 0
-0.663225 1.041542 -0.118297 255 125 0
-0.657948 1.037501 -0.109297 255 125 0
-0.685773 1.014785 -0.130297 255 125 0
-0.648761 1.043722 -0.277297 255 125 0
-0.691432 1.046657 -0.148297 255 125 0
-0.653583 1.058045 -0.325297 255 125 0
-0.678144 1.014640 -0.229297 255 125 0
-0.678141 1.014652 -0.274297 255 125 0
-0.675202 1.014049 -0.196297 255 125 0
-0.647295 1.021941 -0.184297 255 125 0
-0.678800 1.011553 -0.292297 255 125 0
-0.693989 1.034933 -0.154297 255 125 0
-0.677238 1.022171 -0.103297 255 125 0
-0.663460 1.011574 -0.304297 255 125 0
-0.641983 1.011611 -0.150056 255 125 0
-0.650380 1.022597 -0.223297 255 125 0
-0.647092 1.037233 -0.280297 255 125 0
-0.656157 0.999289 -0.199297 255 125 0
-0.700212 1.026252 -0.181297 255 125 0
-0.657007 1.048541 -0.148297 255 125 0
-0.672289 1.013324 -0.151297 255 125 0
-0.689558 1.018656 -0.332478 255 125 0
-0.649723 1.004055 -0.147593 255 125 0
-0.651535 1.016708 -0.310297 255 125 0
-0.681098 1.015163 -0.178297 255 125 0
-0.634828 1.025425 -0.154297 255 125 0
-0.672264 1.013444 -0.238297 255 125 0
-0.690443 1.046447 -0.136297 255 125 0
-0.642632 1.051845 -0.187297 255 125 0
-0.646623 1.047498 -0.268297 255 125 0
-0.683381 1.018858 -0.259297 255 125 0
-0.672264 1.013442 -0.217297 255 125 0
-0.699599 1.017723 -0.238297 255 125 0
-0.656972 1.013242 -0.250297 255 125 0
-0.679873 1.025798 -0.055297 255 125 0
-0.669271 1.041947 -0.128690 255 125 0
-0.658714 1.012100 -0.265297 255 125 0
-0.686347 1.019333 -0.169297 255 125 0
-0.688640 1.022974 -0.208297 255 125 0
-0.660549 1.010840 -0.205297 255 125 0
-0.649493 1.040810 -0.295297 255 125 0
-0.661402 1.035688 -0.133297 255 125 0
-0.654185 1.047942 -0.289297 255 125 0
-0.687541 1.021294 -0.232297 255 125 0
-0.655142 1.014408 -0.235297 255 125 0
-0.668250 1.038663 -0.118297 255 125 0
-0.686339 1.019374 -0.163297 255 125 0
-0.642675 1.017892 -0.139297 255 125 0
-0.695579 1.033617 -0.325297 255 125 0
-0.660540 1.010885 -0.316297 255 125 0
-0.685256 1.017742 -0.313297 255 125 0
-0.651533 1.016708 -0.259297 255 125 0
-0.648939 1.003888 -0.154297 255 125 0
-0.689845 1.024851 -0.304297 255 125 0
-0.693810 1.034895 -0.238297 255 125 0
-0.650022 1.002650 -0.196297 255 125 0
-0.657940 1.023114 -0.094297 255 125 0
-0.660537 1.010900 -0.322297 255 125 0
-0.649529 1.040818 -0.289297 255 125 0
-0.657645 1.053362 -0.187297 255 125 0
-0.651862 1.044381 -0.160296 255 125 0
-0.646372 1.005392 -0.238297 255 125 0
-0.652474 1.019975 -0.126359 255 125 0
-0.655123 1.014404 -0.268297 255 125 0
-0.655086 1.014396 -0.274297 255 125 0
-0.651533 1.016708 -0.289297 255 125 0
-0.655064 1.014391 -0.226297 255 125 0
-0.650036 1.002582 -0.265297 255 125 0
-0.635059 1.029759 -0.316297 255 125 0
-0.690713 1.006634 -0.283297 255 125 0
-0.688632 1.023012 -0.283297 255 125 0
-0.657494 1.017975 -0.151297 255 125 0
-0.688649 1.022933 -0.193297 255 125 0
-0.682259 1.017104 -0.211296 255 125 0
-0.688632 1.023013 -0.223297 255 125 0
-0.639423 1.017201 -0.148297 255 125 0
-0.689816 1.024845 -0.235297 255 125 0
-0.662214 1.009777 -0.253297 255 125 0
-0.659845 1.043011 -0.137684 255 125 0
-0.637943 1.045050 -0.316297 255 125 0
-0.638483 1.042506 -0.154297 255 125 0
-0.685787 1.007538 -0.328297 255 125 0
-0.654939 1.032767 -0.091297 255 125 0
-0.638218 1.014898 -0.310297 255 125 0
-0.648495 1.003794 -0.190297 255 125 0
-0.655897 0.999233 -0.304297 255 125 0
