ply
format ascii 1.0
element vertex 1255
property float x
property float y
property float z
property uchar red
property uchar green
property uchar blue
end_header
-0.354589 -0.497056 -0.317317 0 255 0
-0.235031 -0.588699 -0.569317 0 255 0
-0.231045 -0.483375 -0.578299 0 255 0
-0.331818 -0.447642 -0.378266 0 255 0
-0.286572 -0.444991 -0.301317 0 255 0
-0.340400 -0.411058 -0.368818 0 255 0
-0.357262 -0.471152 -0.329317 0 255 0
-0.322896 -0.521102 -0.436352 0 255 0
-0.308876 -0.407042 -0.349317 0 255 0
-0.213609 -0.468679 -0.474049 0 255 0
-0.251971 -0.423720 -0.623317 0 255 0
-0.326956 -0.434387 -0.345317 0 255 0
-0.238502 -0.451119 -0.612370 0 255 0
-0.389562 -0.584630 -0.553893 0 255 0
-0.270064 -0.493797 -0.275317 0 255 0
-0.301476 -0.482717 -0.433317 0 255 0
-0.370325 -0.436413 -0.317317 0 255 0
-0.266488 -0.515445 -0.639317 0 255 0
-0.261626 -0.425236 -0.409317 0 255 0
-0.232860 -0.482292 -0.345317 0 255 0
-0.246047 -0.545616 -0.317317 0 255 0
-0.282470 -0.427461 -0.301317 0 255 0
-0.275379 -0.451460 -0.342339 0 255 0
-0.273638 -0.539467 -0.443317 0 255 0
-0.292667 -0.542421 -0.479317 0 255 0
-0.359406 -0.449956 -0.255317 0 255 0
-0.298589 -0.522179 -0.615152 0 255 0
-0.267650 -0.443958 -0.313317 0 255 0
-0.232685 -0.423751 -0.535317 0 255 0
-0.254949 -0.490016 -0.435317 0 255 0
-0.248960 -0.519559 -0.355317 0 255 0
-0.248944 -0.442528 -0.263317 0 255 0
-0.251533 -0.541285 -0.329317 0 255 0
-0.289224 -0.526215 -0.614107 0 255 0
-0.298868 -0.504253 -0.341317 0 255 0
-0.260108 -0.536493 -0.525317 0 255 0
-0.265720 -0.457602 -0.413317 0 255 0
-0.217644 -0.478044 -0.545078 0 255 0
-0.235762 -0.418987 -0.433902 0 255 0
-0.248728 -0.518465 -0.327856 0 255 0
-0.287068 -0.477600 -0.336285 0 255 0
-0.320988 -0.502504 -0.423317 0 255 0
-0.278171 -0.493456 -0.355317 0 255 0
-0.249918 -0.437493 -0.413317 0 255 0
-0.249800 -0.408077 -0.439317 0 255 0
-0.254229 -0.438535 -0.355317 0 255 0
-0.390630 -0.445364 -0.316698 0 255 0
-0.339474 -0.512518 -0.477317 0 255 0
-0.392332 -0.410243 -0.293317 0 255 0
-0.301614 -0.344019 -0.285317 0 255 0
-0.306668 -0.408005 -0.337317 0 255 0
-0.335917 -0.510156 -0.561317 0 255 0
-0.284343 -0.580207 -0.555317 0 255 0
-0.365464 -0.471262 -0.381317 0 255 0
-0.261379 -0.511687 -0.369317 0 255 0
-0.326188 -0.526967 -0.303317 0 255 0
-0.319820 -0.573968 -0.567317 0 255 0
-0.287777 -0.471316 -0.339982 0 255 0
-0.219746 -0.468693 -0.407317 0 255 0
-0.284976 -0.458135 -0.409317 0 255 0
-0.318756 -0.530482 -0.439317 0 255 0
-0.231559 -0.497578 -0.593317 0 255 0
-0.344407 -0.352955 -0.275911 0 255 0
-0.251657 -0.436055 -0.383179 0 255 0
-0.227473 -0.447330 -0.582568 0 255 0
-0.253259 -0.460251 -0.369317 0 255 0
-0.292938 -0.476353 -0.384281 0 255 0
-0.211870 -0.422021 -0.383722 0 255 0
-0.317387 -0.389369 -0.350315 0 255 0
-0.286191 -0.485966 -0.405317 0 255 0
-0.214149 -0.423120 -0.315317 0 255 0
-0.221542 -0.390573 -0.363317 0 255 0
-0.221334 -0.503841 -0.481317 0 255 0
-0.275093 -0.537397 -0.431317 0 255 0
-0.293427 -0.515098 -0.665317 0 255 0
-0.315119 -0.494130 -0.431317 0 255 0
-0.298297 -0.417963 -0.285317 0 255 0
-0.303866 -0.489293 -0.341317 0 255 0
-0.272845 -0.516497 -0.623317 0 255 0
-0.303978 -0.465827 -0.263317 0 255 0
-0.308636 -0.444391 -0.435230 0 255 0
-0.218127 -0.453406 -0.537317 0 255 0
-0.233943 -0.474580 -0.629317 0 255 0
-0.301427 -0.352764 -0.311317 0 255 0
-0.225960 -0.429249 -0.523317 0 255 0
-0.315657 -0.506283 -0.397276 0 255 0
-0.316534 -0.510408 -0.353317 0 255 0
-0.285029 -0.516104 -0.641317 0 255 0
-0.244205 -0.410618 -0.453317 0 255 0
-0.324239 -0.469700 -0.381735 0 255 0
-0.292831 -0.418137 -0.281317 0 255 0
-0.246764 -0.451513 -0.431317 0 255 0
-0.214989 -0.488832 -0.495317 0 255 0
-0.280079 -0.435099 -0.447317 0 255 0
-0.259048 -0.490063 -0.399317 0 255 0
-0.224428 -0.442624 -0.335317 0 255 0
-0.255986 -0.437180 -0.290243 0 255 0
-0.240430 -0.413905 -0.413317 0 255 0
-0.277472 -0.461306 -0.367317 0 255 0
-0.299809 -0.537540 -0.539317 0 255 0
-0.347947 -0.369608 -0.303317 0 255 0
-0.310006 -0.460457 -0.397689 0 255 0
-0.324872 -0.414961 -0.319317 0 255 0
-0.354111 -0.456326 -0.439317 0 255 0
-0.401243 -0.447198 -0.260455 0 255 0
-0.324255 -0.455383 -0.343317 0 255 0
-0.438349 -0.592908 -0.549317 0 255 0
-0.325675 -0.361026 -0.284574 0 255 0
-0.369760 -0.452993 -0.375317 0 255 0
-0.262346 -0.476721 -0.366884 0 255 0
-0.263182 -0.515393 -0.355317 0 255 0
-0.245789 -0.437303 -0.311063 0 255 0
-0.315289 -0.475691 -0.405078 0 255 0
-0.261586 -0.463527 -0.389317 0 255 0
-0.336789 -0.519125 -0.487317 0 255 0
-0.316382 -0.394264 -0.301317 0 255 0
-0.277813 -0.443678 -0.429317 0 255 0
-0.370420 -0.417626 -0.301317 0 255 0
-0.287410 -0.440724 -0.354367 0 255 0
-0.267629 -0.491956 -0.444130 0 255 0
-0.358601 -0.477448 -0.311317 0 255 0
-0.315371 -0.404110 -0.339317 0 255 0
-0.291849 -0.519326 -0.631317 0 255 0
-0.238630 -0.422862 -0.571317 0 255 0
-0.326083 -0.579721 -0.555317 0 255 0
-0.354727 -0.468844 -0.391317 0 255 0
-0.251976 -0.514512 -0.383317 0 255 0
-0.311760 -0.410998 -0.363317 0 255 0
-0.295404 -0.420622 -0.326441 0 255 0
-0.222633 -0.501520 -0.261271 0 255 0
-0.262893 -0.431622 -0.311317 0 255 0
-0.251100 -0.520006 -0.432071 0 255 0
-0.320647 -0.529759 -0.542369 0 255 0
-0.293282 -0.535687 -0.551317 0 255 0
-0.228342 -0.595708 -0.593317 0 255 0
-0.324437 -0.518730 -0.552422 0 255 0
-0.303758 -0.476098 -0.321317 0 255 0
-0.325902 -0.477525 -0.335317 0 255 0
-0.246498 -0.494403 -0.657317 0 255 0
-0.214653 -0.484814 -0.483317 0 255 0
-0.343065 -0.404358 -0.341306 0 255 0
-0.319239 -0.532103 -0.487317 0 255 0
-0.299468 -0.497456 -0.445347 0 255 0
-0.407718 -0.396749 -0.295317 0 255 0
-0.302331 -0.539786 -0.513747 0 255 0
-0.305800 -0.498390 -0.427317 0 255 0
-0.324167 -0.411647 -0.449317 0 255 0
-0.323089 -0.454673 -0.305317 0 255 0
-0.272896 -0.410923 -0.413317 0 255 0
-0.275621 -0.433367 -0.425317 0 255 0
-0.271634 -0.453082 -0.301317 0 255 0
-0.245674 -0.586589 -0.651317 0 255 0
-0.325157 -0.512499 -0.379317 0 255 0
-0.244314 -0.431482 -0.377317 0 255 0
-0.354764 -0.469018 -0.379317 0 255 0
-0.323450 -0.389035 -0.279317 0 255 0
-0.215451 -0.484645 -0.457317 0 255 0
-0.357923 -0.483879 -0.431317 0 255 0
-0.217053 -0.490438 -0.451317 0 255 0
-0.288739 -0.533552 -0.485317 0 255 0
-0.261424 -0.510862 -0.425317 0 255 0
-0.313721 -0.531231 -0.557317 0 255 0
-0.263103 -0.451426 -0.409317 0 255 0
-0.334910 -0.481432 -0.445317 0 255 0
-0.320389 -0.413110 -0.441317 0 255 0
-0.280667 -0.457102 -0.431317 0 255 0
-0.319439 -0.379786 -0.317317 0 255 0
-0.303762 -0.536902 -0.525317 0 255 0
-0.296386 -0.471531 -0.435317 0 255 0
-0.257218 -0.504392 -0.667317 0 255 0
-0.239202 -0.492888 -0.591317 0 255 0
-0.351702 -0.473852 -0.431317 0 255 0
-0.242364 -0.478924 -0.671317 0 255 0
-0.263181 -0.528747 -0.481317 0 255 0
-0.356675 -0.478006 -0.417317 0 255 0
-0.233357 -0.590447 -0.649317 0 255 0
-0.252400 -0.554984 -0.309317 0 255 0
-0.235195 -0.589471 -0.635317 0 255 0
-0.346431 -0.468293 -0.367317 0 255 0
-0.293363 -0.497590 -0.321317 0 255 0
-0.254534 -0.478447 -0.381317 0 255 0
-0.256507 -0.468496 -0.335317 0 255 0
-0.216722 -0.488464 -0.527317 0 255 0
-0.215800 -0.476392 -0.521317 0 255 0
-0.244691 -0.528337 -0.489317 0 255 0
-0.281906 -0.453312 -0.423317 0 255 0
-0.246546 -0.426918 -0.595317 0 255 0
-0.289906 -0.539044 -0.529317 0 255 0
-0.346816 -0.503750 -0.461317 0 255 0
-0.369035 -0.411106 -0.291177 0 255 0
-0.218277 -0.442543 -0.525317 0 255 0
-0.256116 -0.533990 -0.471317 0 255 0
-0.215203 -0.418460 -0.321317 0 255 0
-0.259799 -0.514067 -0.437317 0 255 0
-0.193633 -0.503595 -0.371317 0 255 0
-0.344930 -0.387604 -0.317317 0 255 0
-0.398098 -0.468313 -0.309317 0 255 0
-0.255327 -0.511034 -0.373317 0 255 0
-0.332828 -0.510108 -0.587317 0 255 0
-0.267268 -0.490256 -0.429317 0 255 0
-0.289916 -0.409521 -0.363317 0 255 0
-0.294623 -0.542003 -0.493317 0 255 0
-0.275816 -0.443900 -0.355317 0 255 0
-0.283965 -0.539950 -0.451317 0 255 0
-0.322235 -0.498751 -0.429623 0 255 0
-0.265458 -0.426988 -0.377317 0 255 0
-0.313726 -0.468343 -0.415317 0 255 0
-0.304089 -0.361525 -0.315317 0 255 0
-0.316854 -0.386867 -0.293317 0 255 0
-0.268594 -0.444723 -0.391317 0 255 0
-0.285945 -0.530034 -0.455317 0 255 0
-0.306761 -0.531763 -0.483317 0 255 0
-0.333828 -0.466721 -0.363317 0 255 0
-0.281609 -0.528869 -0.435317 0 255 0
-0.356705 -0.449290 -0.281317 0 255 0
-0.283941 -0.510980 -0.670036 0 255 0
-0.235715 -0.596884 -0.589317 0 255 0
-0.241548 -0.590503 -0.623317 0 255 0
-0.241546 -0.590491 -0.635317 0 255 0
-0.298212 -0.409802 -0.287317 0 255 0
-0.294616 -0.532345 -0.451317 0 255 0
-0.394722 -0.589667 -0.556189 0 255 0
-0.247930 -0.471607 -0.657317 0 255 0
-0.248532 -0.421352 -0.571317 0 255 0
-0.237036 -0.478012 -0.607317 0 255 0
-0.262949 -0.508415 -0.621317 0 255 0
-0.291821 -0.528817 -0.537317 0 255 0
-0.238092 -0.445072 -0.599317 0 255 0
-0.271721 -0.520833 -0.581317 0 255 0
-0.271313 -0.518907 -0.605317 0 255 0
-0.228331 -0.475773 -0.567317 0 255 0
-0.302450 -0.530721 -0.455317 0 255 0
-0.255048 -0.447602 -0.409317 0 255 0
-0.224546 -0.486801 -0.475317 0 255 0
-0.332491 -0.523152 -0.305317 0 255 0
-0.226037 -0.600986 -0.643317 0 255 0
-0.241405 -0.512872 -0.479317 0 255 0
-0.252872 -0.422533 -0.311317 0 255 0
-0.284418 -0.455506 -0.273317 0 255 0
-0.251319 -0.521043 -0.495317 0 255 0
-0.292933 -0.524428 -0.567317 0 255 0
-0.242315 -0.584493 -0.603317 0 255 0
-0.352043 -0.465835 -0.336918 0 255 0
-0.245329 -0.517143 -0.513317 0 255 0
-0.226170 -0.494634 -0.467317 0 255 0
-0.238342 -0.421507 -0.559317 0 255 0
-0.228028 -0.484016 -0.549317 0 255 0
-0.314868 -0.521813 -0.565317 0 255 0
-0.225674 -0.482472 -0.457317 0 255 0
-0.314723 -0.381756 -0.359317 0 255 0
-0.309894 -0.402214 -0.443317 0 255 0
-0.280906 -0.444151 -0.359317 0 255 0
-0.292572 -0.493873 -0.393317 0 255 0
-0.261842 -0.580162 -0.555317 0 255 0
-0.299245 -0.429075 -0.375317 0 255 0
-0.271419 -0.529028 -0.529317 0 255 0
-0.238617 -0.509383 -0.531317 0 255 0
-0.292325 -0.473471 -0.373317 0 255 0
-0.230923 -0.473177 -0.613239 0 255 0
-0.271840 -0.531006 -0.517317 0 255 0
-0.275506 -0.442442 -0.437317 0 255 0
-0.307631 -0.487762 -0.375317 0 255 0
-0.325902 -0.477525 -0.354527 0 255 0
-0.298296 -0.501565 -0.371317 0 255 0
-0.283587 -0.528560 -0.575317 0 255 0
-0.220959 -0.474401 -0.575317 0 255 0
-0.242715 -0.437956 -0.605317 0 255 0
-0.310619 -0.511443 -0.362271 0 255 0
-0.230846 -0.434344 -0.576890 0 255 0
-0.234966 -0.598013 -0.573317 0 255 0
-0.380130 -0.459864 -0.351317 0 255 0
-0.225173 -0.441684 -0.477317 0 255 0
-0.323086 -0.406560 -0.311522 0 255 0
-0.267639 -0.415046 -0.327317 0 255 0
-0.315752 -0.449012 -0.320987 0 255 0
-0.302794 -0.513107 -0.668068 0 255 0
-0.325573 -0.524078 -0.535317 0 255 0
-0.225195 -0.388518 -0.356302 0 255 0
-0.332811 -0.519651 -0.549317 0 255 0
-0.278651 -0.534190 -0.573317 0 255 0
-0.271929 -0.425612 -0.384993 0 255 0
-0.256192 -0.438150 -0.271317 0 255 0
-0.297369 -0.583779 -0.556242 0 255 0
-0.347468 -0.444315 -0.340782 0 255 0
-0.443752 -0.589469 -0.548264 0 255 0
-0.216321 -0.374047 -0.323317 0 255 0
-0.302201 -0.500694 -0.379317 0 255 0
-0.290889 -0.485951 -0.373317 0 255 0
-0.239222 -0.589179 -0.279317 0 255 0
-0.241904 -0.505603 -0.611048 0 255 0
-0.399376 -0.465997 -0.291317 0 255 0
-0.333354 -0.459584 -0.373317 0 255 0
-0.326271 -0.467223 -0.371317 0 255 0
-0.398960 -0.590368 -0.547317 0 255 0
-0.269757 -0.411761 -0.385317 0 255 0
-0.253301 -0.482264 -0.371317 0 255 0
-0.313424 -0.534255 -0.441317 0 255 0
-0.249531 -0.454909 -0.442709 0 255 0
-0.270663 -0.515847 -0.616426 0 255 0
-0.236356 -0.421783 -0.479317 0 255 0
-0.344743 -0.471476 -0.337317 0 255 0
-0.277556 -0.432851 -0.431317 0 255 0
-0.339053 -0.510538 -0.459317 0 255 0
-0.379724 -0.451772 -0.337937 0 255 0
-0.307456 -0.506180 -0.437317 0 255 0
-0.265437 -0.418813 -0.369317 0 255 0
-0.354115 -0.465970 -0.355317 0 255 0
-0.356166 -0.465998 -0.369317 0 255 0
-0.362117 -0.441202 -0.293317 0 255 0
-0.235446 -0.517199 -0.539317 0 255 0
-0.256449 -0.410500 -0.446205 0 255 0
-0.244255 -0.516662 -0.401317 0 255 0
-0.308214 -0.538603 -0.505317 0 255 0
-0.350863 -0.435415 -0.337317 0 255 0
-0.383513 -0.440743 -0.308627 0 255 0
-0.330400 -0.460211 -0.394293 0 255 0
-0.280856 -0.496468 -0.343317 0 255 0
-0.286207 -0.526856 -0.593317 0 255 0
-0.324943 -0.381629 -0.275317 0 255 0
-0.292616 -0.417125 -0.350331 0 255 0
-0.300135 -0.510210 -0.359317 0 255 0
-0.228135 -0.469681 -0.435543 0 255 0
-0.250388 -0.420462 -0.583317 0 255 0
-0.313844 -0.535294 -0.487317 0 255 0
-0.241537 -0.590451 -0.613317 0 255 0
-0.314507 -0.500870 -0.391317 0 255 0
-0.279979 -0.421856 -0.283317 0 255 0
-0.277807 -0.465256 -0.451317 0 255 0
-0.324301 -0.556569 -0.357317 0 255 0
-0.238482 -0.585701 -0.667317 0 255 0
-0.311426 -0.534472 -0.519317 0 255 0
-0.308663 -0.511859 -0.373103 0 255 0
-0.260285 -0.434221 -0.669317 0 255 0
-0.264317 -0.437896 -0.307317 0 255 0
-0.353971 -0.397950 -0.346361 0 255 0
-0.387877 -0.464352 -0.329317 0 255 0
-0.263884 -0.426238 -0.637317 0 255 0
-0.368057 -0.444980 -0.327317 0 255 0
-0.244833 -0.423193 -0.580518 0 255 0
-0.341191 -0.468141 -0.385317 0 255 0
-0.217717 -0.496431 -0.313317 0 255 0
-0.246212 -0.449481 -0.421317 0 255 0
-0.268433 -0.428400 -0.416098 0 255 0
-0.203459 -0.440166 -0.378164 0 255 0
-0.293671 -0.523225 -0.609317 0 255 0
-0.365711 -0.430214 -0.315317 0 255 0
-0.248831 -0.413140 -0.525317 0 255 0
-0.221089 -0.426918 -0.391317 0 255 0
-0.310251 -0.528945 -0.463317 0 255 0
-0.324298 -0.520804 -0.449317 0 255 0
-0.266401 -0.389983 -0.346329 0 255 0
-0.237164 -0.430957 -0.391317 0 255 0
-0.315061 -0.503476 -0.409317 0 255 0
-0.214942 -0.468395 -0.437317 0 255 0
-0.362615 -0.434962 -0.307317 0 255 0
-0.303132 -0.524313 -0.591317 0 255 0
-0.260134 -0.475933 -0.353317 0 255 0
-0.283043 -0.460054 -0.315317 0 255 0
-0.310204 -0.509487 -0.403079 0 255 0
-0.333670 -0.518812 -0.479317 0 255 0
-0.239141 -0.521460 -0.453317 0 255 0
-0.344125 -0.512500 -0.489317 0 255 0
-0.263443 -0.404925 -0.400492 0 255 0
-0.253160 -0.510465 -0.417317 0 255 0
-0.286963 -0.515585 -0.633317 0 255 0
-0.216426 -0.424219 -0.329317 0 255 0
-0.352931 -0.494271 -0.345317 0 255 0
-0.282069 -0.425216 -0.379317 0 255 0
-0.251978 -0.495283 -0.416805 0 255 0
-0.185191 -0.421557 -0.332483 0 255 0
-0.358296 -0.466400 -0.349317 0 255 0
-0.207552 -0.497903 -0.391317 0 255 0
-0.279414 -0.460825 -0.333065 0 255 0
-0.326626 -0.465103 -0.365317 0 255 0
-0.309108 -0.581284 -0.555567 0 255 0
-0.271759 -0.444050 -0.338657 0 255 0
-0.296618 -0.463303 -0.381317 0 255 0
-0.212419 -0.424604 -0.377317 0 255 0
-0.222748 -0.431977 -0.495317 0 255 0
-0.349347 -0.491628 -0.459317 0 255 0
-0.226485 -0.596591 -0.575317 0 255 0
-0.262824 -0.476620 -0.347317 0 255 0
-0.257191 -0.519803 -0.563317 0 255 0
-0.288126 -0.598012 -0.551925 0 255 0
-0.242471 -0.585225 -0.552655 0 255 0
-0.309893 -0.527262 -0.549317 0 255 0
-0.296356 -0.376997 -0.329317 0 255 0
-0.261467 -0.501444 -0.391434 0 255 0
-0.238076 -0.477791 -0.375317 0 255 0
-0.335528 -0.522817 -0.497317 0 255 0
-0.348074 -0.462589 -0.331317 0 255 0
-0.341702 -0.551864 -0.328250 0 255 0
-0.255059 -0.442436 -0.423317 0 255 0
-0.295541 -0.498218 -0.383317 0 255 0
-0.211024 -0.446737 -0.313317 0 255 0
-0.246858 -0.475924 -0.411317 0 255 0
-0.215773 -0.472308 -0.541317 0 255 0
-0.337769 -0.466019 -0.351317 0 255 0
-0.282958 -0.429402 -0.384293 0 255 0
-0.354708 -0.459134 -0.364307 0 255 0
-0.353442 -0.488029 -0.441317 0 255 0
-0.346416 -0.477840 -0.335317 0 255 0
-0.311905 -0.402059 -0.327317 0 255 0
-0.289233 -0.475096 -0.349317 0 255 0
-0.430369 -0.584229 -0.553317 0 255 0
-0.291193 -0.452188 -0.263317 0 255 0
-0.248652 -0.479632 -0.676241 0 255 0
-0.257312 -0.535042 -0.505317 0 255 0
-0.284234 -0.502739 -0.428152 0 255 0
-0.246975 -0.453408 -0.407317 0 255 0
-0.442334 -0.602038 -0.542290 0 255 0
-0.274287 -0.513657 -0.663317 0 255 0
-0.238445 -0.514517 -0.563317 0 255 0
-0.227448 -0.596597 -0.629317 0 255 0
-0.346846 -0.470244 -0.389317 0 255 0
-0.337981 -0.505492 -0.331317 0 255 0
-0.263130 -0.509270 -0.658710 0 255 0
-0.248672 -0.431635 -0.369317 0 255 0
-0.260189 -0.524290 -0.593317 0 255 0
-0.237341 -0.439098 -0.613317 0 255 0
-0.379138 -0.468254 -0.284275 0 255 0
-0.229637 -0.467129 -0.429317 0 255 0
-0.355587 -0.434411 -0.320541 0 255 0
-0.285912 -0.539494 -0.435317 0 255 0
-0.216860 -0.445496 -0.488642 0 255 0
-0.249851 -0.494890 -0.631317 0 255 0
-0.294374 -0.444629 -0.457317 0 255 0
-0.254226 -0.409663 -0.431317 0 255 0
-0.253978 -0.514306 -0.577317 0 255 0
-0.330532 -0.518546 -0.309317 0 255 0
-0.302237 -0.597057 -0.549825 0 255 0
-0.304208 -0.413941 -0.319317 0 255 0
-0.255197 -0.510422 -0.351317 0 255 0
-0.274131 -0.445591 -0.373829 0 255 0
-0.252964 -0.509537 -0.429317 0 255 0
-0.253834 -0.441726 -0.671317 0 255 0
-0.359702 -0.473009 -0.383317 0 255 0
-0.264009 -0.484547 -0.394362 0 255 0
-0.408897 -0.463973 -0.288375 0 255 0
-0.310098 -0.421589 -0.455317 0 255 0
-0.364196 -0.465296 -0.354411 0 255 0
-0.329053 -0.453874 -0.427317 0 255 0
-0.245522 -0.529370 -0.509317 0 255 0
-0.320940 -0.521518 -0.582434 0 255 0
-0.398490 -0.472729 -0.301317 0 255 0
-0.393584 -0.579685 -0.551317 0 255 0
-0.291666 -0.466400 -0.451317 0 255 0
-0.234529 -0.595956 -0.629317 0 255 0
-0.313178 -0.417663 -0.449317 0 255 0
-0.300155 -0.414112 -0.299317 0 255 0
-0.269727 -0.405633 -0.383585 0 255 0
-0.300300 -0.501369 -0.393649 0 255 0
-0.257370 -0.414835 -0.583317 0 255 0
-0.216832 -0.378028 -0.333734 0 255 0
-0.276088 -0.445175 -0.389119 0 255 0
-0.390100 -0.596784 -0.551730 0 255 0
-0.240411 -0.460102 -0.655317 0 255 0
-0.278970 -0.603029 -0.557317 0 255 0
-0.325724 -0.486307 -0.365317 0 255 0
-0.242947 -0.414314 -0.513317 0 255 0
-0.260777 -0.411625 -0.574286 0 255 0
-0.286784 -0.533974 -0.467317 0 255 0
-0.310276 -0.523785 -0.569317 0 255 0
-0.209696 -0.469510 -0.388995 0 255 0
-0.310736 -0.411229 -0.329317 0 255 0
-0.388428 -0.425386 -0.329993 0 255 0
-0.234754 -0.513257 -0.551317 0 255 0
-0.321172 -0.522607 -0.543317 0 255 0
-0.281245 -0.532000 -0.477317 0 255 0
-0.292135 -0.539909 -0.443385 0 255 0
-0.234833 -0.424240 -0.495317 0 255 0
-0.234840 -0.445764 -0.443317 0 255 0
-0.291538 -0.440907 -0.297317 0 255 0
-0.320108 -0.517605 -0.321927 0 255 0
-0.251242 -0.434099 -0.298166 0 255 0
-0.264070 -0.398259 -0.351317 0 255 0
-0.343091 -0.586329 -0.537317 0 255 0
-0.322160 -0.459918 -0.390902 0 255 0
-0.382441 -0.416456 -0.289317 0 255 0
-0.233405 -0.517633 -0.505317 0 255 0
-0.319059 -0.560767 -0.349149 0 255 0
-0.269459 -0.529425 -0.487317 0 255 0
-0.241526 -0.426866 -0.567317 0 255 0
-0.253687 -0.522561 -0.461317 0 255 0
-0.239223 -0.412117 -0.471317 0 255 0
-0.391546 -0.603587 -0.547317 0 255 0
-0.289692 -0.432230 -0.321317 0 255 0
-0.315181 -0.410285 -0.309317 0 255 0
-0.227121 -0.436056 -0.479317 0 255 0
-0.251223 -0.530203 -0.436161 0 255 0
-0.247313 -0.488095 -0.641317 0 255 0
-0.304420 -0.422795 -0.447317 0 255 0
-0.264873 -0.408710 -0.405317 0 255 0
-0.224945 -0.488761 -0.487317 0 255 0
-0.262457 -0.405134 -0.461317 0 255 0
-0.265059 -0.441385 -0.455817 0 255 0
-0.292418 -0.416191 -0.307317 0 255 0
-0.242169 -0.439516 -0.403317 0 255 0
-0.247702 -0.513641 -0.551317 0 255 0
-0.319908 -0.516659 -0.577317 0 255 0
-0.257855 -0.474833 -0.329317 0 255 0
-0.223636 -0.486994 -0.430576 0 255 0
-0.236552 -0.504696 -0.437317 0 255 0
-0.309130 -0.456334 -0.377317 0 255 0
-0.313441 -0.459727 -0.307317 0 255 0
-0.229343 -0.489870 -0.437317 0 255 0
-0.303982 -0.410620 -0.289317 0 255 0
-0.248993 -0.529339 -0.521317 0 255 0
-0.232971 -0.453954 -0.625317 0 255 0
-0.278947 -0.410534 -0.361317 0 255 0
-0.235236 -0.459992 -0.605317 0 255 0
-0.317234 -0.523320 -0.587317 0 255 0
-0.230832 -0.482368 -0.569317 0 255 0
-0.287204 -0.500063 -0.407317 0 255 0
-0.369526 -0.451895 -0.338281 0 255 0
-0.358641 -0.477639 -0.319317 0 255 0
-0.326685 -0.426241 -0.349317 0 255 0
-0.310029 -0.441327 -0.419317 0 255 0
-0.229144 -0.451064 -0.565317 0 255 0
-0.295914 -0.519212 -0.637317 0 255 0
-0.264183 -0.496778 -0.431317 0 255 0
-0.224368 -0.471197 -0.413317 0 255 0
-0.255048 -0.502809 -0.657317 0 255 0
-0.310450 -0.529882 -0.478304 0 255 0
-0.287531 -0.450921 -0.292278 0 255 0
-0.340174 -0.515810 -0.447317 0 255 0
-0.296988 -0.495413 -0.411317 0 255 0
-0.250873 -0.403507 -0.507169 0 255 0
-0.285380 -0.455468 -0.381317 0 255 0
-0.227220 -0.474995 -0.561317 0 255 0
-0.275237 -0.537367 -0.541757 0 255 0
-0.247001 -0.587300 -0.639317 0 255 0
-0.342510 -0.478701 -0.343317 0 255 0
-0.287806 -0.538784 -0.538680 0 255 0
-0.317319 -0.518198 -0.331317 0 255 0
-0.260806 -0.527193 -0.501317 0 255 0
-0.262271 -0.403129 -0.355317 0 255 0
-0.315705 -0.477648 -0.415851 0 255 0
-0.304117 -0.480850 -0.331317 0 255 0
-0.353338 -0.443068 -0.270709 0 255 0
-0.280134 -0.541166 -0.509317 0 255 0
-0.363061 -0.450339 -0.245317 0 255 0
-0.304528 -0.415446 -0.265317 0 255 0
-0.315249 -0.393912 -0.319317 0 255 0
-0.311468 -0.529665 -0.511317 0 255 0
-0.292793 -0.427573 -0.353317 0 255 0
-0.311759 -0.536042 -0.471317 0 255 0
-0.301651 -0.435652 -0.325317 0 255 0
-0.300494 -0.540760 -0.475317 0 255 0
-0.257923 -0.532868 -0.539018 0 255 0
-0.323038 -0.531388 -0.515317 0 255 0
-0.230131 -0.465167 -0.581317 0 255 0
-0.248147 -0.583076 -0.559317 0 255 0
-0.233665 -0.597320 -0.671317 0 255 0
-0.382512 -0.455269 -0.286460 0 255 0
-0.385652 -0.402708 -0.283317 0 255 0
-0.291908 -0.404171 -0.437317 0 255 0
-0.266963 -0.455293 -0.389317 0 255 0
-0.356037 -0.446149 -0.265317 0 255 0
-0.261183 -0.521952 -0.605317 0 255 0
-0.254690 -0.466081 -0.417317 0 255 0
-0.230016 -0.430432 -0.555728 0 255 0
-0.322500 -0.423042 -0.420483 0 255 0
-0.260853 -0.407520 -0.561317 0 255 0
-0.341450 -0.483338 -0.449317 0 255 0
-0.235668 -0.428168 -0.541317 0 255 0
-0.324295 -0.453330 -0.293317 0 255 0
-0.246667 -0.412579 -0.546154 0 255 0
-0.214174 -0.466514 -0.525317 0 255 0
-0.321841 -0.386378 -0.299317 0 255 0
-0.240577 -0.508980 -0.439317 0 255 0
-0.222808 -0.468768 -0.491317 0 255 0
-0.215968 -0.489396 -0.465317 0 255 0
-0.269973 -0.426028 -0.371575 0 255 0
-0.260191 -0.428107 -0.421450 0 255 0
-0.259451 -0.516185 -0.569317 0 255 0
-0.253304 -0.520757 -0.535317 0 255 0
-0.225738 -0.453833 -0.583317 0 255 0
-0.328084 -0.593608 -0.528723 0 255 0
-0.356247 -0.456762 -0.460282 0 255 0
-0.285342 -0.450237 -0.375317 0 255 0
-0.262007 -0.470660 -0.389317 0 255 0
-0.228322 -0.436926 -0.511317 0 255 0
-0.240983 -0.472414 -0.367317 0 255 0
-0.245456 -0.443507 -0.653317 0 255 0
-0.335052 -0.477624 -0.349317 0 255 0
-0.258012 -0.523669 -0.493317 0 255 0
-0.315376 -0.402065 -0.369317 0 255 0
-0.231278 -0.491504 -0.603317 0 255 0
-0.235585 -0.485491 -0.597317 0 255 0
-0.298623 -0.362687 -0.321317 0 255 0
-0.237257 -0.522220 -0.473317 0 255 0
-0.313676 -0.400773 -0.345317 0 255 0
-0.278025 -0.540863 -0.473228 0 255 0
-0.231999 -0.497484 -0.272258 0 255 0
-0.362258 -0.456180 -0.253317 0 255 0
-0.343116 -0.498402 -0.361317 0 255 0
-0.325069 -0.473612 -0.400034 0 255 0
-0.280331 -0.423826 -0.369317 0 255 0
-0.218122 -0.494300 -0.473317 0 255 0
-0.266254 -0.427776 -0.393317 0 255 0
-0.355029 -0.518362 -0.276680 0 255 0
-0.239201 -0.473462 -0.651317 0 255 0
-0.264557 -0.448652 -0.395317 0 255 0
-0.302052 -0.490773 -0.443317 0 255 0
-0.229769 -0.448509 -0.607317 0 255 0
-0.276402 -0.434885 -0.351317 0 255 0
-0.245967 -0.582437 -0.672343 0 255 0
-0.286190 -0.494145 -0.351317 0 255 0
-0.225394 -0.511157 -0.495317 0 255 0
-0.259066 -0.459016 -0.393317 0 255 0
-0.249237 -0.405428 -0.447317 0 255 0
-0.275749 -0.535213 -0.561317 0 255 0
-0.234898 -0.395685 -0.349317 0 255 0
-0.224563 -0.431591 -0.517317 0 255 0
-0.223959 -0.430803 -0.505317 0 255 0
-0.259898 -0.422035 -0.397317 0 255 0
-0.333603 -0.465664 -0.400003 0 255 0
-0.274523 -0.485910 -0.373317 0 255 0
-0.431003 -0.596827 -0.549317 0 255 0
-0.403078 -0.455831 -0.261317 0 255 0
-0.364019 -0.435607 -0.323317 0 255 0
-0.268070 -0.513272 -0.439317 0 255 0
-0.360102 -0.470255 -0.367317 0 255 0
-0.243145 -0.533964 -0.291317 0 255 0
-0.307515 -0.506455 -0.445317 0 255 0
-0.237606 -0.427662 -0.417317 0 255 0
-0.263177 -0.480634 -0.323873 0 255 0
-0.274839 -0.439306 -0.277913 0 255 0
-0.363282 -0.447088 -0.321317 0 255 0
-0.265057 -0.450999 -0.415317 0 255 0
-0.317264 -0.379172 -0.310763 0 255 0
-0.317940 -0.456726 -0.397317 0 255 0
-0.268323 -0.399031 -0.359317 0 255 0
-0.342371 -0.497292 -0.395317 0 255 0
-0.292942 -0.443637 -0.345317 0 255 0
-0.303597 -0.449551 -0.240296 0 255 0
-0.281801 -0.539392 -0.521317 0 255 0
-0.275840 -0.405531 -0.391317 0 255 0
-0.248398 -0.455150 -0.665317 0 255 0
-0.226215 -0.602993 -0.583317 0 255 0
-0.231853 -0.419844 -0.489317 0 255 0
-0.241345 -0.448470 -0.653317 0 255 0
-0.357704 -0.463610 -0.303317 0 255 0
-0.249955 -0.437666 -0.267317 0 255 0
-0.313115 -0.523181 -0.407077 0 255 0
-0.228910 -0.434854 -0.343317 0 255 0
-0.311962 -0.527374 -0.433317 0 255 0
-0.315619 -0.588079 -0.547317 0 255 0
-0.317203 -0.532794 -0.527317 0 255 0
-0.304119 -0.509717 -0.393317 0 255 0
-0.232677 -0.493251 -0.285317 0 255 0
-0.200467 -0.435709 -0.367317 0 255 0
-0.248980 -0.442697 -0.309317 0 255 0
-0.296824 -0.523499 -0.621317 0 255 0
-0.352344 -0.476871 -0.329317 0 255 0
-0.322832 -0.366889 -0.301317 0 255 0
-0.344746 -0.506235 -0.339317 0 255 0
-0.291746 -0.461125 -0.327317 0 255 0
-0.257149 -0.412396 -0.395317 0 255 0
-0.231526 -0.518032 -0.495317 0 255 0
-0.305999 -0.518560 -0.338508 0 255 0
-0.231874 -0.444350 -0.597317 0 255 0
-0.230192 -0.431263 -0.475317 0 255 0
-0.211035 -0.426287 -0.293317 0 255 0
-0.294575 -0.527122 -0.603317 0 255 0
-0.365631 -0.471125 -0.287317 0 255 0
-0.232018 -0.401380 -0.349930 0 255 0
-0.238950 -0.479650 -0.349317 0 255 0
-0.314240 -0.518853 -0.415805 0 255 0
-0.235271 -0.589833 -0.655317 0 255 0
-0.268935 -0.517338 -0.365317 0 255 0
-0.314920 -0.445100 -0.403787 0 255 0
-0.334852 -0.471533 -0.375576 0 255 0
-0.269998 -0.455002 -0.343317 0 255 0
-0.327147 -0.493006 -0.429317 0 255 0
-0.358221 -0.509504 -0.287317 0 255 0
-0.354466 -0.438764 -0.297317 0 255 0
-0.376049 -0.463340 -0.299317 0 255 0
-0.247206 -0.424733 -0.282250 0 255 0
-0.340796 -0.509119 -0.343312 0 255 0
-0.330817 -0.472391 -0.403317 0 255 0
-0.255174 -0.506871 -0.643317 0 255 0
-0.268631 -0.477430 -0.354459 0 255 0
-0.368568 -0.389670 -0.313317 0 255 0
-0.298357 -0.540323 -0.499317 0 255 0
-0.268400 -0.536775 -0.543317 0 255 0
-0.279037 -0.420574 -0.415317 0 255 0
-0.284483 -0.542394 -0.463317 0 255 0
-0.248852 -0.434607 -0.643317 0 255 0
-0.260948 -0.393187 -0.316799 0 255 0
-0.260038 -0.437009 -0.391317 0 255 0
-0.245591 -0.436371 -0.397317 0 255 0
-0.272742 -0.525629 -0.608423 0 255 0
-0.261823 -0.387684 -0.323317 0 255 0
-0.294640 -0.532455 -0.487317 0 255 0
-0.330114 -0.458866 -0.277317 0 255 0
-0.300785 -0.446060 -0.345317 0 255 0
-0.319628 -0.496104 -0.397317 0 255 0
-0.178278 -0.427519 -0.327317 0 255 0
-0.239674 -0.418155 -0.486461 0 255 0
-0.319493 -0.472753 -0.367317 0 255 0
-0.227250 -0.594594 -0.641317 0 255 0
-0.288023 -0.491710 -0.437040 0 255 0
-0.391679 -0.402203 -0.278369 0 255 0
-0.305367 -0.419396 -0.327317 0 255 0
-0.260831 -0.527313 -0.515317 0 255 0
-0.331157 -0.425291 -0.416256 0 255 0
-0.320208 -0.446020 -0.305317 0 255 0
-0.225984 -0.603855 -0.591317 0 255 0
-0.244024 -0.409763 -0.459317 0 255 0
-0.234313 -0.427473 -0.487317 0 255 0
-0.240608 -0.412928 -0.525317 0 255 0
-0.272074 -0.488966 -0.419317 0 255 0
-0.269122 -0.518219 -0.594364 0 255 0
-0.327765 -0.518023 -0.315317 0 255 0
-0.214218 -0.442685 -0.319317 0 255 0
-0.273170 -0.412212 -0.419317 0 255 0
-0.308229 -0.397449 -0.311317 0 255 0
-0.232755 -0.515726 -0.517317 0 255 0
-0.231933 -0.487275 -0.611317 0 255 0
-0.290398 -0.493262 -0.369317 0 255 0
-0.219448 -0.494018 -0.503317 0 255 0
-0.320163 -0.373569 -0.309317 0 255 0
-0.249539 -0.531909 -0.461317 0 255 0
-0.325770 -0.505767 -0.417317 0 255 0
-0.244477 -0.411893 -0.481317 0 255 0
-0.313063 -0.474839 -0.295317 0 255 0
-0.418026 -0.603116 -0.542904 0 255 0
-0.341212 -0.511075 -0.430426 0 255 0
-0.249463 -0.469236 -0.339317 0 255 0
-0.251729 -0.446012 -0.437317 0 255 0
-0.232120 -0.436118 -0.549317 0 255 0
-0.255857 -0.503910 -0.385317 0 255 0
-0.243725 -0.446832 -0.629317 0 255 0
-0.355300 -0.461924 -0.449317 0 255 0
-0.351286 -0.500755 -0.510239 0 255 0
-0.355950 -0.509987 -0.281317 0 255 0
-0.282229 -0.523612 -0.625317 0 255 0
-0.243567 -0.513428 -0.432860 0 255 0
-0.351286 -0.500755 -0.472814 0 255 0
-0.233185 -0.423624 -0.415317 0 255 0
-0.315634 -0.375429 -0.315317 0 255 0
-0.362223 -0.446392 -0.251317 0 255 0
-0.315283 -0.533382 -0.499317 0 255 0
-0.256233 -0.515297 -0.361317 0 255 0
-0.266041 -0.522964 -0.560347 0 255 0
-0.237474 -0.407810 -0.405317 0 255 0
-0.353290 -0.471703 -0.373710 0 255 0
-0.317170 -0.455681 -0.289317 0 255 0
-0.257118 -0.526905 -0.567317 0 255 0
-0.231931 -0.420206 -0.505317 0 255 0
-0.370697 -0.465959 -0.365317 0 255 0
-0.295316 -0.434954 -0.349317 0 255 0
-0.294507 -0.541449 -0.458741 0 255 0
-0.219695 -0.420357 -0.317288 0 255 0
-0.233335 -0.499245 -0.547317 0 255 0
-0.310683 -0.452134 -0.325317 0 255 0
-0.261652 -0.374635 -0.291317 0 255 0
-0.278044 -0.444759 -0.311446 0 255 0
-0.239824 -0.473330 -0.663317 0 255 0
-0.234004 -0.425495 -0.509317 0 255 0
-0.237601 -0.418596 -0.545317 0 255 0
-0.251233 -0.520635 -0.385317 0 255 0
-0.267412 -0.539030 -0.465072 0 255 0
-0.276886 -0.429699 -0.405317 0 255 0
-0.312180 -0.412967 -0.386176 0 255 0
-0.218517 -0.488082 -0.541317 0 255 0
-0.241119 -0.473054 -0.322856 0 255 0
-0.248038 -0.428646 -0.301420 0 255 0
-0.308932 -0.517936 -0.619317 0 255 0
-0.220432 -0.434513 -0.481317 0 255 0
-0.329090 -0.466624 -0.359317 0 255 0
-0.301641 -0.449967 -0.318452 0 255 0
-0.248888 -0.413405 -0.571317 0 255 0
-0.308275 -0.538889 -0.483317 0 255 0
-0.358819 -0.401526 -0.325317 0 255 0
-0.261578 -0.415391 -0.327317 0 255 0
-0.240343 -0.527117 -0.271317 0 255 0
-0.329399 -0.474737 -0.359267 0 255 0
-0.262263 -0.591241 -0.551317 0 255 0
-0.283355 -0.527462 -0.564425 0 255 0
-0.319356 -0.354191 -0.275317 0 255 0
-0.296522 -0.435496 -0.381317 0 255 0
-0.239598 -0.461110 -0.615317 0 255 0
-0.319466 -0.399150 -0.356226 0 255 0
-0.223805 -0.472645 -0.587317 0 255 0
-0.371110 -0.468967 -0.293317 0 255 0
-0.251920 -0.514245 -0.405317 0 255 0
-0.221731 -0.454684 -0.563317 0 255 0
-0.233644 -0.447506 -0.617317 0 255 0
-0.226920 -0.467894 -0.599317 0 255 0
-0.241782 -0.521986 -0.545317 0 255 0
-0.232589 -0.515761 -0.453317 0 255 0
-0.258604 -0.497593 -0.405317 0 255 0
-0.352839 -0.455442 -0.317317 0 255 0
-0.345125 -0.510243 -0.295294 0 255 0
-0.275815 -0.501615 -0.389317 0 255 0
-0.384231 -0.598031 -0.550797 0 255 0
-0.315666 -0.477467 -0.365317 0 255 0
-0.361967 -0.425950 -0.323317 0 255 0
-0.267806 -0.521645 -0.569317 0 255 0
-0.286653 -0.475644 -0.440125 0 255 0
-0.316366 -0.499999 -0.440330 0 255 0
-0.289738 -0.499774 -0.335317 0 255 0
-0.326431 -0.522396 -0.455317 0 255 0
-0.221393 -0.452711 -0.513317 0 255 0
-0.214567 -0.463566 -0.455317 0 255 0
-0.298091 -0.529459 -0.507317 0 255 0
-0.228402 -0.424641 -0.447317 0 255 0
-0.291421 -0.507699 -0.321317 0 255 0
-0.292201 -0.492122 -0.409317 0 255 0
-0.230865 -0.407759 -0.385317 0 255 0
-0.297068 -0.428447 -0.432609 0 255 0
-0.333819 -0.494244 -0.419317 0 255 0
-0.425651 -0.465835 -0.267317 0 255 0
-0.231042 -0.435266 -0.489317 0 255 0
-0.271273 -0.461002 -0.329317 0 255 0
-0.243397 -0.488928 -0.625317 0 255 0
-0.227324 -0.451451 -0.537317 0 255 0
-0.303815 -0.412700 -0.369317 0 255 0
-0.254415 -0.410549 -0.569317 0 255 0
-0.286421 -0.440934 -0.393317 0 255 0
-0.275745 -0.539763 -0.455317 0 255 0
-0.236969 -0.506651 -0.459317 0 255 0
-0.288288 -0.531430 -0.581317 0 255 0
-0.295852 -0.538161 -0.529317 0 255 0
-0.352188 -0.455580 -0.339317 0 255 0
-0.229482 -0.471439 -0.571317 0 255 0
-0.245394 -0.371957 -0.271317 0 255 0
-0.244503 -0.440873 -0.303317 0 255 0
-0.379683 -0.466093 -0.317317 0 255 0
-0.268229 -0.398591 -0.497317 0 255 0
-0.298046 -0.490764 -0.403317 0 255 0
-0.282485 -0.475276 -0.355317 0 255 0
-0.215457 -0.453973 -0.447317 0 255 0
-0.266880 -0.536529 -0.531317 0 255 0
-0.301132 -0.505282 -0.367545 0 255 0
-0.263298 -0.442723 -0.337317 0 255 0
-0.230443 -0.422830 -0.465317 0 255 0
-0.297085 -0.426399 -0.457317 0 255 0
-0.237148 -0.488211 -0.585317 0 255 0
-0.242525 -0.513649 -0.525317 0 255 0
-0.353920 -0.445809 -0.407317 0 255 0
-0.227464 -0.469823 -0.605317 0 255 0
-0.316068 -0.527454 -0.575317 0 255 0
-0.308913 -0.515896 -0.411317 0 255 0
-0.278167 -0.454956 -0.451842 0 255 0
-0.343910 -0.510502 -0.443317 0 255 0
-0.331400 -0.488624 -0.425317 0 255 0
-0.217568 -0.419973 -0.299317 0 255 0
-0.267308 -0.432728 -0.332338 0 255 0
-0.260335 -0.405585 -0.441317 0 255 0
-0.238863 -0.506249 -0.551317 0 255 0
-0.287667 -0.413078 -0.283317 0 255 0
-0.321575 -0.524504 -0.507317 0 255 0
-0.302009 -0.528646 -0.441317 0 255 0
-0.243273 -0.603456 -0.553317 0 255 0
-0.223299 -0.480932 -0.501317 0 255 0
-0.235036 -0.603162 -0.623317 0 255 0
-0.301639 -0.536526 -0.437317 0 255 0
-0.289352 -0.478724 -0.365317 0 255 0
-0.236724 -0.596669 -0.556188 0 255 0
-0.312171 -0.461029 -0.405317 0 255 0
-0.308724 -0.435193 -0.417317 0 255 0
-0.235769 -0.472147 -0.605317 0 255 0
-0.248358 -0.512410 -0.563317 0 255 0
-0.257159 -0.524852 -0.485317 0 255 0
-0.262010 -0.503997 -0.411317 0 255 0
-0.217968 -0.383370 -0.343317 0 255 0
-0.266251 -0.523951 -0.541317 0 255 0
-0.241551 -0.590520 -0.649317 0 255 0
-0.234972 -0.603176 -0.635317 0 255 0
-0.251760 -0.499418 -0.623317 0 255 0
-0.220685 -0.458996 -0.513317 0 255 0
-0.293322 -0.502852 -0.311317 0 255 0
-0.313527 -0.422904 -0.427317 0 255 0
-0.316598 -0.438609 -0.365317 0 255 0
-0.251184 -0.414586 -0.561317 0 255 0
-0.275099 -0.507861 -0.661317 0 255 0
-0.239552 -0.590738 -0.595317 0 255 0
-0.247094 -0.597355 -0.547317 0 255 0
-0.243641 -0.509323 -0.553317 0 255 0
-0.350035 -0.480574 -0.391317 0 255 0
-0.226539 -0.418903 -0.395317 0 255 0
-0.282665 -0.437643 -0.345398 0 255 0
-0.314136 -0.412551 -0.460315 0 255 0
-0.389771 -0.602987 -0.541317 0 255 0
-0.313776 -0.545532 -0.312134 0 255 0
-0.324920 -0.395947 -0.302370 0 255 0
-0.246384 -0.584393 -0.586505 0 255 0
-0.293757 -0.403253 -0.455317 0 255 0
-0.338765 -0.470702 -0.360586 0 255 0
-0.232984 -0.434778 -0.559317 0 255 0
-0.246150 -0.515962 -0.477317 0 255 0
-0.243810 -0.447232 -0.665317 0 255 0
-0.243060 -0.458329 -0.639317 0 255 0
-0.232907 -0.429817 -0.505317 0 255 0
-0.264501 -0.525336 -0.440282 0 255 0
-0.295556 -0.498288 -0.422216 0 255 0
-0.253528 -0.490864 -0.385317 0 255 0
-0.214540 -0.488928 -0.477317 0 255 0
-0.249181 -0.443641 -0.643317 0 255 0
-0.219770 -0.385582 -0.349317 0 255 0
-0.321665 -0.404817 -0.373317 0 255 0
-0.263177 -0.480634 -0.334628 0 255 0
-0.310467 -0.481864 -0.367317 0 255 0
-0.245646 -0.523209 -0.359523 0 255 0
-0.244106 -0.525581 -0.350484 0 255 0
-0.389102 -0.433421 -0.311317 0 255 0
-0.256893 -0.479925 -0.375592 0 255 0
-0.225347 -0.451871 -0.521317 0 255 0
-0.250998 -0.438240 -0.633317 0 255 0
-0.301410 -0.381538 -0.309317 0 255 0
-0.289318 -0.468944 -0.334655 0 255 0
-0.292995 -0.534344 -0.575317 0 255 0
-0.248660 -0.579820 -0.661317 0 255 0
-0.271488 -0.437974 -0.315317 0 255 0
-0.226961 -0.493017 -0.269317 0 255 0
-0.224278 -0.425517 -0.355317 0 255 0
-0.304923 -0.516744 -0.639317 0 255 0
-0.255436 -0.444218 -0.259317 0 255 0
-0.381264 -0.449400 -0.332534 0 255 0
-0.239084 -0.420325 -0.527317 0 255 0
-0.186255 -0.416950 -0.349317 0 255 0
-0.259052 -0.438573 -0.363317 0 255 0
-0.306748 -0.495909 -0.435317 0 255 0
-0.264494 -0.463997 -0.411317 0 255 0
-0.313899 -0.526867 -0.337317 0 255 0
-0.268378 -0.505101 -0.645317 0 255 0
-0.268981 -0.450775 -0.353317 0 255 0
-0.318452 -0.399366 -0.317317 0 255 0
-0.242975 -0.515598 -0.463317 0 255 0
-0.225986 -0.445601 -0.451317 0 255 0
-0.321168 -0.589929 -0.531317 0 255 0
-0.346257 -0.448232 -0.227317 0 255 0
-0.281338 -0.458372 -0.395317 0 255 0
-0.263594 -0.482590 -0.431999 0 255 0
-0.245063 -0.439501 -0.627317 0 255 0
-0.306223 -0.471524 -0.429317 0 255 0
-0.249979 -0.413920 -0.415317 0 255 0
-0.190444 -0.412262 -0.351317 0 255 0
-0.214868 -0.484769 -0.513317 0 255 0
-0.375484 -0.441448 -0.317317 0 255 0
-0.252384 -0.521777 -0.453317 0 255 0
-0.278750 -0.422117 -0.363317 0 255 0
-0.295121 -0.592436 -0.556148 0 255 0
-0.296783 -0.600261 -0.556147 0 255 0
-0.195619 -0.456145 -0.287317 0 255 0
-0.292526 -0.482575 -0.383317 0 255 0
-0.345834 -0.503959 -0.332094 0 255 0
-0.221092 -0.499803 -0.525317 0 255 0
-0.314570 -0.462692 -0.421317 0 255 0
-0.314639 -0.459472 -0.387317 0 255 0
-0.309978 -0.392988 -0.316573 0 255 0
-0.355155 -0.446771 -0.311317 0 255 0
-0.302192 -0.500652 -0.401317 0 255 0
-0.319237 -0.465405 -0.405317 0 255 0
-0.295331 -0.391415 -0.361317 0 255 0
-0.226934 -0.435176 -0.430996 0 255 0
-0.261431 -0.453178 -0.345317 0 255 0
-0.280810 -0.395099 -0.449317 0 255 0
-0.266428 -0.457451 -0.431756 0 255 0
-0.272949 -0.435619 -0.387317 0 255 0
-0.351408 -0.510952 -0.285833 0 255 0
-0.350795 -0.459966 -0.452761 0 255 0
-0.313004 -0.493805 -0.411317 0 255 0
-0.278507 -0.456557 -0.353317 0 255 0
-0.275145 -0.459979 -0.403317 0 255 0
-0.252688 -0.529891 -0.533317 0 255 0
-0.301888 -0.470361 -0.318500 0 255 0
-0.287968 -0.433733 -0.343317 0 255 0
-0.361205 -0.422365 -0.313317 0 255 0
-0.248517 -0.517475 -0.373317 0 255 0
-0.235421 -0.431327 -0.595317 0 255 0
-0.246194 -0.588523 -0.275317 0 255 0
-0.286233 -0.521767 -0.605317 0 255 0
-0.332358 -0.536759 -0.339317 0 255 0
-0.238778 -0.440837 -0.381317 0 255 0
-0.293974 -0.413895 -0.277317 0 255 0
-0.227330 -0.459628 -0.601317 0 255 0
-0.348934 -0.403110 -0.344927 0 255 0
-0.243661 -0.456157 -0.672243 0 255 0
-0.266057 -0.477977 -0.303317 0 255 0
-0.246280 -0.478092 -0.364930 0 255 0
-0.236245 -0.523163 -0.493317 0 255 0
-0.306878 -0.493837 -0.378063 0 255 0
-0.261537 -0.480983 -0.357317 0 255 0
-0.258222 -0.483732 -0.393317 0 255 0
-0.285646 -0.459501 -0.325317 0 255 0
-0.280483 -0.493313 -0.371317 0 255 0
-0.253344 -0.453606 -0.377317 0 255 0
-0.327443 -0.475153 -0.367675 0 255 0
-0.352098 -0.600771 -0.526540 0 255 0
-0.236886 -0.414659 -0.466408 0 255 0
-0.255100 -0.481111 -0.439317 0 255 0
-0.339247 -0.492212 -0.377317 0 255 0
-0.229436 -0.432600 -0.463317 0 255 0
-0.364583 -0.447875 -0.261317 0 255 0
-0.238672 -0.432681 -0.576345 0 255 0
-0.228572 -0.481361 -0.431317 0 255 0
-0.291647 -0.412565 -0.337317 0 255 0
-0.267194 -0.586104 -0.551872 0 255 0
-0.293185 -0.419796 -0.393317 0 255 0
-0.241474 -0.430041 -0.371317 0 255 0
-0.322200 -0.388346 -0.259317 0 255 0
-0.240673 -0.495641 -0.597317 0 255 0
-0.314920 -0.445100 -0.348385 0 255 0
-0.260643 -0.478329 -0.399317 0 255 0
-0.334018 -0.515709 -0.509317 0 255 0
-0.255305 -0.510933 -0.338954 0 255 0
-0.269880 -0.541021 -0.497317 0 255 0
-0.308513 -0.434193 -0.366292 0 255 0
-0.289485 -0.431251 -0.335317 0 255 0
-0.296280 -0.482459 -0.355317 0 255 0
-0.221948 -0.501666 -0.255317 0 255 0
-0.234412 -0.494927 -0.565317 0 255 0
-0.307369 -0.534626 -0.530140 0 255 0
-0.308059 -0.480157 -0.319317 0 255 0
-0.313734 -0.463754 -0.435317 0 255 0
-0.314602 -0.462845 -0.413317 0 255 0
-0.452947 -0.603872 -0.542718 0 255 0
-0.435217 -0.597417 -0.542045 0 255 0
-0.349592 -0.512019 -0.307317 0 255 0
-0.258294 -0.401929 -0.465317 0 255 0
-0.274487 -0.486409 -0.277317 0 255 0
-0.269633 -0.462905 -0.408032 0 255 0
-0.252479 -0.507253 -0.405317 0 255 0
-0.315155 -0.407726 -0.437317 0 255 0
-0.263307 -0.417221 -0.623317 0 255 0
-0.240315 -0.436421 -0.391317 0 255 0
-0.268813 -0.507143 -0.635317 0 255 0
-0.338211 -0.477715 -0.417317 0 255 0
-0.312814 -0.444810 -0.327317 0 255 0
-0.268220 -0.440713 -0.349317 0 255 0
-0.219308 -0.476258 -0.405317 0 255 0
-0.216860 -0.445496 -0.515665 0 255 0
-0.368113 -0.403123 -0.293317 0 255 0
-0.269960 -0.481237 -0.421317 0 255 0
-0.263598 -0.434519 -0.387317 0 255 0
-0.259910 -0.426122 -0.387317 0 255 0
-0.352535 -0.458531 -0.305317 0 255 0
-0.297924 -0.538286 -0.485317 0 255 0
-0.308185 -0.461508 -0.343317 0 255 0
-0.271343 -0.442094 -0.448268 0 255 0
-0.296031 -0.442980 -0.381317 0 255 0
-0.358641 -0.448779 -0.301317 0 255 0
-0.241818 -0.418625 -0.517317 0 255 0
-0.390876 -0.465759 -0.266611 0 255 0
-0.285476 -0.460485 -0.387317 0 255 0
-0.277997 -0.521501 -0.599317 0 255 0
-0.290755 -0.458415 -0.263317 0 255 0
-0.251144 -0.404786 -0.375317 0 255 0
-0.267602 -0.491831 -0.409317 0 255 0
-0.297664 -0.499885 -0.415317 0 255 0
-0.292605 -0.397835 -0.443317 0 255 0
-0.301197 -0.462329 -0.441317 0 255 0
-0.192183 -0.415982 -0.359614 0 255 0
-0.282032 -0.482760 -0.317616 0 255 0
-0.298856 -0.483274 -0.403317 0 255 0
-0.344170 -0.496133 -0.570619 0 255 0
-0.296265 -0.492003 -0.397841 0 255 0
-0.345381 -0.482591 -0.441317 0 255 0
-0.311784 -0.599117 -0.549317 0 255 0
-0.266943 -0.507973 -0.415317 0 255 0
-0.283925 -0.459867 -0.303317 0 255 0
-0.374649 -0.395600 -0.293317 0 255 0
-0.240849 -0.404449 -0.355317 0 255 0
-0.252687 -0.488998 -0.658401 0 255 0
-0.245595 -0.529354 -0.447317 0 255 0
-0.339021 -0.452669 -0.359317 0 255 0
-0.322504 -0.500017 -0.409317 0 255 0
-0.233465 -0.417800 -0.445317 0 255 0
-0.213609 -0.468679 -0.505367 0 255 0
-0.225054 -0.474425 -0.438317 0 255 0
-0.255670 -0.453724 -0.356951 0 255 0
-0.269236 -0.399604 -0.331317 0 255 0
-0.329403 -0.522860 -0.479317 0 255 0
-0.335490 -0.508202 -0.555317 0 255 0
-0.279111 -0.449786 -0.361317 0 255 0
-0.226811 -0.424979 -0.394336 0 255 0
-0.259150 -0.524428 -0.527317 0 255 0
-0.329362 -0.436090 -0.367317 0 255 0
-0.240534 -0.489536 -0.612426 0 255 0
-0.240539 -0.412604 -0.403317 0 255 0
-0.302172 -0.510176 -0.655317 0 255 0
-0.226425 -0.442400 -0.489317 0 255 0
-0.225324 -0.451876 -0.457317 0 255 0
-0.250381 -0.483354 -0.659317 0 255 0
-0.290968 -0.460414 -0.427317 0 255 0
-0.244773 -0.519102 -0.573317 0 255 0
-0.336637 -0.489556 -0.383147 0 255 0
-0.274765 -0.400473 -0.335991 0 255 0
-0.265543 -0.443665 -0.443317 0 255 0
-0.283619 -0.451753 -0.284764 0 255 0
-0.227670 -0.453422 -0.555317 0 255 0
-0.305989 -0.459266 -0.373317 0 255 0
-0.236825 -0.587527 -0.561317 0 255 0
-0.329313 -0.426235 -0.409317 0 255 0
-0.239582 -0.427343 -0.557317 0 255 0
-0.219057 -0.467521 -0.551317 0 255 0
-0.253056 -0.519590 -0.522304 0 255 0
-0.247064 -0.510640 -0.610754 0 255 0
-0.314391 -0.596519 -0.534511 0 255 0
-0.232220 -0.503572 -0.493317 0 255 0
-0.278121 -0.531700 -0.487317 0 255 0
-0.261174 -0.509685 -0.358836 0 255 0
-0.294485 -0.422862 -0.265317 0 255 0
-0.235641 -0.428043 -0.435317 0 255 0
-0.222606 -0.434051 -0.441785 0 255 0
-0.336786 -0.494822 -0.398262 0 255 0
-0.305923 -0.479727 -0.394378 0 255 0
-0.283988 -0.482345 -0.388312 0 255 0
-0.317657 -0.464965 -0.335317 0 255 0
-0.358449 -0.476741 -0.438271 0 255 0
-0.316736 -0.454937 -0.297317 0 255 0
-0.251029 -0.433104 -0.617317 0 255 0
-0.277720 -0.433620 -0.277317 0 255 0
-0.336749 -0.518935 -0.519317 0 255 0
-0.415100 -0.597604 -0.543317 0 255 0
-0.219799 -0.507420 -0.311317 0 255 0
-0.261606 -0.483013 -0.443317 0 255 0
-0.312098 -0.447744 -0.457317 0 255 0
-0.282079 -0.454125 -0.446510 0 255 0
-0.222672 -0.497423 -0.537317 0 255 0
-0.314186 -0.408451 -0.351317 0 255 0
-0.225911 -0.603509 -0.655317 0 255 0
-0.278893 -0.434355 -0.367317 0 255 0
-0.295848 -0.467555 -0.367317 0 255 0
-0.310396 -0.529627 -0.569317 0 255 0
-0.305829 -0.536998 -0.351942 0 255 0
-0.288855 -0.495623 -0.400461 0 255 0
-0.208095 -0.423500 -0.373317 0 255 0
-0.329597 -0.523767 -0.436686 0 255 0
-0.338557 -0.469723 -0.341317 0 255 0
-0.222401 -0.466810 -0.499317 0 255 0
-0.255246 -0.404840 -0.309317 0 255 0
-0.309911 -0.517728 -0.354470 0 255 0
-0.314555 -0.501096 -0.419317 0 255 0
-0.234723 -0.433341 -0.583317 0 255 0
-0.215200 -0.458117 -0.503317 0 255 0
-0.240829 -0.458803 -0.667317 0 255 0
-0.302613 -0.488609 -0.415317 0 255 0
-0.280035 -0.540705 -0.445317 0 255 0
-0.290462 -0.419628 -0.269317 0 255 0
-0.329031 -0.468681 -0.443317 0 255 0
-0.322310 -0.508729 -0.403317 0 255 0
-0.287391 -0.488733 -0.333317 0 255 0
-0.347267 -0.493431 -0.435317 0 255 0
-0.229505 -0.485747 -0.369566 0 255 0
-0.279717 -0.530280 -0.585317 0 255 0
-0.222333 -0.501584 -0.455317 0 255 0
-0.240304 -0.430738 -0.603317 0 255 0
-0.276795 -0.506224 -0.261317 0 255 0
-0.247181 -0.520813 -0.367317 0 255 0
-0.213363 -0.448284 -0.388396 0 255 0
-0.351285 -0.474174 -0.315317 0 255 0
-0.288257 -0.483189 -0.341317 0 255 0
-0.413104 -0.454900 -0.284308 0 255 0
-0.353578 -0.473056 -0.323317 0 255 0
-0.330934 -0.525528 -0.463317 0 255 0
-0.345371 -0.453687 -0.453317 0 255 0
-0.225589 -0.448083 -0.413317 0 255 0
-0.232068 -0.454532 -0.569317 0 255 0
-0.233682 -0.409206 -0.394596 0 255 0
-0.332476 -0.518074 -0.463317 0 255 0
-0.305520 -0.429732 -0.415317 0 255 0
-0.282894 -0.419192 -0.345317 0 255 0
-0.261901 -0.407297 -0.320074 0 255 0
-0.352830 -0.402207 -0.335317 0 255 0
-0.247112 -0.482004 -0.354401 0 255 0
-0.321819 -0.496795 -0.419195 0 255 0
-0.236176 -0.502731 -0.521317 0 255 0
-0.295626 -0.421664 -0.257317 0 255 0
-0.269660 -0.530373 -0.580654 0 255 0
-0.278601 -0.447379 -0.321317 0 255 0
-0.287948 -0.452877 -0.412275 0 255 0
-0.239799 -0.510139 -0.491317 0 255 0
-0.236866 -0.510763 -0.432541 0 255 0
-0.415532 -0.591378 -0.549435 0 255 0
-0.300715 -0.503325 -0.386191 0 255 0
-0.348676 -0.488474 -0.449317 0 255 0
-0.250004 -0.481390 -0.649317 0 255 0
-0.259614 -0.454811 -0.403317 0 255 0
-0.323189 -0.502638 -0.387317 0 255 0
-0.330028 -0.516177 -0.579317 0 255 0
-0.246847 -0.557714 -0.312958 0 255 0
-0.244273 -0.584083 -0.617317 0 255 0
-0.345062 -0.423373 -0.437317 0 255 0
-0.243435 -0.437803 -0.637317 0 255 0
-0.315641 -0.515829 -0.443317 0 255 0
-0.264675 -0.449200 -0.341317 0 255 0
-0.240364 -0.507975 -0.542317 0 255 0
-0.253265 -0.510959 -0.325317 0 255 0
-0.569218 -0.910396 -0.608287 255 125 0
-0.586091 -0.633855 -0.655317 255 125 0
-0.506105 -0.768415 -0.635317 255 125 0
-0.636158 -0.787799 -0.579317 255 125 0
-0.507835 -0.862103 -0.667969 255 125 0
-0.547009 -0.825151 -0.567120 255 125 0
-0.631111 -0.903374 -0.682276 255 125 0
-0.583971 -0.720076 -0.617317 255 125 0
-0.653673 -0.874847 -0.599317 255 125 0
-0.527539 -0.690251 -0.669317 255 125 0
-0.556771 -0.919176 -0.681526 255 125 0
-0.507401 -0.876508 -0.599317 255 125 0
-0.547962 -0.763608 -0.587317 255 125 0
-0.596115 -0.863785 -0.575794 255 125 0
-0.500227 -0.816692 -0.602623 255 125 0
-0.623530 -0.915811 -0.625317 255 125 0
-0.525354 -0.907451 -0.639317 255 125 0
-0.608973 -0.679076 -0.639317 255 125 0
-0.532351 -0.721943 -0.627317 255 125 0
-0.586597 -0.790155 -0.566588 255 125 0
-0.498921 -0.814925 -0.653317 255 125 0
-0.637367 -0.836615 -0.572455 255 125 0
-0.560416 -0.679173 -0.635317 255 125 0
-0.549926 -0.871558 -0.579317 255 125 0
-0.605600 -0.754502 -0.591317 255 125 0
-0.585349 -0.928571 -0.647317 255 125 0
-0.546685 -0.650473 -0.663317 255 125 0
-0.608149 -0.901160 -0.589317 255 125 0
-0.496066 -0.850292 -0.629317 255 125 0
-0.526246 -0.794804 -0.579686 255 125 0
-0.600368 -0.826077 -0.566464 255 125 0
-0.529716 -0.892212 -0.677317 255 125 0
-0.594942 -0.915984 -0.683317 255 125 0
-0.516818 -0.843836 -0.581317 255 125 0
-0.533050 -0.903771 -0.601165 255 125 0
-0.666451 -0.834522 -0.593317 255 125 0
-0.647286 -0.897891 -0.643317 255 125 0
-0.525447 -0.752570 -0.611317 255 125 0
-0.554561 -0.735624 -0.605801 255 125 0
-0.554394 -0.923770 -0.635317 255 125 0
-0.505710 -0.880957 -0.636980 255 125 0
-0.515775 -0.788851 -0.611317 255 125 0
-0.614654 -0.917096 -0.657317 255 125 0
-0.627954 -0.869286 -0.579706 255 125 0
-0.577213 -0.890294 -0.584537 255 125 0
-0.571342 -0.843438 -0.577317 255 125 0
-0.614489 -0.714707 -0.623317 255 125 0
-0.595016 -0.925955 -0.617317 255 125 0
-0.555591 -0.788567 -0.569859 255 125 0
-0.578821 -0.763183 -0.579129 255 125 0
-0.583877 -0.661918 -0.644170 255 125 0
-0.633776 -0.896674 -0.604071 255 125 0
-0.519642 -0.714421 -0.653317 255 125 0
-0.558145 -0.706237 -0.623317 255 125 0
-0.585586 -0.692225 -0.627317 255 125 0
-0.573565 -0.815417 -0.564066 255 125 0
-0.535522 -0.694158 -0.641317 255 125 0
-0.613400 -0.800815 -0.568431 255 125 0
-0.581936 -0.739368 -0.595317 255 125 0
-0.497175 -0.803028 -0.627317 255 125 0
-0.546036 -0.907145 -0.658355 255 125 0
