ply
format ascii 1.0
element vertex 1304
property float x
property float y
property float z
property uchar red
property uchar green
property uchar blue
end_header
0.379355 -0.751494 -0.245906 5 3 4
0.451288 -0.609027 -0.240720 27 29 31
0.449002 -0.580572 -0.237862 29 29 32
0.463078 -0.637740 -0.248347 29 30 31
0.468824 -0.605756 -0.244753 26 28 32
0.143949 -0.124982 -0.666025 15 17 14
0.578102 -1.046000 -0.673970 12 10 12
0.343687 -0.119753 -0.660189 11 12 10
0.317934 -0.106383 -0.662325 18 16 9
0.414366 -0.353648 -0.665661 18 11 9
0.390489 -0.974328 -0.230177 7 6 4
0.415716 -0.977625 -0.235659 10 5 5
0.436790 -0.970845 -0.236408 7 5 4
0.699957 -0.930051 -0.676665 17 16 20
0.612309 -0.770650 -0.673053 17 18 16
0.251639 -0.411409 -0.661800 10 7 6
0.341835 -0.089216 -0.242586 20 14 13
0.507869 -0.853488 -0.256658 3 5 2
0.482464 -0.851600 -0.254722 5 4 4
0.630656 -1.146064 -0.399344 19 17 14
0.632226 -1.135561 -0.411871 13 15 15
0.630102 -0.655406 -0.233192 13 11 9
0.453650 -0.941248 -0.324525 7 10 15
0.470512 -0.931046 -0.318539 22 22 18
0.368984 -0.227392 -0.293990 7 7 6
0.627935 -1.116178 -0.607724 13 13 13
0.617488 -1.098269 -0.591940 14 14 15
-0.186141 -0.769357 -0.649757 5 6 5
0.853035 -0.597441 -0.677525 15 21 27
0.844391 -0.607591 -0.678652 15 20 26
0.197669 -0.789357 -0.665230 7 6 6
0.226368 -0.765770 -0.664320 7 6 6
-0.068040 -0.402793 -0.660700 6 6 6
-0.046294 -0.409687 -0.663023 6 6 6
-0.053101 -0.399415 -0.662062 6 6 6
0.518920 -0.540019 -0.247683 10 9 7
0.506593 -0.534346 -0.242198 9 8 5
0.494654 -0.523789 -0.247543 10 10 5
0.559872 -0.359957 -0.666545 15 14 13
0.497926 -0.526139 -0.259108 11 10 5
0.582718 -0.362865 -0.666912 13 11 17
0.521035 -0.540806 -0.257587 10 8 6
0.576522 -0.379888 -0.668364 15 19 24
-0.060842 -0.262168 -0.654133 6 6 6
-0.044852 -0.279708 -0.641732 6 6 6
0.393415 -0.929747 -0.231702 6 5 3
0.383499 -0.894671 -0.235819 6 4 2
0.142569 -0.078695 -0.252509 11 12 11
0.166206 -0.092138 -0.258928 6 7 7
0.170826 -0.071747 -0.236800 12 14 11
0.184646 -0.094265 -0.244819 13 15 15
0.183294 -0.100523 -0.252071 12 13 12
0.166094 -0.087280 -0.246381 12 13 14
0.159883 -0.077766 -0.241966 14 15 16
0.107601 0.037801 -0.665912 11 11 8
0.124804 0.020490 -0.666856 8 10 8
0.240138 -0.883820 -0.666896 16 14 9
0.215643 -0.911749 -0.663374 22 18 15
0.060669 -0.146195 -0.661892 7 8 8
0.045110 -0.124080 -0.661927 6 7 6
0.019244 -0.138319 -0.660599 7 6 7
0.404466 -0.761287 -0.666640 7 7 5
0.440505 -0.199424 -0.297905 6 7 7
0.426346 -0.189567 -0.304512 5 5 7
0.457702 -0.183062 -0.325995 6 9 6
0.227805 -0.666524 -0.213218 12 11 9
0.236741 -0.659152 -0.213254 8 9 5
0.600303 -0.195167 -0.264185 9 7 6
0.613668 -0.183205 -0.266724 8 5 8
0.593261 -0.198185 -0.269538 7 5 7
0.344671 -0.437040 -0.666566 7 7 6
0.323704 -0.475260 -0.662367 7 7 7
0.321095 -0.449017 -0.663785 6 6 6
0.277699 -0.138654 -0.660405 12 12 8
-0.045792 -0.498027 -0.661312 5 5 5
-0.039976 -0.463870 -0.659580 5 5 5
-0.067909 -0.494886 -0.656644 4 4 4
0.310120 -0.223611 -0.265131 8 7 8
0.301213 -0.211990 -0.271923 5 6 7
0.497089 -0.265655 -0.313239 77 77 73
0.485629 -0.257190 -0.307996 26 25 25
0.475263 -0.256018 -0.302981 34 34 31
0.487499 -0.266615 -0.297149 26 25 25
0.313968 -0.679548 -0.664468 6 6 4
0.327148 -0.654085 -0.663877 7 7 5
-0.131821 -0.572725 -0.654705 5 5 7
-0.109970 -0.627654 -0.653046 4 5 7
-0.118994 -0.592235 -0.655971 4 5 7
0.188667 -0.740025 -0.219073 47 47 48
0.187566 -0.757582 -0.220603 7 7 5
0.699857 -0.754272 -0.673570 18 16 22
0.708881 -0.777438 -0.674890 12 14 14
0.630834 -1.115324 -0.570606 16 13 16
0.628326 -1.108503 -0.569690 17 15 14
0.629377 -1.141495 -0.558905 15 13 14
0.631092 -1.123734 -0.559448 15 12 13
0.647957 -0.849827 -0.675941 13 15 17
0.219055 -0.216750 -0.663523 11 10 6
0.615306 -0.925706 -0.676693 15 13 14
0.585340 -0.947599 -0.674072 14 14 13
0.595271 -0.914949 -0.674549 14 17 13
-0.078460 -0.862216 -0.649315 8 8 6
-0.083513 -0.871380 -0.648375 8 7 5
0.716151 -0.406058 -0.670965 14 13 13
0.720485 -0.358559 -0.670284 13 13 13
0.691213 -0.396973 -0.671813 13 12 9
0.319793 -0.764083 -0.668023 5 5 5
-0.026373 -0.286519 -0.637634 6 6 6
-0.054753 -0.271938 -0.643720 5 5 5
-0.035033 -0.274093 -0.646103 6 6 6
-0.042093 -0.285161 -0.645616 6 6 6
0.199703 -0.693847 -0.219131 9 11 6
0.199677 -0.711557 -0.215866 9 7 8
0.191334 -0.723967 -0.218078 7 7 4
0.210832 -0.681715 -0.220096 9 10 6
0.212029 -0.717823 -0.220233 14 13 10
0.172886 -0.099360 -0.270466 6 6 6
0.159956 -0.099387 -0.270706 8 9 8
0.166675 -0.092973 -0.266283 15 14 16
0.157072 -0.095552 -0.270781 14 14 15
0.080783 -0.366768 -0.665265 10 10 9
0.094374 -0.371137 -0.666624 11 12 10
0.151935 -0.608009 -0.660370 6 6 6
0.137748 -0.593655 -0.658457 6 6 6
0.332765 -0.949313 -0.219671 7 5 4
0.356768 -0.951620 -0.222651 5 4 4
0.412596 -0.686833 -0.665082 8 8 8
0.397084 -0.636038 -0.664274 7 7 5
0.399777 -0.653931 -0.663999 7 7 6
0.373415 -0.645893 -0.662953 6 5 3
0.695595 -1.076176 -0.678248 16 21 26
0.081549 -0.007795 -0.228096 11 10 8
0.064109 -0.000994 -0.221965 13 12 10
0.059788 -0.016975 -0.232142 6 3 6
0.054382 -0.020131 -0.213945 4 4 5
0.040704 -0.013511 -0.221071 4 3 5
0.300306 -0.842363 -0.669170 7 6 5
0.311690 -0.863830 -0.667456 7 4 3
0.330912 -0.881658 -0.667992 10 8 6
0.042894 -0.039085 -0.662397 8 9 7
0.031995 -0.051542 -0.663563 5 6 5
0.440974 -0.274620 -0.669866 24 19 15
0.429118 -0.799892 -0.668781 8 7 5
0.456529 -0.799363 -0.668696 8 7 4
0.171414 -0.351467 -0.661739 12 11 7
0.158052 -0.342068 -0.664387 11 11 6
-0.019035 -0.158885 -0.300236 11 12 12
-0.006397 -0.131495 -0.302774 11 11 11
-0.016074 -0.144439 -0.291900 12 11 11
-0.040394 -0.155438 -0.297916 12 12 15
0.150601 -0.022697 -0.664717 9 12 12
0.159026 -0.004088 -0.667004 9 12 14
0.173532 -0.015808 -0.665031 17 20 22
0.159873 -0.999774 -0.657645 21 16 16
0.491153 -0.437927 -0.669374 28 19 12
0.477950 -0.405324 -0.669353 29 18 17
0.017532 -0.417508 -0.667809 5 6 4
0.022353 -0.390455 -0.665619 6 6 5
0.000926 -0.389950 -0.668349 9 7 7
0.525822 -0.648346 -0.667960 14 13 13
0.495821 -0.664625 -0.666636 11 11 11
0.794304 -0.222153 -0.674700 15 14 12
0.785142 -0.200096 -0.676042 15 15 13
0.757148 -0.221551 -0.677359 16 15 14
0.742303 -0.617555 -0.675099 16 17 18
0.736252 -0.657292 -0.674669 15 17 20
0.709072 -0.645266 -0.674284 18 17 26
0.725908 -0.572415 -0.673054 20 16 20
0.735442 -0.590223 -0.674552 17 18 15
0.617634 -0.140674 -0.239046 18 11 8
0.640991 -0.143970 -0.247901 14 12 9
0.656628 -0.133064 -0.232820 44 43 42
0.618663 -0.136989 -0.266114 13 8 8
0.635628 -0.121120 -0.254498 15 12 8
0.235453 0.030250 -0.660538 26 30 36
0.737626 -0.309164 -0.675132 15 13 14
0.719754 -0.302325 -0.672924 15 13 14
0.721611 -0.270676 -0.672184 15 12 14
0.660532 -1.164139 -0.676733 16 19 23
0.644254 -1.172615 -0.674976 17 19 20
0.648145 -1.140203 -0.676327 19 19 23
0.237001 -0.296443 -0.663924 13 11 6
0.066982 -0.263260 -0.666376 89 94 97
0.071096 -0.272257 -0.669239 160 166 169
0.059212 -0.227904 -0.661159 65 81 94
0.062136 -0.247453 -0.665367 81 91 104
0.081824 -0.257512 -0.665202 36 41 40
0.003591 -0.855442 -0.656055 14 15 13
-0.001214 -0.830744 -0.657029 4 6 5
-0.022177 -0.835575 -0.655028 4 6 5
-0.021299 -0.864403 -0.649305 14 15 14
0.834803 -0.632368 -0.678860 18 22 31
0.841316 -0.669605 -0.679224 19 25 28
0.443547 -0.134072 -0.669711 24 21 27
0.360814 -0.597014 -0.661627 7 7 7
0.351932 -0.577123 -0.662080 7 7 6
0.017566 -0.430926 -0.669409 5 6 2
0.004066 -0.420836 -0.670127 5 6 4
0.002319 -0.411678 -0.667987 5 6 4
-0.004061 -0.436271 -0.666605 5 5 5
-0.009256 -0.410925 -0.665780 7 8 6
-0.014260 -0.426339 -0.664297 6 6 6
0.637936 -0.831315 -0.219974 15 7 5
0.635030 -0.854153 -0.223857 15 7 6
0.354847 -0.208407 -0.291735 5 6 7
0.370049 -0.221186 -0.288859 10 13 12
0.365623 -0.211890 -0.290605 12 14 12
0.349036 -0.225794 -0.267809 5 6 6
0.365821 -0.225967 -0.273744 6 10 7
0.351460 -0.216475 -0.278008 5 6 7
0.772314 -0.126587 -0.675737 15 15 13
0.749386 -0.114789 -0.674621 15 15 13
0.718478 -0.711835 -0.675685 17 17 19
0.615481 -0.674162 -0.671021 15 15 16
0.599087 -0.645316 -0.672069 14 13 14
0.151698 0.033218 -0.665737 8 8 9
0.161287 0.012641 -0.666575 8 10 10
0.132728 0.039377 -0.666764 8 10 8
0.279295 -0.268854 -0.662815 13 11 6
0.284444 -0.319774 -0.662807 13 11 7
0.582529 -0.574841 -0.251200 62 67 77
0.592642 -0.574058 -0.257564 85 90 96
0.595096 -0.591353 -0.262617 12 11 10
0.598208 -0.580543 -0.254467 16 11 10
-0.168512 -0.686802 -0.650715 5 6 5
-0.174753 -0.660162 -0.649944 5 6 4
-0.149597 -0.671346 -0.653668 5 6 5
0.153785 -0.884629 -0.659864 13 10 7
0.166236 -0.851674 -0.663907 9 9 7
-0.231755 -0.793474 -0.648417 4 5 3
0.513871 -0.395199 -0.667200 12 10 9
0.499242 -0.376199 -0.666626 23 19 16
0.885874 -0.489868 -0.677898 21 21 29
0.530476 -0.154599 -0.670810 12 15 16
0.568831 -1.070403 -0.683132 10 12 10
0.564797 -1.046945 -0.680357 11 11 9
0.535006 -1.056834 -0.682109 14 11 10
0.414133 -0.956342 -0.231169 6 5 3
0.431368 -0.919209 -0.238588 4 5 3
0.423726 -0.946427 -0.234583 5 5 3
-0.202004 -0.740762 -0.649158 5 6 5
-0.163970 -0.749283 -0.647613 5 6 5
-0.005810 -0.100596 -0.310725 12 13 12
0.003274 -0.107578 -0.309464 11 12 12
-0.006204 -0.126645 -0.317321 6 5 8
-0.001698 -0.117370 -0.296731 9 11 10
-0.012999 -0.098154 -0.297010 11 12 9
-0.003448 -0.104932 -0.302754 11 12 9
-0.000669 -0.117128 -0.304227 10 11 12
0.000578 -0.141203 -0.310097 6 5 8
0.269824 -0.702766 -0.664776 7 7 7
0.270003 -0.728011 -0.665033 7 7 7
0.631508 -1.130768 -0.464788 15 15 12
0.632038 -1.115660 -0.486105 16 15 14
0.630293 -1.107686 -0.474193 21 18 12
0.632659 -1.115470 -0.453720 16 16 14
0.619517 -1.096363 -0.446523 21 18 13
0.563890 -0.863772 -0.673782 16 11 11
0.574326 -0.862770 -0.672669 16 12 12
0.264262 -0.957542 -0.214639 12 12 11
0.231735 -0.974294 -0.225616 6 6 5
0.217901 -0.969082 -0.223786 6 6 4
0.244925 -0.975493 -0.220286 5 6 4
0.232638 -0.968043 -0.220007 4 5 7
0.644654 -0.159713 -0.213263 14 12 11
0.628878 -0.142846 -0.219295 11 10 9
0.617644 -0.131139 -0.230389 17 12 8
0.852910 -0.213022 -0.676537 14 14 11
0.176174 -0.918099 -0.229456 19 17 14
0.185933 -0.923125 -0.223070 18 16 13
0.186213 -0.900338 -0.221413 18 15 11
0.332561 -0.771848 -0.670037 8 5 6
0.522145 -0.182133 -0.669262 37 36 42
0.450852 -0.786413 -0.253398 5 5 3
0.475900 -0.786105 -0.257276 5 4 3
0.472302 -0.762780 -0.256313 4 5 2
0.597632 -0.158541 -0.254662 17 11 9
0.590838 -0.124002 -0.253175 18 12 9
0.589766 -0.140768 -0.255740 15 13 9
0.565302 -0.579299 -0.670248 25 20 16
0.554340 -0.591327 -0.667101 26 22 18
0.538059 -0.556606 -0.670508 25 18 15
0.571450 -0.888750 -0.673725 12 13 16
0.576086 -0.904873 -0.672980 13 14 16
0.593771 -0.871077 -0.673558 14 13 14
0.283632 -0.082373 -0.665877 10 9 4
-0.151748 -0.572944 -0.654856 5 6 5
-0.160683 -0.602625 -0.651243 4 5 5
-0.015447 -0.087185 -0.312610 10 13 12
-0.012017 -0.083932 -0.294613 10 12 11
-0.005375 -0.079176 -0.307568 12 13 13
-0.012128 -0.094527 -0.303223 10 11 11
0.930407 -0.258780 -0.681435 16 11 15
0.906341 -0.257885 -0.680198 16 12 16
0.569260 -0.746083 -0.272477 14 9 5
0.578598 -0.770368 -0.261986 14 9 7
0.580910 -0.742420 -0.263256 11 9 7
0.571387 -0.772943 -0.272150 12 9 4
0.521066 -0.145370 -0.255337 20 15 10
0.858033 -0.491856 -0.678748 21 20 26
0.858550 -0.538679 -0.677675 16 20 23
-0.077554 -0.354655 -0.655546 6 6 6
-0.077305 -0.336204 -0.657434 7 7 7
-0.056691 -0.327170 -0.656740 6 6 6
-0.072885 -0.318511 -0.654039 6 6 6
0.146723 -0.071211 -0.244834 7 9 11
0.156155 -0.073469 -0.235567 11 13 12
-0.005904 -0.233285 -0.663546 47 52 57
0.002484 -0.222604 -0.660363 183 194 201
0.572097 -0.161037 -0.257670 19 14 12
0.585634 -0.181938 -0.258848 16 11 10
0.399729 -0.880731 -0.670999 7 8 4
0.416726 -0.852232 -0.673279 7 7 4
0.449987 -0.857080 -0.673083 8 8 4
0.422246 -0.866257 -0.671934 8 6 3
0.358146 -0.768647 -0.668655 7 7 7
0.575352 -0.199797 -0.260959 9 6 8
0.552605 -0.202704 -0.258093 21 15 11
0.437167 -0.426738 -0.667125 9 9 8
0.458388 -0.440307 -0.666680 11 11 6
0.794077 -0.377552 -0.671737 14 13 13
0.789735 -0.345956 -0.673163 15 14 12
0.773848 -0.366834 -0.672479 14 13 13
0.773915 -0.340631 -0.672482 14 13 14
0.344367 -0.927803 -0.671192 38 41 37
0.323522 -0.928970 -0.671463 17 13 9
0.181466 -0.972239 -0.663602 11 10 5
0.148385 -0.976363 -0.658362 14 11 8
0.171881 -0.986816 -0.659255 11 11 8
0.601802 -0.817742 -0.674746 15 14 17
0.601872 -0.856778 -0.674213 14 14 12
0.625207 -0.832750 -0.675135 15 14 19
0.268448 -0.746659 -0.229336 5 3 4
0.033689 -0.064446 -0.295067 9 13 11
0.431096 -0.109879 -0.668285 20 20 18
0.418375 -0.061997 -0.667732 21 21 16
0.322623 -0.534885 -0.662511 6 6 5
0.354987 -0.711565 -0.666371 7 7 6
0.375090 -0.709197 -0.666133 7 6 7
0.137746 -0.685606 -0.660098 7 6 6
0.385685 -0.499317 -0.664275 7 8 7
0.452653 -0.507629 -0.244425 8 6 4
0.468524 -0.517081 -0.242170 8 7 5
0.453008 -0.516707 -0.262409 18 15 16
0.469328 -0.511845 -0.255623 19 17 16
0.370836 -0.114710 -0.664948 15 16 12
0.377767 -0.145539 -0.663606 13 13 8
0.362516 -0.130835 -0.662493 15 13 6
0.672982 -0.660544 -0.675288 16 15 15
0.643019 -0.683071 -0.673795 20 16 20
0.666167 -0.684952 -0.673605 19 16 18
0.518162 -0.753035 -0.260089 5 5 3
0.547154 -0.776778 -0.259135 21 16 13
0.536916 -0.790996 -0.260030 18 10 9
0.749565 -0.802975 -0.675958 19 19 25
0.627982 -0.738867 -0.236580 11 8 4
0.627270 -0.714095 -0.240045 10 8 4
0.638013 -0.713659 -0.226958 10 8 5
0.533469 -0.047216 -0.260784 7 5 4
0.408447 -0.537235 -0.211651 6 4 5
0.685613 -0.127586 -0.671583 15 13 12
0.714428 -0.153329 -0.673294 14 13 16
0.705882 -0.160238 -0.672416 14 13 13
0.547516 -0.258145 -0.666816 38 39 49
0.556649 -0.268332 -0.666654 46 50 60
0.808729 -0.584294 -0.677032 14 19 25
0.064117 -0.491699 -0.651094 6 6 6
0.080745 -0.496422 -0.650404 6 5 7
0.445031 -0.767685 -0.253088 4 4 2
0.406473 -0.757209 -0.249458 4 4 2
0.196225 -0.343525 -0.663090 13 10 7
0.209552 -0.327180 -0.662581 14 11 6
0.279206 -1.024485 -0.667722 16 14 10
0.259474 -0.984080 -0.667579 10 12 8
0.249772 -1.027641 -0.666256 16 15 9
0.251171 -1.003501 -0.666395 17 15 12
0.372972 -0.970522 -0.227152 6 5 3
0.342816 -0.972441 -0.222724 7 5 3
0.336957 -0.982358 -0.229391 6 6 5
0.627572 -1.158148 -0.637687 18 21 21
0.626836 -1.125668 -0.637249 13 18 15
0.628503 -1.146232 -0.621797 19 21 20
0.533001 -0.994939 -0.675815 13 13 9
0.547099 -1.008747 -0.675492 13 10 9
0.121127 -0.152861 -0.665752 12 22 29
0.353369 -0.242719 -0.250352 6 5 6
0.340211 -0.241693 -0.233462 5 5 5
0.346071 -0.245626 -0.238905 6 6 8
0.019033 -0.792636 -0.654564 5 5 3
0.009188 -0.774109 -0.653818 5 5 5
-0.000364 -0.787454 -0.652109 5 5 4
0.555126 -0.885611 -0.283978 16 15 12
0.587751 -0.886124 -0.267323 33 33 30
0.591040 -0.902204 -0.264928 48 48 46
0.804704 -0.514847 -0.675232 17 20 23
0.524569 -0.212866 -0.251424 15 12 10
0.836226 -0.511210 -0.677276 18 19 21
0.523904 -0.224197 -0.259832 27 18 13
0.515155 -0.227224 -0.252152 26 18 13
0.539830 -0.214758 -0.258292 20 14 9
0.404478 -0.870324 -0.672065 7 7 5
0.386061 -0.851242 -0.671928 7 7 5
0.675494 -0.809152 -0.674243 15 15 17
0.652225 -0.795576 -0.673844 15 15 17
0.346614 -0.545784 -0.206144 8 3 6
0.363628 -0.564823 -0.221122 7 4 1
0.343848 -0.562438 -0.217326 8 4 1
0.568980 -0.211262 -0.270031 15 15 16
0.592205 -0.191235 -0.260856 12 10 9
0.576584 -0.206808 -0.264882 16 13 11
0.557812 -0.214709 -0.264088 16 14 16
0.573900 -0.190774 -0.282272 17 12 12
0.623261 -0.132782 -0.209166 12 11 7
0.425974 -0.697635 -0.666226 7 7 7
0.486626 -0.987402 -0.674300 12 12 11
0.468425 -0.999628 -0.674216 10 9 13
-0.080543 -0.543840 -0.652169 5 5 5
-0.066306 -0.524851 -0.651179 4 6 5
0.040253 -0.935929 -0.658485 13 12 8
0.453752 -0.252754 -0.667340 18 20 14
0.452878 -0.230899 -0.669133 22 21 12
0.645565 -0.876479 -0.674796 13 16 14
0.622703 -0.878605 -0.675654 15 15 17
0.940953 -0.415845 -0.680425 16 11 13
0.920499 -0.430483 -0.676308 29 25 21
0.542715 -0.914637 -0.675474 10 11 11
0.521910 -0.923003 -0.670874 10 10 12
0.671693 -0.252440 -0.670648 11 11 10
0.661836 -0.263538 -0.670772 13 13 14
0.660678 -0.234508 -0.672563 27 30 29
0.644105 -0.243975 -0.672238 12 11 13
0.587174 -1.100892 -0.421366 12 14 14
0.603726 -1.097393 -0.410239 17 15 10
0.610775 -1.093507 -0.394645 15 16 10
0.603328 -1.097661 -0.394259 17 15 14
0.208834 -0.525437 -0.654014 6 6 5
-0.056014 -0.283931 -0.643248 6 6 6
0.240275 -1.018336 -0.666326 19 15 14
0.756599 -0.173516 -0.675097 15 16 13
-0.226326 -0.669625 -0.647811 5 6 5
0.367086 -0.001021 -0.668054 25 24 24
0.074700 0.091808 -0.661404 9 9 8
0.097940 0.079041 -0.663958 10 9 8
0.087688 0.106427 -0.661814 9 10 8
0.091872 0.069099 -0.665877 10 9 7
0.543447 -0.621617 -0.255358 7 6 3
0.111150 -0.498230 -0.650746 12 13 14
0.127220 -0.509248 -0.651668 6 6 4
0.133376 -0.523174 -0.655488 12 13 10
0.262812 -0.150510 -0.659447 11 10 4
0.639604 -1.092728 -0.677229 16 17 17
0.891867 -0.184815 -0.679534 15 13 12
0.862006 -0.189108 -0.680888 15 14 13
0.627355 -1.107700 -0.531522 15 14 12
0.644660 -0.507728 -0.666116 13 14 15
0.628375 -0.494762 -0.669012 33 36 41
0.494873 -0.985341 -0.295921 8 7 4
0.487294 -0.951573 -0.307901 17 15 5
0.467284 -0.960696 -0.323103 20 16 12
0.506067 -0.952890 -0.292994 12 5 3
0.270447 -0.398579 -0.661144 12 12 7
0.245633 -0.366278 -0.661880 12 10 7
0.010724 -0.039593 -0.659964 6 6 7
0.010143 -0.074357 -0.660083 3 5 8
0.426847 -0.556793 -0.665257 8 7 5
0.250689 -0.080089 -0.663918 12 12 7
0.261707 -0.058066 -0.664649 12 11 8
0.235571 -0.088701 -0.661741 12 10 7
0.335235 -0.554380 -0.212124 8 4 1
0.335653 -0.567426 -0.214854 7 3 5
0.330995 -0.549505 -0.205907 5 5 5
0.006001 -0.129369 -0.309641 11 11 12
0.010595 -0.120665 -0.306478 11 11 12
0.544191 -0.097554 -0.672424 11 12 13
0.561503 -0.103223 -0.671034 13 13 12
0.547755 -0.074530 -0.672195 13 13 13
-0.214788 -0.855552 -0.648752 6 4 3
-0.206480 -0.827839 -0.650277 6 4 3
0.664648 -1.034094 -0.677143 15 18 24
0.675096 -1.013448 -0.674303 13 10 13
-0.100042 -0.554460 -0.653655 13 10 10
-0.118263 -0.571045 -0.655344 5 7 6
-0.125762 -0.549751 -0.652811 5 4 4
0.097311 -0.210562 -0.669171 8 7 13
0.082636 -0.222737 -0.660491 58 66 77
0.086560 -0.216530 -0.662882 99 113 131
0.106925 -0.234895 -0.662859 40 44 50
0.489637 -0.340019 -0.670635 14 10 9
0.470615 -0.334294 -0.665605 26 21 15
0.549062 -0.077708 -0.261567 17 11 11
0.467952 -0.978882 -0.673398 23 17 13
0.445161 -0.960162 -0.673104 22 19 13
0.432820 -0.977036 -0.671796 24 18 14
0.300455 -0.135193 -0.664794 13 11 8
0.283173 -0.132466 -0.662352 13 10 8
0.277697 -0.108349 -0.662861 13 10 9
0.275456 -0.241718 -0.239390 5 4 8
0.280141 -0.254592 -0.221267 6 5 9
0.275102 -0.224139 -0.255342 5 5 9
0.286158 -0.230539 -0.250391 4 5 7
0.491286 -0.266304 -0.668840 10 11 6
0.509483 -0.283243 -0.667991 12 12 9
0.721065 -0.687336 -0.676185 16 19 19
0.726114 -0.665613 -0.675663 18 18 18
0.618347 -0.896629 -0.241744 12 11 11
0.614235 -0.903664 -0.239570 11 10 9
0.598874 -0.889329 -0.236621 19 9 7
0.614552 -0.882955 -0.245789 16 16 14
0.604781 -0.899009 -0.253754 16 16 14
0.596158 -0.907115 -0.250470 18 16 17
0.596733 -0.907765 -0.256723 18 16 17
0.602234 -0.114670 -0.673900 22 25 28
0.634161 -0.360685 -0.668315 15 14 17
0.600149 -0.353618 -0.663713 35 39 43
0.622226 -0.377229 -0.669145 73 72 91
-0.068947 -0.507688 -0.653049 4 6 5
-0.044191 -0.506788 -0.658586 5 6 5
0.091544 -0.010907 -0.666218 8 10 7
0.560743 -1.103601 -0.622030 14 14 17
0.558332 -1.102159 -0.637180 14 14 14
0.577139 -1.100336 -0.633550 13 15 18
0.576513 -1.108806 -0.619570 15 16 16
0.453996 -0.866905 -0.671470 9 8 6
0.460355 -0.889457 -0.669262 24 20 10
0.451254 -0.882128 -0.668590 21 17 10
0.291090 -0.933842 -0.258698 6 6 6
0.269034 -0.966652 -0.243825 6 6 6
0.298284 -0.947990 -0.252350 6 6 6
0.280868 -0.953899 -0.246928 6 6 6
0.290322 -0.964269 -0.244165 6 6 6
0.131357 -0.069694 -0.212649 9 10 8
0.773004 -0.466471 -0.672507 13 17 20
0.029089 -0.633221 -0.662046 5 6 6
0.024025 -0.646961 -0.661407 5 6 5
0.206141 -0.425727 -0.661084 7 7 5
0.093880 0.005982 -0.230734 12 13 10
0.097548 -0.004191 -0.232682 11 12 10
0.111473 0.003943 -0.239545 7 9 8
0.110812 -0.010586 -0.240479 7 8 7
0.110727 -0.002459 -0.244675 5 9 6
0.229549 -0.193325 -0.222737 15 14 14
0.240811 -0.186923 -0.220501 13 13 14
0.251944 -0.176540 -0.218170 14 14 14
0.234857 -0.170130 -0.221110 13 14 13
0.222362 -0.168878 -0.224904 18 18 16
0.380062 -0.037356 -0.667893 18 16 15
0.778468 -0.496751 -0.675097 17 19 20
0.762932 -0.499584 -0.673795 18 18 22
-0.077384 -0.794230 -0.649590 3 5 4
-0.100042 -0.770990 -0.650108 4 6 5
-0.085743 -0.758033 -0.654539 4 6 5
0.510170 -0.896549 -0.254012 8 3 2
0.231043 -0.884603 -0.218317 5 5 3
0.647621 -0.711655 -0.673389 16 14 20
0.673457 -0.718242 -0.673836 14 14 17
0.516685 -0.909520 -0.672887 9 8 10
0.512663 -0.888546 -0.673544 12 9 12
0.528458 -0.895339 -0.674541 8 9 9
0.499005 -0.897206 -0.673065 10 10 14
0.494031 -0.875398 -0.673995 12 11 14
0.010305 -0.111875 -0.660935 5 6 8
0.635166 -0.148759 -0.673230 22 23 29
-0.146179 -0.476062 -0.649391 5 6 6
-0.144686 -0.455082 -0.654849 5 6 6
0.169838 -0.040578 -0.207858 8 8 6
0.588141 -0.695387 -0.263030 12 9 5
0.591123 -0.679065 -0.265452 11 9 7
0.094025 -0.326619 -0.666837 11 11 12
0.098094 -0.316354 -0.665842 10 10 12
0.079123 -0.324933 -0.666196 10 11 11
0.076185 -0.314027 -0.664248 10 11 11
-0.120947 -0.768439 -0.649884 4 5 5
-0.108889 -0.749742 -0.652998 4 6 5
-0.142651 -0.761103 -0.647952 4 6 5
-0.129596 -0.752014 -0.650405 4 6 5
0.189593 -0.448735 -0.660557 6 6 5
0.167894 -0.457990 -0.659837 6 6 5
0.173052 -0.430643 -0.661227 6 6 5
0.482386 -0.635885 -0.252117 27 29 27
0.479697 -0.658532 -0.251675 14 15 16
0.462941 -0.950039 -0.324866 52 58 59
0.180693 -0.509183 -0.653986 5 6 5
0.178812 -0.479437 -0.657739 6 6 6
0.622184 -1.094399 -0.302412 17 18 19
0.054842 -0.057275 -0.211715 6 7 5
0.041789 -0.058953 -0.203478 4 4 3
0.024975 -0.052356 -0.210160 3 3 2
0.713982 -0.480073 -0.670440 18 17 20
0.728495 -0.459028 -0.670950 16 18 19
0.815303 -0.751545 -0.675896 17 22 26
0.494161 -0.101509 -0.257067 26 15 14
0.507717 -0.138699 -0.256171 19 16 15
0.523449 -0.113346 -0.258041 23 14 16
0.229954 -0.172571 -0.659677 11 12 7
0.202268 -0.176926 -0.662870 11 10 8
0.206157 -0.157332 -0.661921 11 11 8
0.238298 -0.204766 -0.662805 11 11 6
0.517364 -0.215550 -0.295561 23 21 24
0.503708 -0.220818 -0.305344 12 12 10
0.489326 -0.219498 -0.313053 17 17 14
0.504805 -0.205083 -0.307084 66 66 63
0.071432 -0.856488 -0.656589 10 9 6
0.060230 -0.874539 -0.655955 14 15 11
0.081695 -0.890365 -0.657605 11 12 8
0.073700 -0.873091 -0.657838 12 11 10
0.267094 0.024260 -0.665579 25 24 21
0.286166 -0.000580 -0.664472 22 18 18
0.445854 -0.996204 -0.287548 19 19 18
0.586831 -0.710963 -0.671131 14 12 15
0.583343 -0.729602 -0.672546 15 13 14
0.069304 -0.946701 -0.660445 10 9 6
0.104321 -0.945699 -0.661314 10 9 4
0.208807 -0.245344 -0.662218 11 10 6
0.093389 -0.828582 -0.657783 8 5 3
0.102103 -0.802004 -0.658567 6 5 6
0.084069 -0.808694 -0.656938 5 3 4
0.597477 -0.792110 -0.201246 16 10 6
0.596482 -0.783556 -0.205500 16 10 4
0.595668 -0.788198 -0.217239 16 11 2
0.632042 -0.547500 -0.672156 14 14 16
0.371205 -0.564800 -0.662574 7 7 6
0.395882 -0.566802 -0.665243 7 8 5
0.404162 -0.582802 -0.666205 7 7 6
0.515895 -0.959780 -0.259313 9 5 4
0.507188 -0.965418 -0.251954 10 8 4
0.510101 -0.951979 -0.249608 10 6 3
0.385371 -0.408203 -0.666513 15 11 8
0.600994 -0.530488 -0.671356 13 12 15
0.568418 -0.503330 -0.670899 16 15 10
0.334265 -0.761163 -0.239511 5 4 5
0.318905 -0.766484 -0.238061 5 3 3
0.314867 -0.727585 -0.236546 5 4 5
0.508526 -0.201840 -0.669125 28 32 37
0.206195 -0.962224 -0.231128 6 6 5
0.219865 -0.960035 -0.238688 6 6 6
0.356837 -0.547660 -0.210649 8 4 1
0.386636 -0.548405 -0.223738 7 5 2
0.372310 -0.547365 -0.216396 8 5 1
0.372463 -0.548933 -0.204324 7 5 5
0.391681 -0.537004 -0.211649 15 14 17
0.373185 -0.543015 -0.208943 13 11 13
0.375802 -0.534584 -0.211975 14 14 19
0.790455 -0.633323 -0.675748 17 18 24
0.455964 -0.328786 -0.664048 31 22 12
0.473374 -0.312805 -0.669639 25 22 20
0.464268 -0.283268 -0.670478 23 23 16
0.015294 -0.217539 -0.660764 10 10 10
0.026818 -0.192210 -0.656231 5 8 8
0.014010 -0.179938 -0.655118 6 7 8
0.570128 -0.882945 -0.252921 17 9 6
0.542707 -0.880724 -0.256878 20 8 6
0.627818 -1.127939 -0.654728 15 14 18
0.637227 -1.123530 -0.674002 14 15 17
0.633421 -1.124152 -0.670249 15 15 18
0.624439 -1.113329 -0.649231 15 15 18
0.619284 -1.100685 -0.650849 15 15 17
0.627961 -1.115581 -0.662948 15 15 17
0.491272 -0.969072 -0.293377 20 19 19
0.496312 -0.962323 -0.289898 26 24 15
0.492671 -0.978244 -0.289576 13 11 9
0.030979 -0.047871 -0.216064 5 5 5
0.064878 -0.030991 -0.213574 4 4 4
0.052655 -0.026462 -0.221053 4 3 3
0.051481 -0.049465 -0.213730 6 7 5
0.633900 -1.106606 -0.267812 21 17 15
0.633811 -1.135708 -0.245422 17 17 19
0.634093 -1.120316 -0.244101 19 19 16
0.633176 -1.106622 -0.239489 19 19 17
0.376468 -0.237955 -0.234296 9 9 8
0.372924 -0.219373 -0.229862 23 20 15
0.362078 -0.243496 -0.237153 8 8 7
0.600067 -0.681210 -0.261953 14 9 5
0.230471 -0.746341 -0.665297 7 7 7
0.286400 -0.391337 -0.662577 12 11 8
0.401058 -0.439403 -0.667344 7 7 7
-0.016771 -0.546580 -0.655836 5 5 3
-0.009037 -0.557171 -0.660250 5 6 4
0.011817 -0.272679 -0.670299 24 27 24
0.012030 -0.246529 -0.667042 96 98 101
0.002659 -0.255816 -0.668373 56 57 58
-0.009422 -0.266599 -0.668665 8 9 8
-0.008933 -0.260619 -0.668372 28 29 28
0.852221 -0.173537 -0.680636 15 14 10
0.834726 -0.163458 -0.676673 15 14 11
0.313288 0.040154 -0.665657 14 14 12
0.363861 -0.600959 -0.225402 5 5 3
-0.149982 -0.697312 -0.651861 5 6 5
0.575079 -0.906830 -0.255427 18 10 7
0.580484 -0.915865 -0.260438 26 12 12
0.260360 -0.448267 -0.662760 6 6 5
0.236502 -0.457033 -0.660690 7 7 5
0.257076 -0.930071 -0.214854 7 5 4
0.228620 -0.911943 -0.217926 9 7 4
0.218686 -0.932626 -0.217396 12 12 8
0.296249 -0.250324 -0.220948 4 5 6
0.278984 -0.237345 -0.218461 6 6 5
0.296465 -0.219747 -0.220563 12 10 10
0.919884 -0.291095 -0.678800 14 12 13
0.894710 -0.298971 -0.677278 14 13 13
0.900921 -0.276326 -0.678780 14 13 10
0.694825 -0.991269 -0.677086 17 19 21
-0.136038 -0.785175 -0.647444 4 5 4
0.272097 -0.412830 -0.661531 7 7 6
0.266870 -0.436355 -0.663467 7 8 6
0.501298 -1.037715 -0.679631 11 11 10
0.525856 -1.039873 -0.680252 10 10 10
-0.058521 -0.197278 -0.663407 92 93 98
0.308625 -0.979848 -0.228694 6 6 5
0.298569 -0.978912 -0.221777 6 6 6
0.280898 -0.982186 -0.220670 6 6 6
0.628634 -1.129106 -0.618614 14 13 15
0.626634 -1.113390 -0.618722 15 15 16
0.624555 -1.106621 -0.603806 15 14 15
0.367666 -1.060677 -0.668019 21 19 14
0.364678 -1.039228 -0.666917 21 19 15
0.390533 -1.073065 -0.668694 22 20 16
0.396064 -1.055924 -0.669723 24 22 11
0.578138 -0.128146 -0.283124 10 8 6
0.804428 -0.680619 -0.677557 16 18 15
0.446814 -0.993721 -0.672493 22 20 11
0.424216 -1.020847 -0.673479 23 20 10
0.437043 -1.013541 -0.674794 21 17 8
0.409849 -1.002365 -0.672146 21 17 9
0.071653 0.009279 -0.250245 7 7 7
0.072832 0.006525 -0.256783 8 8 6
0.051907 0.021298 -0.257336 11 12 10
0.074986 0.010125 -0.231744 9 8 8
0.069273 0.012060 -0.237856 8 9 8
0.246793 -0.836596 -0.667538 7 6 6
0.265739 -0.842952 -0.668986 7 6 6
0.511359 -0.810345 -0.259665 4 4 2
0.523842 -0.793625 -0.260800 3 3 1
0.571977 -1.057649 -0.678944 9 11 10
0.587150 -1.080981 -0.677949 15 13 18
0.492565 -0.778900 -0.258227 4 4 2
0.514427 -0.772288 -0.259550 4 4 2
0.490322 -0.736493 -0.255459 4 4 2
0.264845 -0.015217 -0.663853 15 15 11
0.272887 -0.006380 -0.665008 15 13 9
0.584180 -0.690732 -0.669765 14 14 16
0.320761 -0.095979 -0.238750 18 14 11
0.335741 -0.056226 -0.241700 20 14 12
0.115547 0.058523 -0.665118 8 9 9
0.115135 0.092107 -0.662334 9 9 11
0.955788 -0.216212 -0.682270 15 15 13
0.868507 -0.330660 -0.676663 14 14 12
0.856576 -0.330420 -0.677081 14 13 12
0.882111 -0.320480 -0.675086 12 14 11
0.702746 -0.826255 -0.675743 16 17 26
0.694481 -0.843194 -0.676046 18 15 18
0.479217 -0.964397 -0.242317 8 5 4
0.489963 -0.952601 -0.244839 6 6 3
0.210948 -0.382688 -0.660594 15 9 7
0.221997 -0.363952 -0.660736 16 10 8
0.197936 -0.357490 -0.661756 14 10 8
0.691807 -0.689720 -0.674796 16 19 20
0.691836 -0.712037 -0.674850 15 15 23
0.504968 -0.719534 -0.668103 13 12 14
0.480753 -0.745433 -0.666832 12 11 14
0.685277 -0.255552 -0.671756 12 12 9
0.881314 -0.372875 -0.676822 14 11 16
0.590000 -1.098944 -0.347589 14 13 16
0.550949 -0.652710 -0.261641 7 7 6
0.546804 -0.641722 -0.259598 5 5 3
0.172180 -0.628856 -0.662165 6 6 6
0.561046 -0.154723 -0.295812 7 6 5
0.562429 -0.173053 -0.293229 9 8 5
0.537011 -0.157530 -0.302142 8 6 7
0.544674 -0.150066 -0.299023 8 7 6
0.500433 -0.559549 -0.669002 13 12 11
-0.212989 -0.620428 -0.648843 5 6 4
-0.239525 -0.615655 -0.648526 5 6 4
-0.194109 -0.642397 -0.648809 5 5 4
0.509602 -0.410073 -0.666189 7 9 9
0.523811 -0.431834 -0.667280 12 11 8
0.016304 -0.918843 -0.656890 10 9 6
0.033959 -0.906882 -0.655513 13 8 7
0.382478 -0.880786 -0.236721 5 4 2
0.521039 -0.955022 -0.673467 20 19 18
0.522379 -0.944700 -0.673852 10 10 9
1.004280 -0.289673 -0.683813 15 13 13
0.974488 -0.281921 -0.682748 15 13 13
0.387932 -0.025097 -0.246633 17 9 5
-0.045134 -0.448927 -0.660427 6 6 6
-0.056529 -0.423850 -0.659308 6 6 6
-0.017385 -0.444645 -0.661517 6 6 6
0.647582 -0.676010 -0.192736 15 9 7
0.639350 -0.654075 -0.221018 16 8 6
0.642988 -0.678066 -0.211830 13 10 8
-0.215004 -0.659837 -0.649193 5 5 5
0.034178 -0.520985 -0.659535 5 6 5
0.047919 -0.512158 -0.656769 6 6 6
0.034692 -0.498637 -0.656342 8 9 8
0.614254 -1.091018 -0.659547 12 13 15
0.614535 -1.067138 -0.674680 13 13 15
0.595936 -1.053078 -0.675302 11 12 14
0.622172 -1.095674 -0.668640 10 11 13
0.595081 -1.074977 -0.666660 12 12 14
0.609248 -1.075408 -0.672106 11 11 13
0.705221 -0.298318 -0.672525 13 14 17
-0.091870 -0.735087 -0.655965 4 6 5
0.586289 -0.573538 -0.267801 8 13 20
-0.094342 -0.599710 -0.657802 5 5 4
-0.089981 -0.587724 -0.658395 5 6 7
-0.103335 -0.577521 -0.657761 5 6 8
0.880208 -0.209447 -0.680194 14 13 12
0.871357 -0.222432 -0.677606 16 12 10
0.864199 -0.240909 -0.677888 14 14 12
0.336050 -0.635329 -0.228671 5 4 4
0.489912 -0.960583 -0.676924 13 13 13
0.477404 -0.945502 -0.675661 13 9 14
0.399463 -0.470124 -0.664609 8 8 8
0.400411 -0.498754 -0.662625 8 8 8
0.379869 -0.520285 -0.662888 7 7 3
0.380973 -0.510750 -0.663564 7 7 7
0.355584 -0.514457 -0.664035 7 7 4
0.367090 -0.483671 -0.663630 7 7 7
0.337312 -0.487502 -0.663576 7 7 6
0.444513 -0.084021 -0.253087 20 16 14
0.261811 -0.095096 -0.232315 4 5 5
0.237192 -0.113636 -0.232800 8 8 9
0.221986 -0.111510 -0.235687 8 8 8
0.215852 -0.101514 -0.245504 6 6 5
0.227792 -0.100154 -0.237787 5 5 5
0.217307 -0.089107 -0.242323 5 6 6
0.222595 -0.122795 -0.232197 8 8 8
0.402572 -0.024083 -0.248864 18 12 11
0.464159 -0.828410 -0.253460 5 4 4
0.689258 -0.095822 -0.675815 15 12 14
-0.079734 -0.529170 -0.650827 5 5 5
-0.102043 -0.531149 -0.651405 12 11 11
-0.122656 -0.521546 -0.649599 6 5 6
0.322760 -0.721665 -0.665867 7 7 7
0.323919 -0.739222 -0.668372 7 7 6
0.191349 -0.857429 -0.663965 6 6 4
0.175994 -0.835613 -0.663455 6 6 4
0.602825 -0.695731 -0.258594 13 9 5
0.616538 -0.726717 -0.243913 12 9 6
0.125025 -0.053805 -0.665201 9 10 8
0.138045 -0.028736 -0.666322 12 11 13
0.120952 -0.024102 -0.666599 55 71 79
-0.024460 -0.807647 -0.657367 4 6 5
-0.035131 -0.792752 -0.656208 8 9 8
0.402397 -0.786984 -0.668499 7 8 7
0.414506 -0.795410 -0.669594 7 6 4
0.712746 -1.032056 -0.676631 20 19 25
0.678684 -0.998807 -0.674831 16 18 23
0.099367 -0.135073 -0.666162 8 9 10
0.085463 -0.159339 -0.663686 8 10 9
0.346776 -0.964440 -0.274840 9 8 7
0.356749 -0.950448 -0.263994 8 9 6
0.348838 -0.935734 -0.270633 8 8 6
0.370110 -0.951492 -0.267054 8 8 7
0.361376 -0.938536 -0.271976 8 9 8
0.409261 -1.071609 -0.668632 26 22 16
0.431395 -1.068008 -0.674728 20 21 12
0.292746 -0.164633 -0.226851 11 12 9
0.280550 -0.181415 -0.221259 4 7 6
0.272751 -0.153985 -0.222530 6 8 9
0.260007 -0.144574 -0.221931 4 6 7
0.265791 -0.170886 -0.220109 7 8 8
0.438532 -0.136942 -0.247183 19 17 11
0.470580 -1.072437 -0.675280 13 11 12
0.476267 -1.056503 -0.676929 10 8 10
-0.006389 -0.364457 -0.666068 7 7 7
-0.014616 -0.347662 -0.662199 6 6 6
-0.000612 -0.352795 -0.667861 6 6 6
0.029736 -0.366485 -0.666244 8 8 9
-0.002850 -0.374812 -0.669423 6 7 7
0.744489 -0.690144 -0.675586 21 18 14
0.749701 -0.735154 -0.675874 17 21 28
0.735684 -0.717721 -0.674824 20 19 23
0.028524 -0.429734 -0.671671 18 20 16
0.024562 -0.450561 -0.665823 15 17 13
0.009043 -0.445398 -0.664519 5 6 3
0.062195 -0.090085 -0.664109 7 8 7
0.078485 -0.076634 -0.665900 7 9 7
0.581130 -0.781590 -0.258588 12 9 5
0.588788 -0.796402 -0.256757 13 9 5
0.595782 -0.808670 -0.221695 13 8 6
0.590748 -0.811519 -0.260078 12 9 6
0.589890 -0.789080 -0.248161 12 9 6
0.593793 -0.798532 -0.237843 11 9 5
-0.061804 -0.759392 -0.652965 4 6 5
-0.059786 -0.743611 -0.654021 8 8 8
-0.038986 -0.763388 -0.652738 5 5 5
0.384581 -0.483570 -0.664194 7 7 6
0.373203 -0.431582 -0.666613 7 7 7
0.362955 -0.468431 -0.665195 7 7 7
-0.013665 -0.431746 -0.671149 5 5 5
-0.024952 -0.434478 -0.658955 5 5 5
-0.029441 -0.421110 -0.662199 6 6 6
-0.022110 -0.404541 -0.663787 6 6 6
0.227188 -0.761681 -0.224223 9 7 5
0.263363 -0.791694 -0.227964 5 4 4
0.249637 -0.777011 -0.224344 5 4 4
0.439041 -0.676558 -0.244983 5 4 1
0.450726 -0.720949 -0.252533 5 4 2
0.327623 -0.987804 -0.668602 16 14 7
0.309302 -1.009840 -0.666669 17 13 8
0.319533 -1.008712 -0.666532 15 13 7
0.335279 -1.004651 -0.667063 16 14 10
0.312545 -0.143993 -0.232813 11 9 10
0.685807 -0.901635 -0.676147 18 13 22
0.681557 -0.933474 -0.676255 15 19 20
0.669089 -0.914507 -0.676938 18 16 17
0.118135 -0.859107 -0.659613 13 10 8
0.109946 -0.877005 -0.656965 21 15 12
0.100095 -0.848967 -0.658358 6 7 6
0.114315 -0.839989 -0.659780 6 6 5
0.824459 -0.395339 -0.674456 13 13 13
0.816245 -0.366684 -0.676352 13 12 14
0.799397 -0.393473 -0.673104 14 11 13
0.813146 -0.400375 -0.674280 13 11 12
0.536973 -0.605476 -0.666578 14 13 11
0.524532 -0.591861 -0.667721 14 13 12
0.217217 0.000586 -0.660646 18 19 20
0.204250 0.027263 -0.661534 26 23 23
0.261657 0.051292 -0.664577 21 18 19
0.251394 0.046363 -0.664236 19 19 19
0.283869 -0.207646 -0.219495 6 6 5
0.263915 -0.194539 -0.218430 10 10 10
-0.069297 -0.587106 -0.656463 5 5 6
-0.082948 -0.575421 -0.655632 5 5 6
0.178160 -0.820912 -0.221154 6 7 5
0.189956 -0.835011 -0.217729 6 6 5
0.146659 -0.438299 -0.661639 6 6 5
0.086343 -0.045859 -0.202572 4 4 3
0.078688 -0.045393 -0.229358 6 6 6
0.101985 -0.059628 -0.215168 7 7 5
0.082530 -0.052287 -0.213275 5 5 4
0.066776 -0.042959 -0.226749 7 6 5
0.085766 -0.052458 -0.222625 5 5 4
0.082416 -0.054880 -0.205117 4 4 5
0.078045 -0.042831 -0.212808 3 3 3
0.072504 -0.029037 -0.206548 5 4 2
0.067775 -0.053052 -0.209600 5 5 4
0.379430 -0.837408 -0.241452 5 4 2
0.215851 -0.836613 -0.665272 6 6 6
0.229878 -0.820222 -0.665629 7 6 6
0.190421 -0.113621 -0.259805 16 15 17
0.202244 -0.119277 -0.260533 9 9 7
0.201103 -0.120937 -0.251866 17 15 17
0.207139 -0.125968 -0.257226 10 10 8
0.640135 -0.784015 -0.210601 15 7 5
0.133015 -0.368523 -0.663426 12 9 11
0.111857 -0.358665 -0.663314 12 9 11
0.113308 -0.372391 -0.666353 11 10 9
0.718111 -0.740343 -0.676447 19 18 18
0.702173 -0.733392 -0.674574 16 17 14
0.305899 -0.194082 -0.661446 12 11 6
0.551302 -0.980893 -0.675207 13 13 15
-0.190026 -0.671173 -0.649249 5 5 5
0.888334 -0.253214 -0.680393 12 14 11
0.880671 -0.268784 -0.677523 13 14 11
0.263386 -0.665637 -0.216796 11 10 9
0.273593 -0.630179 -0.212165 7 7 5
0.282137 -0.615612 -0.213427 10 9 10
0.267024 -0.642639 -0.217238 6 6 7
0.567290 -0.562445 -0.276811 21 21 23
0.297828 -0.853557 -0.226176 5 4 5
0.345385 -0.973197 -0.268336 6 6 6
0.338786 -0.946712 -0.265237 6 6 6
0.351490 -0.977625 -0.263929 8 7 5
0.353939 -0.970406 -0.271317 8 8 7
0.340622 -0.960189 -0.272126 9 7 6
0.509830 -0.237065 -0.259040 25 17 12
0.835212 -0.537653 -0.678068 20 20 26
0.386208 -0.973706 -0.228959 6 4 4
0.390174 -0.956188 -0.227906 6 5 4
0.588644 -0.328197 -0.664536 29 28 43
0.606748 -0.309497 -0.668133 15 13 24
0.601575 -0.336243 -0.664395 28 25 37
0.371723 -0.074651 -0.666241 16 12 11
0.396905 -0.081432 -0.666653 12 13 10
0.396691 -0.066224 -0.666419 16 15 14
0.649426 -0.381733 -0.669127 14 13 14
-0.174997 -0.612773 -0.650278 4 6 5
0.582330 -0.662482 -0.671701 15 13 12
0.568388 -0.637594 -0.670526 13 13 16
0.376789 -0.092129 -0.666333 15 13 11
-0.045173 -0.670237 -0.654539 4 6 5
-0.071873 -0.682043 -0.655432 5 5 5
-0.156769 -0.840408 -0.648598 8 5 5
-0.186468 -0.839412 -0.649335 6 4 3
-0.045898 -0.179998 -0.240830 6 7 3
0.298070 -0.604334 -0.215570 5 4 2
0.316977 -0.591390 -0.216812 5 4 1
0.316847 -0.612666 -0.220976 5 4 4
0.463743 -0.925927 -0.243034 5 4 2
0.451268 -0.910371 -0.243640 5 4 4
0.105133 -0.061743 -0.665319 8 8 9
0.603713 -0.079263 -0.273094 3 7 5
0.434813 -0.308753 -0.664340 26 22 9
0.410073 -0.315327 -0.663793 18 18 15
0.898778 -0.544744 -0.678684 20 19 24
0.901973 -0.515907 -0.679800 25 20 33
0.880539 -0.551253 -0.677694 24 23 35
0.878077 -0.508606 -0.677896 22 21 34
0.246730 -0.346960 -0.662655 11 11 8
0.221794 -0.346356 -0.661197 12 10 6
0.429614 -0.449133 -0.668418 9 8 9
0.417155 -0.461709 -0.667677 8 8 8
0.405791 -0.100050 -0.667529 13 14 11
0.392640 -0.112296 -0.666221 13 14 11
0.427054 -0.129088 -0.670493 13 13 10
0.627907 -0.840341 -0.234692 8 6 7
0.580095 -1.002519 -0.673707 13 13 12
0.610362 -0.756467 -0.248588 11 7 4
0.618061 -0.785194 -0.242909 7 7 6
0.622132 -0.753050 -0.241658 6 6 5
0.387264 -0.776786 -0.669148 7 6 7
0.649896 -0.612363 -0.674136 17 14 20
0.007952 -0.097841 -0.660422 5 5 7
0.101161 -0.747590 -0.659983 7 6 6
0.080801 -0.740493 -0.659452 7 6 4
0.961234 -0.299072 -0.681868 15 13 10
0.966577 -0.249841 -0.683306 14 14 9
0.940587 -0.267802 -0.680726 14 14 10
0.831123 -0.327098 -0.675582 14 13 12
0.842189 -0.342504 -0.675811 14 13 11
-0.149810 -0.491363 -0.642898 5 5 6
-0.157872 -0.505161 -0.641912 6 6 7
0.210955 -0.123258 -0.270620 9 9 7
0.210929 -0.139820 -0.239560 10 10 11
0.213474 -0.128982 -0.242889 10 11 8
0.349516 -0.844890 -0.670567 7 6 7
0.344064 -0.816766 -0.670913 7 6 7
0.646102 -0.398235 -0.668664 13 13 11
0.634864 -0.404083 -0.669584 49 52 63
0.072096 -0.078851 -0.281931 11 14 14
0.057289 -0.071081 -0.284963 11 13 13
0.087764 -0.080289 -0.279116 9 11 11
0.577835 -0.485898 -0.670102 18 19 12
0.601462 -0.661953 -0.260012 16 12 9
-0.013789 -0.134422 -0.667134 5 5 6
-0.007841 -0.120773 -0.662637 5 5 7
-0.029418 -0.127748 -0.670634 4 6 5
-0.016397 -0.121712 -0.666799 6 6 8
-0.018607 -0.111202 -0.661603 5 6 8
0.171300 0.054631 -0.663433 14 14 14
0.188032 0.031809 -0.664343 77 83 93
0.194762 0.060857 -0.662683 16 14 13
0.370950 -0.162627 -0.238150 18 15 9
0.963868 -0.332232 -0.681039 15 11 14
0.940249 -0.311462 -0.681583 13 12 12
0.929441 -0.319906 -0.679503 14 13 11
0.933166 -0.290146 -0.680752 13 13 13
0.528334 -0.541510 -0.277565 100 103 106
0.521136 -0.539132 -0.283182 84 91 100
0.515759 -0.533899 -0.262576 11 9 6
0.107955 -0.081701 -0.274187 5 6 5
0.115164 -0.085279 -0.283081 10 10 10
0.089140 -0.083583 -0.282373 6 7 7
-0.005510 -0.488078 -0.656581 4 5 5
0.012104 -0.514028 -0.657349 6 5 5
0.018162 -0.502349 -0.657345 5 6 4
0.001301 -0.507386 -0.658536 5 5 5
-0.009188 -0.496541 -0.658705 5 5 6
0.930461 -0.209818 -0.680603 15 14 11
0.974362 -0.215272 -0.683536 15 14 12
0.947405 -0.228626 -0.682714 16 17 15
0.169586 -0.390671 -0.659480 15 10 7
0.148525 -0.383955 -0.663599 14 11 8
0.160737 -0.364855 -0.663358 13 10 7
0.411133 -0.991735 -0.256212 12 11 9
0.423318 -0.983130 -0.243110 7 6 6
0.427700 -0.990774 -0.253152 8 8 7
0.404991 -0.984732 -0.241293 9 8 9
-0.032067 -0.292557 -0.644664 5 5 6
-0.030190 -0.316962 -0.650010 6 6 5
-0.014788 -0.317406 -0.653065 6 6 6
0.586372 -1.097900 -0.319924 17 17 15
0.600630 -1.094705 -0.321309 17 17 15
0.599373 -1.095313 -0.307336 18 14 11
0.591424 -1.097679 -0.290484 18 14 14
0.185216 -0.647375 -0.661411 6 6 4
0.198267 -0.639313 -0.663291 6 6 6
0.591394 -0.088314 -0.672842 23 24 28
0.339068 -0.034740 -0.242045 16 14 13
0.205910 -0.830945 -0.220502 7 6 3
0.188163 -0.856704 -0.217152 18 18 14
0.181860 -0.843536 -0.220480 7 7 4
0.477756 -0.540414 -0.668016 10 10 10
0.462591 -0.556546 -0.665408 9 8 6
0.481089 -0.525415 -0.668961 10 10 8
0.467519 -0.899953 -0.670157 8 8 9
0.049056 0.047349 -0.265084 10 11 12
0.040664 0.028807 -0.278941 7 7 7
0.037887 0.040700 -0.273230 3 6 3
0.042028 0.028576 -0.272398 5 7 6
0.805168 -0.187157 -0.676930 14 15 21
0.030812 -0.787535 -0.654484 5 6 4
0.065513 -0.788153 -0.657946 5 6 4
0.027153 -0.044809 -0.209204 2 2 1
0.012832 -0.038993 -0.217428 2 2 1
0.112370 -0.655033 -0.660075 7 6 5
0.074274 -0.662279 -0.660861 11 11 11
-0.017205 -0.891905 -0.652422 7 6 7
-0.057717 -0.245933 -0.276020 7 8 4
-0.061170 -0.250606 -0.286350 11 11 7
-0.057401 -0.241523 -0.266758 19 18 12
-0.049727 -0.233922 -0.281871 11 11 8
-0.050574 -0.242770 -0.281914 8 9 5
-0.064515 -0.233925 -0.259081 22 19 19
-0.064550 -0.247174 -0.276957 15 18 12
-0.053274 -0.236591 -0.272724 7 9 4
-0.066219 -0.227883 -0.269670 11 9 8
-0.064989 -0.221352 -0.275172 9 7 8
0.167737 -0.142418 -0.665382 11 9 5
0.190276 -0.154282 -0.661772 10 10 8
0.185509 -0.178745 -0.660872 11 10 7
0.619033 -0.654813 -0.672213 17 17 16
0.629062 -0.172542 -0.254895 12 7 7
0.639927 -0.163232 -0.230544 18 10 8
0.613354 -0.152827 -0.247604 17 10 8
0.626266 -0.169777 -0.247201 17 11 8
0.052568 -0.281698 -0.671189 29 30 30
0.046669 -0.268348 -0.669020 38 39 41
0.033746 -0.244243 -0.663746 35 38 40
0.034838 -0.274821 -0.670828 14 15 16
0.026507 -0.264137 -0.670485 30 32 31
0.563159 -0.859818 -0.277495 21 22 20
0.577702 -0.853434 -0.268222 13 12 9
0.449661 -0.228747 -0.240128 20 17 12
0.461558 -0.219527 -0.239830 18 11 10
0.453200 -0.239275 -0.244914 25 20 20
0.513078 -0.187439 -0.251588 25 18 9
0.745268 -0.959137 -0.677481 15 17 19
0.710875 -0.944534 -0.678067 18 19 21
0.234622 -0.974844 -0.667173 17 15 9
0.220722 -1.002786 -0.666825 17 15 11
0.056506 -0.829905 -0.655470 5 6 5
0.035071 -0.813874 -0.656660 4 5 5
-0.035360 -0.647881 -0.657470 3 5 4
-0.057073 -0.665385 -0.655057 5 5 5
0.628226 -1.059379 -0.677542 15 18 20
0.129340 -0.008587 -0.221012 8 11 10
0.123337 -0.005831 -0.205307 7 11 10
0.144658 -0.019690 -0.215786 8 8 7
0.118759 0.000272 -0.227109 10 11 9
0.127640 -0.015256 -0.222540 9 9 8
0.117079 -0.008098 -0.224174 9 9 9
0.564141 -0.662762 -0.668532 16 12 12
0.557085 -0.679864 -0.667886 14 14 13
0.598137 -1.093393 -0.248503 15 14 12
0.593935 -1.096826 -0.258495 14 16 13
0.259011 -0.940713 -0.665423 16 12 8
0.231613 -0.934686 -0.665374 16 13 7
0.585660 -0.461161 -0.668947 14 13 19
0.628115 -0.465790 -0.673502 98 97 109
0.616697 -0.475560 -0.668921 14 15 13
0.616795 -0.453643 -0.673384 44 40 52
0.419416 -0.697653 -0.247933 5 4 1
0.140842 -0.026226 -0.220354 8 8 7
0.132129 -0.020718 -0.225951 9 9 7
0.611803 -1.091638 -0.355515 16 14 11
0.600565 -1.096861 -0.348185 18 15 13
0.611160 -1.090855 -0.320434 16 12 10
0.586366 -1.098844 -0.332255 15 15 15
0.571638 -1.034944 -0.675232 12 12 10
0.564793 -1.002030 -0.675968 11 12 11
-0.043349 -0.564021 -0.657023 5 5 5
-0.050892 -0.546974 -0.656772 4 5 4
0.648927 -1.018699 -0.675301 11 7 12
0.657067 -1.002081 -0.668807 12 15 17
0.214523 -0.185334 -0.231443 15 15 16
0.065749 -0.432064 -0.666804 5 6 3
0.078176 -0.418174 -0.664585 9 8 7
-0.035377 -0.724949 -0.651548 5 5 5
-0.038855 -0.741871 -0.654045 6 6 6
0.544576 -0.205909 -0.284264 14 9 11
0.286587 -0.896700 -0.668919 23 21 19
0.259837 -0.914386 -0.668169 15 12 6
-0.114803 -0.467432 -0.660195 5 5 7
-0.115762 -0.449819 -0.661018 5 6 7
0.159882 -0.310687 -0.667426 11 8 6
0.153891 -0.321234 -0.668916 13 11 8
0.174578 0.025676 -0.664367 10 11 11
0.187772 -0.004898 -0.665379 32 35 35
0.160089 -0.098001 -0.277029 5 5 4
0.146461 -0.101373 -0.281049 6 6 6
0.432444 -0.974896 -0.300716 11 10 9
0.699077 -0.326081 -0.670082 13 13 13
0.686969 -0.292241 -0.666992 10 10 6
0.444244 -0.985821 -0.296484 15 15 14
0.431087 -0.983324 -0.292700 12 12 12
0.456277 -0.987534 -0.314102 12 12 9
0.444998 -0.980691 -0.307261 17 19 18
0.458571 -1.000540 -0.291304 17 17 15
0.461988 -0.985924 -0.320558 15 16 14
0.461235 -0.975829 -0.321405 27 29 31
0.448899 -0.975805 -0.318267 13 16 11
0.359074 -0.704693 -0.240614 5 4 4
0.297005 -0.695738 -0.231482 5 4 4
-0.094724 -0.409161 -0.654906 6 6 6
-0.092357 -0.390375 -0.657607 6 6 7
-0.090182 -0.374149 -0.655676 6 6 7
0.103216 -0.638230 -0.658298 8 6 4
0.090299 -0.655081 -0.660453 12 10 10
0.098549 -0.614951 -0.660350 5 6 6
0.076538 -0.628825 -0.661792 5 6 5
0.083340 -0.608184 -0.660251 5 6 5
0.508028 -1.094438 -0.676856 9 8 9
0.127586 -0.884294 -0.657375 12 12 9
0.591301 -1.095824 -0.277524 22 15 13
0.259985 0.002636 -0.221051 6 6 5
0.286084 0.028703 -0.228126 10 11 10
0.279148 0.007651 -0.227675 4 5 8
0.269067 0.014444 -0.225772 8 9 10
-0.088694 -0.512666 -0.652229 5 5 4
0.301117 -0.261233 -0.663913 14 12 7
-0.055251 -0.239144 -0.247157 26 21 18
-0.051942 -0.227829 -0.245058 17 17 13
-0.059308 -0.243018 -0.256343 23 17 15
-0.161657 -0.539991 -0.652153 4 5 4
-0.176295 -0.548931 -0.653298 3 6 4
-0.180886 -0.530512 -0.651213 5 5 6
-0.041685 -0.151085 -0.655591 2 5 5
-0.011070 -0.141587 -0.669978 4 6 5
-0.008816 -0.147884 -0.669131 4 6 5
-0.032136 -0.146740 -0.657933 4 5 6
0.719285 -0.432582 -0.668806 14 15 16
0.704144 -0.448686 -0.669009 13 12 12
0.462702 -0.735298 -0.254226 4 5 3
0.474487 -0.737091 -0.255305 4 4 2
0.459387 -0.199388 -0.669612 25 19 17
0.475301 -0.197583 -0.669736 23 19 17
0.424320 -0.622519 -0.238967 7 5 5
0.381548 -0.615961 -0.229248 7 6 6
0.401845 -0.614082 -0.232629 8 6 7
0.630238 -1.140056 -0.504033 15 15 13
0.596772 -0.298468 -0.667224 12 11 10
0.483113 -0.681212 -0.252398 3 5 4
0.494143 -0.707529 -0.254630 15 15 15
0.497190 -0.688792 -0.256819 26 27 26
0.006889 -0.812477 -0.653830 3 5 3
0.804137 -0.158560 -0.680153 15 14 15
0.192248 -0.768291 -0.220494 7 6 5
0.372105 -0.743857 -0.667746 7 7 6
0.350127 -0.734320 -0.667498 7 6 6
0.058810 0.013069 -0.276391 6 6 6
0.061769 0.013528 -0.262265 6 6 6
0.737306 -0.155229 -0.674633 15 14 13
0.042550 -0.011340 -0.258217 6 6 5
0.044048 -0.013701 -0.243578 8 8 10
0.051852 -0.015827 -0.239911 9 9 11
0.066814 0.001331 -0.234874 8 9 7
0.062162 -0.025315 -0.237944 12 13 13
0.086148 -0.005478 -0.232497 6 5 3
0.054599 -0.010725 -0.229814 8 8 8
0.066987 -0.022779 -0.249774 5 7 7
0.055726 -0.017174 -0.248322 5 7 6
0.626432 -0.577269 -0.673005 19 15 16
0.732317 -0.402974 -0.673167 12 13 14
0.719075 -0.252692 -0.671933 14 13 13
0.602345 -0.092738 -0.273304 13 9 7
0.619243 -0.102621 -0.264798 14 12 8
0.622598 -0.078103 -0.264133 13 11 9
0.186669 -0.942246 -0.664037 13 12 8
0.657466 -0.162654 -0.209197 12 10 8
0.662144 -0.154736 -0.213582 10 10 9
0.534234 -0.203599 -0.668159 10 11 11
0.536471 -0.182039 -0.669897 11 11 11
0.355578 -0.691154 -0.664279 7 7 5
0.397331 -0.700909 -0.665063 7 6 4
0.050313 -0.880373 -0.657017 13 12 9
0.045283 -0.854263 -0.655846 8 6 6
0.102452 -0.449156 -0.666232 6 6 6
0.114764 -0.408302 -0.666326 7 6 6
0.092908 -0.421872 -0.664407 7 7 7
0.528236 -0.668640 -0.668809 14 14 13
0.775060 -0.592025 -0.678279 14 20 29
0.367842 -0.205773 -0.665908 19 15 8
0.382211 -0.189486 -0.668548 23 20 17
0.364742 -0.184398 -0.663624 18 15 13
0.631255 -1.157216 -0.243786 19 19 16
0.819706 -0.231110 -0.676592 13 14 14
0.713315 -0.615262 -0.675111 15 16 21
0.379408 -0.593141 -0.227337 7 6 5
0.378295 -0.566952 -0.224301 6 5 2
0.372380 -0.029253 -0.245475 23 17 9
0.357456 -0.001321 -0.241092 21 14 7
0.359834 -0.221000 -0.662969 13 13 9
0.620197 -0.403777 -0.668241 52 58 65
0.596959 -0.394528 -0.669219 10 12 13
0.605105 -0.380873 -0.667388 14 14 17
0.171756 -0.066821 -0.216801 17 21 15
0.697761 -0.548348 -0.670203 19 18 25
0.413023 -0.533868 -0.663224 8 7 5
0.406993 -0.557023 -0.664510 7 7 6
0.441188 -0.953662 -0.236585 8 7 3
0.473498 -0.952300 -0.241423 7 5 6
0.448487 -0.934462 -0.240014 7 6 4
0.602793 -0.123297 -0.273543 16 10 9
0.572827 -0.145494 -0.290733 8 4 7
0.588824 -0.130075 -0.281364 8 7 7
0.600321 -0.144994 -0.279788 11 7 8
0.584685 -0.147829 -0.286765 9 6 6
0.320948 -0.224231 -0.223612 14 13 11
0.342360 -0.227539 -0.227935 6 6 6
0.329006 -0.720347 -0.237696 5 4 4
0.681775 -0.851526 -0.674939 19 15 19
0.659677 -0.825564 -0.673993 15 19 17
