ply
format ascii 1.0
element vertex 1366
property float x
property float y
property float z
property uchar red
property uchar green
property uchar blue
end_header
0.639483 0.974423 0.309194 0 0 255
0.735365 1.009168 0.147193 0 0 255
0.640179 0.996719 0.349721 0 0 255
0.644948 0.991616 0.312194 0 0 255
0.579871 1.023700 0.398225 0 0 255
0.609665 0.968371 0.195193 0 0 255
0.426625 0.970269 0.135194 0 0 255
0.776036 1.079677 0.216193 0 0 255
0.511567 0.981270 0.381193 0 0 255
0.611841 1.088491 0.409790 0 0 255
0.643592 0.980826 0.195193 0 0 255
0.719856 0.994353 0.067768 0 0 255
0.738452 1.074306 0.312194 0 0 255
0.761347 1.103758 0.123194 0 0 255
0.700458 1.031013 0.309194 0 0 255
0.775596 1.056230 0.108194 0 0 255
0.519434 0.968499 0.216193 0 0 255
0.755389 1.096433 0.255194 0 0 255
0.725388 1.000211 0.075194 0 0 255
0.727810 1.096401 0.285194 0 0 255
0.752894 1.123210 0.207194 0 0 255
0.640306 1.185309 0.294194 0 0 255
0.605398 0.957537 0.282193 0 0 255
0.675320 0.987705 0.087193 0 0 255
0.677412 1.009387 0.291194 0 0 255
0.716410 1.116573 0.309194 0 0 255
0.639480 0.974423 0.231193 0 0 255
0.690360 0.984957 0.141194 0 0 255
0.766205 1.079275 0.163649 0 0 255
0.755438 1.117426 0.216193 0 0 255
0.713724 0.995156 0.126194 0 0 255
0.471103 1.005281 0.318193 0 0 255
0.486394 0.958292 0.105193 0 0 255
0.749712 1.037406 0.247708 0 0 255
0.558895 0.986821 0.394501 0 0 255
0.743439 1.017306 0.132194 0 0 255
0.605768 0.966662 0.123194 0 0 255
0.599665 0.967537 0.295687 0 0 255
0.483361 1.048818 0.403762 0 0 255
0.595579 0.957168 0.081194 0 0 255
0.454707 1.053656 0.411194 0 0 255
0.743448 1.017303 0.144194 0 0 255
0.625630 1.008898 0.391913 0 0 255
0.770598 1.098614 0.171194 0 0 255
0.722307 1.057875 0.376154 0 0 255
0.723154 1.002726 0.085862 0 0 255
0.620895 0.955950 0.242875 0 0 255
0.582219 0.967961 0.192194 0 0 255
0.614776 0.956788 0.123194 0 0 255
0.733557 1.037321 0.262706 0 0 255
0.532794 1.039019 0.402193 0 0 255
0.766603 1.075894 0.078193 0 0 255
0.678694 1.004455 0.279193 0 0 255
0.717565 1.082312 0.360194 0 0 255
0.675641 1.103116 0.408194 0 0 255
0.761374 1.103748 0.186194 0 0 255
0.640659 0.977184 0.333193 0 0 255
0.658954 0.982874 0.231193 0 0 255
0.608288 0.956687 0.360194 0 0 255
0.658984 1.003532 0.279193 0 0 255
0.697000 0.977259 0.246193 0 0 255
0.573452 0.966477 0.120194 0 0 255
0.533011 1.035709 0.391717 0 0 255
0.645797 0.986427 0.243194 0 0 255
0.539476 0.970265 0.354194 0 0 255
0.661773 0.969684 0.138193 0 0 255
0.544171 0.957629 0.147193 0 0 255
0.480147 1.024289 0.304205 0 0 255
0.715964 0.992661 0.082750 0 0 255
0.663578 0.982450 0.222194 0 0 255
0.549846 0.967815 0.285194 0 0 255
0.685667 0.985250 0.225194 0 0 255
0.666312 1.112175 0.400647 0 0 255
0.557286 1.080961 0.409869 0 0 255
0.686262 1.010810 0.351193 0 0 255
0.708906 1.043806 0.330193 0 0 255
0.568996 0.971538 0.354194 0 0 255
0.400078 0.992917 0.129193 0 0 255
0.763847 1.060857 0.180193 0 0 255
0.551958 1.034695 0.408680 0 0 255
0.569252 0.955813 0.114193 0 0 255
0.668423 0.982369 0.189194 0 0 255
0.765676 1.077934 0.120194 0 0 255
0.623516 0.987161 0.393580 0 0 255
0.647484 0.982522 0.228193 0 0 255
0.572511 1.045944 0.407072 0 0 255
0.564898 0.965110 0.117194 0 0 255
0.571422 0.981887 0.384193 0 0 255
0.705477 0.974222 0.132598 0 0 255
0.752688 1.081375 0.258194 0 0 255
0.704815 0.988912 0.144194 0 0 255
0.729259 1.001853 0.147193 0 0 255
0.602878 0.992067 0.388758 0 0 255
0.720530 1.077921 0.352879 0 0 255
0.531479 0.984723 0.393194 0 0 255
0.608708 0.957756 0.120194 0 0 255
0.695365 0.971756 0.231193 0 0 255
0.501238 0.967616 0.333193 0 0 255
0.688297 1.032579 0.372194 0 0 255
0.675179 0.982932 0.123194 0 0 255
0.543928 0.965195 0.078193 0 0 255
0.728305 0.983061 0.147193 0 0 255
0.666284 1.120290 0.390194 0 0 255
0.477452 0.964088 0.342194 0 0 255
0.541601 0.959288 0.369193 0 0 255
0.516857 1.035623 0.391813 0 0 255
0.642002 1.181428 0.318193 0 0 255
0.624645 0.957286 0.354194 0 0 255
0.671897 1.003571 0.338043 0 0 255
0.606875 0.969470 0.321194 0 0 255
0.684012 1.026141 0.315193 0 0 255
0.571485 0.965740 0.087193 0 0 255
0.698149 0.988361 0.084194 0 0 255
0.472849 1.001369 0.339194 0 0 255
0.620116 0.965930 0.111194 0 0 255
0.668225 0.969691 0.150194 0 0 255
0.653317 1.144672 0.393194 0 0 255
0.679775 0.982643 0.075194 0 0 255
0.508145 0.997139 0.395965 0 0 255
0.708521 0.973763 0.072194 0 0 255
0.535548 0.968479 0.189194 0 0 255
0.725435 1.098558 0.304634 0 0 255
0.494868 0.955245 0.189194 0 0 255
0.505099 1.046704 0.411941 0 0 255
0.590472 1.054991 0.414194 0 0 255
0.742143 1.062959 0.267193 0 0 255
0.360631 1.081041 0.175860 0 0 255
0.746253 1.071013 0.276194 0 0 255
0.609664 0.968366 0.099194 0 0 255
0.655909 1.077581 0.413188 0 0 255
0.478462 1.003640 0.327194 0 0 255
0.680289 1.003490 0.342194 0 0 255
0.762726 1.116113 0.222194 0 0 255
0.497879 0.954704 0.285194 0 0 255
0.486407 0.999252 0.342490 0 0 255
0.760452 1.113785 0.067725 0 0 255
0.724761 1.014992 0.273560 0 0 255
0.626896 0.971186 0.366193 0 0 255
0.708996 0.974969 0.165193 0 0 255
0.667509 0.984244 0.171194 0 0 255
0.507606 0.954840 0.216193 0 0 255
0.625800 0.968402 0.303194 0 0 255
0.616762 0.994569 0.390194 0 0 255
0.481092 0.961201 0.333193 0 0 255
0.389898 1.024371 0.175880 0 0 255
0.485756 0.956672 0.231193 0 0 255
0.761537 1.018311 0.240194 0 0 255
0.777508 1.039355 0.081194 0 0 255
0.724761 1.014992 0.256712 0 0 255
0.708426 1.021426 0.333193 0 0 255
0.772206 1.034994 0.198193 0 0 255
0.536881 0.988234 0.396194 0 0 255
0.567464 0.964099 0.129193 0 0 255
0.759693 1.046372 0.263843 0 0 255
0.496051 0.966435 0.253697 0 0 255
0.682029 0.971994 0.237194 0 0 255
0.658406 0.969325 0.183194 0 0 255
0.547815 0.975063 0.379885 0 0 255
0.530259 0.955050 0.210193 0 0 255
0.726419 1.072377 0.336194 0 0 255
0.635806 0.956525 0.261194 0 0 255
0.749882 1.005096 0.068390 0 0 255
0.675193 1.118350 0.386319 0 0 255
0.730509 1.095065 0.297193 0 0 255
0.470000 1.039457 0.393194 0 0 255
0.681855 0.983526 0.171194 0 0 255
0.757916 1.066417 0.267893 0 0 255
0.487066 1.037686 0.393194 0 0 255
0.583509 0.967452 0.352534 0 0 255
0.760562 1.126639 0.114193 0 0 255
0.429060 0.992823 0.176008 0 0 255
0.548102 0.955604 0.270194 0 0 255
0.490805 1.010418 0.394224 0 0 255
0.487085 0.976415 0.383058 0 0 255
0.731358 1.031738 0.281222 0 0 255
0.638021 0.966685 0.237194 0 0 255
0.752343 1.133101 0.159193 0 0 255
0.394681 0.990244 0.174194 0 0 255
0.674858 0.970161 0.196845 0 0 255
0.738766 1.038493 0.276194 0 0 255
0.645084 1.017357 0.319640 0 0 255
0.776165 1.059229 0.120194 0 0 255
0.556274 0.955610 0.170482 0 0 255
0.738879 1.144853 0.189194 0 0 255
0.560623 0.958466 0.366193 0 0 255
0.540408 0.956259 0.315193 0 0 255
0.491175 0.954057 0.285194 0 0 255
0.716442 0.977500 0.222194 0 0 255
0.486828 1.008507 0.297193 0 0 255
0.653795 0.984906 0.360194 0 0 255
0.497655 1.085104 0.410119 0 0 255
0.637464 0.957084 0.129193 0 0 255
0.547113 0.956911 0.339194 0 0 255
0.760820 1.122903 0.105193 0 0 255
0.517843 0.956275 0.291194 0 0 255
0.722546 1.102921 0.300193 0 0 255
0.683687 0.984389 0.069194 0 0 255
0.585960 1.030973 0.392231 0 0 255
0.777074 1.055647 0.087193 0 0 255
0.696509 1.090608 0.396856 0 0 255
0.746020 1.134444 0.162193 0 0 255
0.732712 0.986064 0.086595 0 0 255
0.643477 1.005092 0.271794 0 0 255
0.681978 0.977029 0.069194 0 0 255
0.776509 1.075216 0.225194 0 0 255
0.639461 1.187239 0.276194 0 0 255
0.728289 1.032947 0.306194 0 0 255
0.761357 1.103755 0.072194 0 0 255
0.659518 0.996702 0.351193 0 0 255
0.443945 0.965125 0.174194 0 0 255
0.699981 0.973163 0.111194 0 0 255
0.579538 0.957370 0.357194 0 0 255
0.676429 0.974147 0.246193 0 0 255
0.768912 1.029843 0.183194 0 0 255
0.771093 1.096695 0.069194 0 0 255
0.669064 0.996378 0.345194 0 0 255
0.598400 0.968035 0.201194 0 0 255
0.772549 1.038083 0.185633 0 0 255
0.521255 1.046789 0.407016 0 0 255
0.654213 1.174979 0.342194 0 0 255
0.572429 0.955695 0.328582 0 0 255
0.717078 1.110085 0.315193 0 0 255
0.520604 0.955098 0.216193 0 0 255
0.572143 0.954970 0.174194 0 0 255
0.668457 0.978467 0.093194 0 0 255
0.547900 0.958909 0.067849 0 0 255
0.637667 0.957602 0.249193 0 0 255
0.534196 1.022345 0.394746 0 0 255
0.766453 1.112648 0.195193 0 0 255
0.448684 0.968971 0.181171 0 0 255
0.567436 1.057617 0.415338 0 0 255
0.471689 1.043743 0.400814 0 0 255
0.387192 1.009316 0.181318 0 0 255
0.566592 1.006359 0.392644 0 0 255
0.658265 1.112121 0.399193 0 0 255
0.545052 0.968050 0.279193 0 0 255
0.649245 0.980251 0.354194 0 0 255
0.487563 0.956880 0.126194 0 0 255
0.735821 1.126711 0.261194 0 0 255
0.707843 1.053898 0.325496 0 0 255
0.715182 1.028438 0.351193 0 0 255
0.654331 0.965350 0.279193 0 0 255
0.697441 1.019304 0.369327 0 0 255
0.644762 1.004586 0.297193 0 0 255
0.649000 1.166450 0.336194 0 0 255
0.485564 0.956185 0.171194 0 0 255
0.514267 1.029050 0.402193 0 0 255
0.715962 1.099066 0.349858 0 0 255
0.470422 0.966857 0.158207 0 0 255
0.407782 0.979731 0.159193 0 0 255
0.521789 1.049803 0.414194 0 0 255
0.706867 0.989796 0.099194 0 0 255
0.684668 1.011438 0.358753 0 0 255
0.625952 1.042457 0.405194 0 0 255
0.561517 1.018032 0.392684 0 0 255
0.654255 1.007296 0.312194 0 0 255
0.648125 1.180602 0.277097 0 0 255
0.645506 1.042986 0.412028 0 0 255
0.456984 1.096452 0.411194 0 0 255
0.517955 1.038416 0.409247 0 0 255
0.695241 1.013721 0.314210 0 0 255
0.569194 0.956968 0.219194 0 0 255
0.687628 1.084433 0.397765 0 0 255
0.727866 1.104729 0.318193 0 0 255
0.744857 1.013524 0.261194 0 0 255
0.763977 1.070479 0.261194 0 0 255
0.775163 1.056400 0.165193 0 0 255
0.647165 0.957158 0.123194 0 0 255
0.415584 0.983166 0.138193 0 0 255
0.478317 0.962343 0.297193 0 0 255
0.763598 1.113587 0.114193 0 0 255
0.409522 1.000520 0.175994 0 0 255
0.665215 1.002979 0.334366 0 0 255
0.630805 0.956552 0.099194 0 0 255
0.766861 1.020978 0.072194 0 0 255
0.636033 1.043493 0.412865 0 0 255
0.746162 1.142990 0.075194 0 0 255
0.562728 0.955623 0.243194 0 0 255
0.553549 0.956877 0.291194 0 0 255
0.643641 1.185592 0.271604 0 0 255
0.523963 0.955440 0.161339 0 0 255
0.655453 0.958459 0.306194 0 0 255
0.737955 1.048486 0.339623 0 0 255
0.627866 0.957274 0.105193 0 0 255
0.585794 0.956880 0.177581 0 0 255
0.770392 1.032484 0.135194 0 0 255
0.763141 1.022385 0.099194 0 0 255
0.747513 1.031823 0.097481 0 0 255
0.687885 0.970489 0.084194 0 0 255
0.490976 0.978107 0.391625 0 0 255
0.739763 1.143118 0.219194 0 0 255
0.493005 1.016000 0.274486 0 0 255
0.770182 1.032072 0.153194 0 0 255
0.646116 1.167317 0.354194 0 0 255
0.655769 0.961558 0.135194 0 0 255
0.716773 0.978343 0.072194 0 0 255
0.764428 1.115695 0.087193 0 0 255
0.774617 1.084258 0.162193 0 0 255
0.733047 1.134253 0.253791 0 0 255
0.658703 0.970076 0.158639 0 0 255
0.511274 1.037823 0.408583 0 0 255
0.768252 1.109027 0.090194 0 0 255
0.462310 1.089354 0.411194 0 0 255
0.627644 0.956713 0.294194 0 0 255
0.668960 1.012488 0.354194 0 0 255
0.643985 1.014566 0.334456 0 0 255
0.655964 0.961481 0.075194 0 0 255
0.742739 1.126115 0.255194 0 0 255
0.671209 1.001826 0.366193 0 0 255
0.764641 1.116234 0.126194 0 0 255
0.487036 0.953864 0.315193 0 0 255
0.551705 0.976755 0.389448 0 0 255
0.490237 1.008973 0.270194 0 0 255
0.650159 1.005685 0.300924 0 0 255
0.776507 1.056315 0.213193 0 0 255
0.679764 0.990799 0.091954 0 0 255
0.655220 0.968224 0.141194 0 0 255
0.576653 0.957256 0.153194 0 0 255
0.597633 1.036048 0.394839 0 0 255
0.735418 1.001120 0.071030 0 0 255
0.514761 0.956634 0.111194 0 0 255
0.572646 0.956246 0.102194 0 0 255
0.675065 0.970080 0.162193 0 0 255
0.677982 0.969905 0.174194 0 0 255
0.434999 0.966972 0.150194 0 0 255
0.530645 0.956032 0.238038 0 0 255
0.719601 1.042819 0.370061 0 0 255
0.653796 1.178368 0.294194 0 0 255
0.554412 0.991811 0.395402 0 0 255
0.567354 0.967367 0.334441 0 0 255
0.650752 0.999003 0.328283 0 0 255
0.765322 1.019733 0.129193 0 0 255
0.495605 1.030787 0.405194 0 0 255
0.654727 0.961969 0.150194 0 0 255
0.613350 0.955697 0.111194 0 0 255
0.681857 0.983526 0.102194 0 0 255
0.437941 0.998998 0.181546 0 0 255
0.776755 1.065446 0.219194 0 0 255
0.753137 1.003814 0.159193 0 0 255
0.490858 0.953252 0.150194 0 0 255
0.705222 0.974322 0.108194 0 0 255
0.643886 1.161654 0.369193 0 0 255
0.753969 1.124469 0.241949 0 0 255
0.504762 1.004921 0.267026 0 0 255
0.458158 0.968463 0.180191 0 0 255
0.649021 1.180249 0.351193 0 0 255
0.738909 1.080354 0.282193 0 0 255
0.739395 1.076938 0.303194 0 0 255
0.754363 1.106510 0.259492 0 0 255
0.532594 0.964938 0.096193 0 0 255
0.502562 0.958408 0.090194 0 0 255
0.760298 1.121576 0.099194 0 0 255
0.737546 1.055095 0.306194 0 0 255
0.655319 0.977857 0.351149 0 0 255
0.676968 1.008258 0.303194 0 0 255
0.438651 1.037411 0.417193 0 0 255
0.617087 1.044508 0.411756 0 0 255
0.694176 1.011017 0.297193 0 0 255
0.727300 0.978523 0.081194 0 0 255
0.689404 1.064386 0.403407 0 0 255
0.737301 0.989527 0.153194 0 0 255
0.495808 0.982191 0.393194 0 0 255
0.746628 0.996834 0.192194 0 0 255
0.514084 1.012217 0.354194 0 0 255
0.491735 1.045519 0.410731 0 0 255
0.688072 0.970964 0.222194 0 0 255
0.693761 0.972388 0.147193 0 0 255
0.365621 1.085524 0.181418 0 0 255
0.753509 1.003666 0.177193 0 0 255
0.621994 0.958741 0.074690 0 0 255
0.676536 1.138133 0.369193 0 0 255
0.667539 1.090736 0.408194 0 0 255
0.495541 1.063366 0.415002 0 0 255
0.655673 0.964820 0.108194 0 0 255
0.643038 0.979421 0.306194 0 0 255
0.773649 1.040875 0.112130 0 0 255
0.695412 0.981411 0.070849 0 0 255
0.633571 1.083155 0.414194 0 0 255
0.724627 1.088320 0.363194 0 0 255
0.640708 0.957133 0.111194 0 0 255
0.701490 1.013211 0.306194 0 0 255
0.770351 1.032501 0.164925 0 0 255
0.485270 0.957784 0.330193 0 0 255
0.640480 0.956557 0.270194 0 0 255
0.638317 1.032921 0.407782 0 0 255
0.768448 1.104186 0.231193 0 0 255
0.770011 1.097121 0.245207 0 0 255
0.658193 1.067008 0.417545 0 0 255
0.776531 1.072746 0.207194 0 0 255
0.618104 0.957049 0.309307 0 0 255
0.702421 0.974646 0.237194 0 0 255
0.605914 1.040701 0.396194 0 0 255
0.488642 1.004923 0.336194 0 0 255
0.477198 1.033174 0.291194 0 0 255
0.371373 1.051014 0.175944 0 0 255
0.635188 0.992236 0.392327 0 0 255
0.474310 1.074954 0.414645 0 0 255
0.640184 0.955807 0.123194 0 0 255
0.766924 1.111236 0.123194 0 0 255
0.513608 0.956295 0.159193 0 0 255
0.429263 0.970173 0.171194 0 0 255
0.749882 1.005096 0.101840 0 0 255
0.595466 0.956880 0.279193 0 0 255
0.539341 0.955831 0.093194 0 0 255
0.656203 1.004656 0.375194 0 0 255
0.489142 0.957082 0.135194 0 0 255
0.584642 1.076634 0.414194 0 0 255
0.423407 0.970287 0.129193 0 0 255
0.619456 1.017780 0.397080 0 0 255
0.643546 1.005066 0.291194 0 0 255
0.649967 0.983190 0.096193 0 0 255
0.775364 1.056320 0.228193 0 0 255
0.490903 0.965238 0.180193 0 0 255
0.762559 1.035570 0.096193 0 0 255
0.662131 0.970594 0.072194 0 0 255
0.609475 1.008814 0.392000 0 0 255
0.508633 0.955030 0.210193 0 0 255
0.523629 0.954590 0.285194 0 0 255
0.474926 0.961921 0.207194 0 0 255
0.737179 0.989218 0.186194 0 0 255
0.736349 1.036221 0.350761 0 0 255
0.610131 0.961366 0.372194 0 0 255
0.734453 1.075661 0.345194 0 0 255
0.646267 1.026564 0.402193 0 0 255
0.649764 0.989719 0.375194 0 0 255
0.775114 1.044596 0.177193 0 0 255
0.544939 0.992319 0.395443 0 0 255
0.768728 1.028382 0.144194 0 0 255
0.596441 0.955909 0.117194 0 0 255
0.614980 0.957303 0.366193 0 0 255
0.747210 0.996475 0.123194 0 0 255
0.663457 0.982145 0.261194 0 0 255
0.556500 0.956183 0.114193 0 0 255
0.628325 0.956247 0.270194 0 0 255
0.681135 0.969727 0.075194 0 0 255
0.709027 0.975049 0.231193 0 0 255
0.761384 1.042481 0.073631 0 0 255
0.488899 1.021950 0.312194 0 0 255
0.527992 0.957481 0.102194 0 0 255
0.578908 0.956367 0.318193 0 0 255
0.644391 0.956367 0.333193 0 0 255
0.621227 0.956795 0.231193 0 0 255
0.539965 0.955135 0.297193 0 0 255
0.375339 1.028339 0.180193 0 0 255
0.375602 1.094490 0.181271 0 0 255
0.549422 0.987328 0.394247 0 0 255
0.655572 1.035796 0.409035 0 0 255
0.442510 0.977852 0.175705 0 0 255
0.766670 1.021053 0.153194 0 0 255
0.713987 1.102237 0.369193 0 0 255
0.651135 0.975420 0.324194 0 0 255
0.484886 0.970833 0.387559 0 0 255
0.750743 1.001532 0.198193 0 0 255
0.477864 1.010306 0.303194 0 0 255
0.566067 0.955914 0.141194 0 0 255
0.644022 0.998288 0.327194 0 0 255
0.762586 1.016213 0.183194 0 0 255
0.747939 1.139318 0.198193 0 0 255
0.772549 1.038083 0.207078 0 0 255
0.739134 1.054471 0.285194 0 0 255
0.774227 1.043871 0.084194 0 0 255
0.587214 0.956320 0.138193 0 0 255
0.398460 1.027448 0.177193 0 0 255
0.646139 1.028222 0.390194 0 0 255
0.688033 0.970866 0.198193 0 0 255
0.543500 1.054148 0.413582 0 0 255
0.451726 1.074920 0.426194 0 0 255
0.553565 1.046959 0.411794 0 0 255
0.757265 1.008635 0.189194 0 0 255
0.488904 1.014391 0.312194 0 0 255
0.659248 0.971459 0.231193 0 0 255
0.556578 0.956382 0.354194 0 0 255
0.504590 0.955370 0.168194 0 0 255
0.581748 0.954797 0.081194 0 0 255
0.754408 1.132287 0.084194 0 0 255
0.516559 0.955132 0.243194 0 0 255
0.540111 0.955528 0.243194 0 0 255
0.394533 0.990302 0.165193 0 0 255
0.654859 1.001244 0.357194 0 0 255
0.611860 0.957571 0.099194 0 0 255
0.618247 0.956993 0.336194 0 0 255
0.503747 0.985973 0.388887 0 0 255
0.605385 0.957502 0.108194 0 0 255
0.724783 0.985963 0.099194 0 0 255
0.479049 1.021498 0.397170 0 0 255
0.370360 1.032068 0.175823 0 0 255
0.582399 0.956448 0.279193 0 0 255
0.432484 0.968770 0.159193 0 0 255
0.478150 0.961920 0.183194 0 0 255
0.663442 1.039405 0.411194 0 0 255
0.474004 1.052504 0.414194 0 0 255
0.653786 0.991360 0.354194 0 0 255
0.617679 1.037825 0.409717 0 0 255
0.614774 0.956781 0.297193 0 0 255
0.489961 0.959161 0.373321 0 0 255
0.683445 0.970003 0.132194 0 0 255
0.695216 0.972729 0.219194 0 0 255
0.500696 0.953670 0.156194 0 0 255
0.650422 0.998168 0.360194 0 0 255
0.608460 0.989867 0.395799 0 0 255
0.733738 0.985661 0.144194 0 0 255
0.675448 1.069884 0.417970 0 0 255
0.649203 0.957696 0.225194 0 0 255
0.679846 1.081048 0.403677 0 0 255
0.631342 0.957913 0.150194 0 0 255
0.524143 0.955897 0.297193 0 0 255
0.716930 1.034197 0.360194 0 0 255
0.540593 0.956730 0.171194 0 0 255
0.524590 0.955193 0.255194 0 0 255
0.700657 1.050281 0.396194 0 0 255
0.585782 0.956852 0.111194 0 0 255
0.559814 0.956412 0.126194 0 0 255
0.556484 0.956143 0.210193 0 0 255
0.720327 0.979180 0.228193 0 0 255
0.627422 0.956149 0.093194 0 0 255
0.537408 0.956829 0.192194 0 0 255
0.488121 0.954490 0.198193 0 0 255
0.535551 0.976671 0.390688 0 0 255
0.444246 0.964270 0.159193 0 0 255
0.580633 0.984707 0.393912 0 0 255
0.715926 1.028144 0.339194 0 0 255
0.777382 1.058751 0.186194 0 0 255
0.737824 1.054986 0.318193 0 0 255
0.774260 1.088999 0.222194 0 0 255
0.730285 1.035385 0.321194 0 0 255
0.468126 0.961313 0.159193 0 0 255
0.728170 1.032995 0.294194 0 0 255
0.564478 0.984622 0.393709 0 0 255
0.654522 1.174858 0.306194 0 0 255
0.680335 1.132446 0.366193 0 0 255
0.679871 1.126180 0.378194 0 0 255
0.544500 0.957023 0.357194 0 0 255
0.660477 1.056435 0.415883 0 0 255
0.653932 0.994526 0.309194 0 0 255
0.686531 0.975236 0.093127 0 0 255
0.572760 0.956535 0.162193 0 0 255
0.739584 1.054293 0.336194 0 0 255
0.729144 1.068079 0.363194 0 0 255
0.718867 1.091473 0.375194 0 0 255
0.543735 0.956520 0.081194 0 0 255
0.572967 0.957061 0.315193 0 0 255
0.529330 0.960881 0.165193 0 0 255
0.688281 0.971496 0.228193 0 0 255
0.488077 1.001820 0.330193 0 0 255
0.572153 0.954993 0.087193 0 0 255
0.709377 1.011378 0.279193 0 0 255
0.775135 1.049962 0.144194 0 0 255
0.742026 0.992069 0.195193 0 0 255
0.724786 1.047224 0.360194 0 0 255
0.732921 1.040796 0.333193 0 0 255
0.680418 1.016336 0.384193 0 0 255
0.774971 1.095168 0.114193 0 0 255
0.534038 0.956460 0.300193 0 0 255
0.764182 1.112315 0.147193 0 0 255
0.485308 0.996462 0.391923 0 0 255
0.521509 0.998323 0.395302 0 0 255
0.756860 1.128097 0.138193 0 0 255
0.624023 0.996634 0.395207 0 0 255
0.517646 0.972144 0.387194 0 0 255
0.534868 0.958566 0.150194 0 0 255
0.493764 1.083412 0.415456 0 0 255
0.687764 0.971526 0.144194 0 0 255
0.773649 1.040875 0.126445 0 0 255
0.609898 1.034442 0.392420 0 0 255
0.416381 0.981696 0.117194 0 0 255
0.601488 0.955798 0.201194 0 0 255
0.627947 0.957484 0.282193 0 0 255
0.770141 1.032584 0.210193 0 0 255
0.520483 0.954790 0.123194 0 0 255
0.550392 0.957047 0.108194 0 0 255
0.645315 0.978573 0.318193 0 0 255
0.569277 0.955879 0.351193 0 0 255
0.751126 1.000070 0.138193 0 0 255
0.480740 1.017607 0.392056 0 0 255
0.720955 0.997144 0.184686 0 0 255
0.575564 0.955468 0.186194 0 0 255
0.646974 0.956672 0.204194 0 0 255
0.434738 0.966310 0.165193 0 0 255
0.775940 1.056094 0.135194 0 0 255
0.627798 0.957103 0.243194 0 0 255
0.514088 0.954926 0.201194 0 0 255
0.595124 0.956009 0.129193 0 0 255
0.655551 0.964869 0.309194 0 0 255
0.623049 0.961418 0.372194 0 0 255
0.655547 0.964871 0.297193 0 0 255
0.640179 0.996719 0.394718 0 0 255
0.575809 0.956090 0.285194 0 0 255
0.776447 1.080721 0.081194 0 0 255
0.751424 1.000824 0.210193 0 0 255
0.655319 0.977857 0.067788 0 0 255
0.624534 0.957001 0.186194 0 0 255
0.739578 1.063969 0.303194 0 0 255
0.766984 1.024153 0.231193 0 0 255
0.733443 1.040591 0.315193 0 0 255
0.420715 0.971637 0.162193 0 0 255
0.751521 1.001226 0.087193 0 0 255
0.591801 0.955760 0.345194 0 0 255
0.684329 1.076058 0.403744 0 0 255
0.681085 1.006400 0.363194 0 0 255
0.484124 1.009825 0.335046 0 0 255
0.604946 0.956388 0.240194 0 0 255
0.531742 1.065229 0.415430 0 0 255
0.500674 0.958165 0.369193 0 0 255
0.775653 1.052983 0.180193 0 0 255
0.752038 1.125166 0.192194 0 0 255
0.543493 0.955907 0.198193 0 0 255
0.689996 1.057704 0.401874 0 0 255
0.724373 0.981265 0.189194 0 0 255
0.440733 0.973341 0.144194 0 0 255
0.764435 1.018709 0.204194 0 0 255
0.543827 0.964940 0.264193 0 0 255
0.593391 1.025281 0.396194 0 0 255
0.735639 0.988136 0.201194 0 0 255
0.752081 1.010678 0.091913 0 0 255
0.772294 1.086550 0.242003 0 0 255
0.500532 1.067850 0.410070 0 0 255
0.769183 1.029736 0.225194 0 0 255
0.547298 0.957379 0.369193 0 0 255
0.538764 1.001200 0.391825 0 0 255
0.655222 0.971447 0.315193 0 0 255
0.568028 1.050935 0.414921 0 0 255
0.549643 0.955147 0.075194 0 0 255
0.527344 1.054063 0.414755 0 0 255
0.655082 0.965054 0.165193 0 0 255
0.742037 1.083406 0.345194 0 0 255
0.403939 1.002719 0.175708 0 0 255
0.662931 1.013552 0.337300 0 0 255
0.688296 0.971534 0.156194 0 0 255
0.545974 1.003132 0.396194 0 0 255
0.762737 1.106436 0.153194 0 0 255
0.631193 0.957537 0.180193 0 0 255
0.656044 0.964675 0.129193 0 0 255
0.654788 0.971618 0.354194 0 0 255
0.518378 1.064044 0.415016 0 0 255
0.563276 0.957016 0.285194 0 0 255
0.654112 0.991230 0.276194 0 0 255
0.577914 1.018022 0.396194 0 0 255
0.688429 0.971871 0.210193 0 0 255
0.775781 1.052932 0.192194 0 0 255
0.655672 0.958373 0.300193 0 0 255
0.776408 1.078480 0.123194 0 0 255
0.728026 0.994358 0.066194 0 0 255
0.727728 1.096192 0.279193 0 0 255
0.627152 1.037319 0.408755 0 0 255
0.617543 1.029298 0.393194 0 0 255
0.691474 0.987787 0.198193 0 0 255
0.482774 0.957287 0.177193 0 0 255
0.653515 0.978568 0.369193 0 0 255
0.521594 0.982168 0.385917 0 0 255
0.771797 1.035155 0.108194 0 0 255
0.763270 1.099776 0.234194 0 0 255
0.765511 1.110256 0.222194 0 0 255
0.524893 0.990542 0.394576 0 0 255
0.720362 1.003826 0.097472 0 0 255
0.543457 0.955815 0.231193 0 0 255
0.589057 0.956982 0.237194 0 0 255
0.654613 0.987808 0.288194 0 0 255
0.591795 1.086714 0.409754 0 0 255
0.446300 0.971104 0.165193 0 0 255
0.637364 0.956831 0.183194 0 0 255
0.647031 0.965001 0.068107 0 0 255
0.384146 1.058881 0.176001 0 0 255
0.751656 1.091454 0.356129 0 0 255
0.717147 1.085702 0.349783 0 0 255
0.624640 0.957274 0.132194 0 0 255
0.770846 1.035530 0.231193 0 0 255
0.675096 0.970763 0.150194 0 0 255
0.427791 1.022343 0.176058 0 0 255
0.649054 1.166589 0.342194 0 0 255
0.376364 1.055497 0.181323 0 0 255
0.715458 0.983188 0.068130 0 0 255
0.574710 1.051527 0.406750 0 0 255
0.624226 0.956221 0.165193 0 0 255
0.744274 1.084690 0.267193 0 0 255
0.756901 1.047471 0.088872 0 0 255
0.673333 1.048146 0.394836 0 0 255
0.634149 0.956856 0.207194 0 0 255
0.552735 0.954814 0.093194 0 0 255
0.724845 1.060099 0.297193 0 0 255
0.675195 1.011945 0.274846 0 0 255
0.546882 1.046367 0.411707 0 0 255
0.546882 1.046367 0.403750 0 0 255
0.722766 0.980309 0.147193 0 0 255
0.408422 0.997729 0.181315 0 0 255
0.761192 1.045782 0.135194 0 0 255
0.755965 1.073635 0.252194 0 0 255
0.639380 0.990584 0.279193 0 0 255
0.607365 0.962529 0.138193 0 0 255
0.574458 0.993588 0.395554 0 0 255
0.400675 0.991108 0.147193 0 0 255
0.661766 0.969666 0.111194 0 0 255
0.578933 0.964020 0.156194 0 0 255
0.699133 1.015413 0.268732 0 0 255
0.591183 0.962378 0.114193 0 0 255
0.654843 0.987718 0.366193 0 0 255
0.658033 0.984747 0.213193 0 0 255
0.654727 0.984540 0.088939 0 0 255
0.421204 0.981064 0.168194 0 0 255
0.650172 0.956603 0.186194 0 0 255
0.642366 0.973286 0.135194 0 0 255
0.642267 0.973325 0.114193 0 0 255
0.571327 1.059308 0.409753 0 0 255
0.516635 0.969578 0.282193 0 0 255
0.487079 0.968215 0.186194 0 0 255
0.480409 0.967654 0.351193 0 0 255
0.764869 1.095923 0.207194 0 0 255
0.644598 0.978856 0.183194 0 0 255
0.548909 0.969656 0.252194 0 0 255
0.764026 1.018870 0.192194 0 0 255
0.699878 1.037691 0.339194 0 0 255
0.728222 1.068442 0.291194 0 0 255
0.549907 0.967790 0.273194 0 0 255
0.595498 0.956961 0.192194 0 0 255
0.531690 0.966870 0.168194 0 0 255
0.642028 1.181497 0.324194 0 0 255
0.604229 1.052796 0.406828 0 0 255
0.743726 0.994623 0.156194 0 0 255
0.762775 1.058055 0.201194 0 0 255
0.508060 1.013294 0.392031 0 0 255
0.765444 1.073126 0.126194 0 0 255
0.557711 1.000185 0.392002 0 0 255
0.775372 1.086177 0.078193 0 0 255
0.712240 1.036045 0.294194 0 0 255
0.641091 0.986687 0.255194 0 0 255
0.543282 0.955370 0.186194 0 0 255
0.747415 1.018965 0.120194 0 0 255
0.632467 0.968955 0.225194 0 0 255
0.593430 0.968082 0.231193 0 0 255
0.540412 0.968306 0.330193 0 0 255
0.750657 1.027361 0.162193 0 0 255
0.517572 0.967631 0.231193 0 0 255
0.701864 0.973237 0.177193 0 0 255
0.727521 1.075166 0.309194 0 0 255
0.755672 1.031834 0.072194 0 0 255
0.726007 1.062865 0.327194 0 0 255
0.757821 1.037436 0.081194 0 0 255
0.721526 1.051733 0.282193 0 0 255
0.648471 1.181481 0.300193 0 0 255
0.700924 0.987220 0.138193 0 0 255
0.637679 1.010601 0.375194 0 0 255
0.457733 1.049241 0.423466 0 0 255
0.538324 0.967341 0.318193 0 0 255
0.704868 1.042174 0.342194 0 0 255
0.548947 0.969752 0.366193 0 0 255
0.665975 1.070391 0.403750 0 0 255
0.478878 1.053808 0.406845 0 0 255
0.448766 1.059221 0.418737 0 0 255
0.760002 1.112642 0.078193 0 0 255
0.637331 0.968821 0.345194 0 0 255
0.676942 0.983636 0.198193 0 0 255
0.646776 1.013467 0.395014 0 0 255
0.489857 0.967082 0.306194 0 0 255
0.395988 1.031646 0.181305 0 0 255
0.574542 0.969243 0.234194 0 0 255
0.644152 1.186888 0.306194 0 0 255
0.658964 1.019852 0.321194 0 0 255
0.474710 0.965169 0.264193 0 0 255
0.763901 1.060836 0.150194 0 0 255
0.727557 1.075152 0.321194 0 0 255
0.639423 0.990568 0.378194 0 0 255
0.525001 0.966258 0.171194 0 0 255
0.480424 0.967691 0.270194 0 0 255
0.720451 1.048932 0.303194 0 0 255
0.438534 0.992316 0.176163 0 0 255
0.764307 1.070350 0.219194 0 0 255
0.638876 0.981111 0.261194 0 0 255
0.760511 1.105747 0.129193 0 0 255
0.633422 0.967137 0.147193 0 0 255
0.458114 0.976541 0.156194 0 0 255
0.729431 1.055068 0.342194 0 0 255
0.756808 1.034611 0.219194 0 0 255
0.654143 0.983057 0.207194 0 0 255
0.605715 0.966526 0.279193 0 0 255
0.766164 1.066394 0.207194 0 0 255
0.750651 1.027363 0.183194 0 0 255
0.640672 0.977179 0.360194 0 0 255
0.640107 0.967728 0.138193 0 0 255
0.696222 0.987540 0.108194 0 0 255
0.678964 0.984665 0.114193 0 0 255
0.748476 1.021771 0.168194 0 0 255
0.533696 0.967728 0.339194 0 0 255
0.538375 0.967469 0.270194 0 0 255
0.476932 0.958827 0.147193 0 0 255
0.763349 1.104769 0.204194 0 0 255
0.764269 1.086486 0.225194 0 0 255
0.507160 0.970081 0.324194 0 0 255
0.570845 1.041713 0.396194 0 0 255
0.565110 0.969856 0.249193 0 0 255
0.681115 1.051529 0.394792 0 0 255
0.582901 0.965910 0.285194 0 0 255
0.740487 0.992675 0.084194 0 0 255
0.750618 1.027376 0.078193 0 0 255
0.755371 1.006158 0.141194 0 0 255
0.605156 0.956922 0.324194 0 0 255
0.723772 1.057297 0.309194 0 0 255
0.679029 1.021678 0.297193 0 0 255
0.639501 0.974416 0.315193 0 0 255
0.751736 1.030160 0.228193 0 0 255
0.758970 1.040208 0.171194 0 0 255
0.507165 0.970094 0.219194 0 0 255
0.762746 1.058067 0.138193 0 0 255
0.642348 0.973294 0.147193 0 0 255
0.558354 0.969077 0.363194 0 0 255
0.644539 0.978880 0.234194 0 0 255
0.600192 0.968878 0.186194 0 0 255
0.643473 0.976075 0.165193 0 0 255
0.673908 1.008677 0.285194 0 0 255
0.609681 0.968409 0.147193 0 0 255
0.651907 0.977379 0.108194 0 0 255
0.759186 1.036898 0.064755 0 0 255
0.606847 0.969402 0.249193 0 0 255
0.640407 1.009527 0.282193 0 0 255
0.728181 1.068458 0.279193 0 0 255
0.639470 0.974427 0.243194 0 0 255
0.748448 1.021782 0.072194 0 0 255
0.398984 1.017568 0.180193 0 0 255
0.738464 1.012817 0.186194 0 0 255
0.653373 1.022029 0.315193 0 0 255
0.736855 1.045695 0.268958 0 0 255
0.444689 0.975201 0.150194 0 0 255
0.556019 1.004075 0.396329 0 0 255
0.682130 1.070477 0.397723 0 0 255
0.457647 1.065395 0.415803 0 0 255
0.470328 0.974804 0.174194 0 0 255
0.711880 1.100674 0.360194 0 0 255
0.654265 1.020190 0.333193 0 0 255
0.497110 1.020832 0.321194 0 0 255
0.550261 0.956716 0.360194 0 0 255
0.639624 0.962567 0.150194 0 0 255
0.756055 1.102619 0.253944 0 0 255
0.582215 0.955983 0.123194 0 0 255
0.765799 1.021396 0.165193 0 0 255
0.478795 0.963559 0.371061 0 0 255
0.477232 0.959589 0.270194 0 0 255
0.758423 1.075891 0.352840 0 0 255
0.495786 0.969763 0.279193 0 0 255
0.608869 0.970360 0.267193 0 0 255
0.511937 0.969850 0.225194 0 0 255
0.614043 0.987669 0.389074 0 0 255
0.579194 1.046537 0.412075 0 0 255
0.480439 0.967730 0.225194 0 0 255
0.488726 1.014461 0.291194 0 0 255
0.728229 0.991055 0.097935 0 0 255
0.773041 1.079806 0.243194 0 0 255
0.681204 1.086962 0.414194 0 0 255
0.679173 1.058744 0.399193 0 0 255
0.653710 1.071998 0.412854 0 0 255
0.399909 0.992488 0.159193 0 0 255
0.401661 0.984270 0.174194 0 0 255
0.762787 1.095155 0.192194 0 0 255
0.746910 0.997552 0.111194 0 0 255
0.566644 0.965565 0.288194 0 0 255
0.777442 1.065176 0.078193 0 0 255
0.655360 0.958495 0.318193 0 0 255
0.721039 0.980988 0.135364 0 0 255
0.647906 0.984002 0.360194 0 0 255
0.421871 0.982758 0.127654 0 0 255
0.600651 0.961857 0.144194 0 0 255
0.458664 0.977937 0.175914 0 0 255
0.370866 1.041541 0.181274 0 0 255
0.583509 0.967452 0.136652 0 0 255
0.510404 0.961945 0.147193 0 0 255
0.552615 0.966724 0.099194 0 0 255
0.634589 0.969902 0.249193 0 0 255
0.760030 1.112713 0.195193 0 0 255
0.374502 1.091699 0.176135 0 0 255
0.747715 1.031744 0.270194 0 0 255
0.381017 1.018196 0.181024 0 0 255
0.709366 1.046850 0.387194 0 0 255
0.729241 1.116406 0.268822 0 0 255
0.486280 0.954162 0.294194 0 0 255
0.690166 1.025394 0.310800 0 0 255
0.650393 0.957165 0.297193 0 0 255
0.634558 0.969914 0.255194 0 0 255
0.547897 1.065314 0.413595 0 0 255
0.562587 0.955268 0.096193 0 0 255
0.647243 0.957355 0.237194 0 0 255
0.770991 1.042313 0.246193 0 0 255
0.645926 1.175020 0.335056 0 0 255
0.647420 1.009988 0.342194 0 0 255
0.716948 0.978787 0.102194 0 0 255
0.760521 1.116981 0.234194 0 0 255
0.436186 1.019035 0.180193 0 0 255
0.654036 1.162869 0.372194 0 0 255
0.712916 1.148631 0.256879 0 0 255
0.423563 0.978867 0.115824 0 0 255
0.754547 1.038726 0.267193 0 0 255
0.558887 0.962242 0.099194 0 0 255
0.666229 1.021925 0.331633 0 0 255
0.543787 0.956651 0.264193 0 0 255
0.501678 0.956163 0.291194 0 0 255
0.696687 1.009205 0.285194 0 0 255
0.586890 1.066075 0.414077 0 0 255
0.624607 0.965373 0.345194 0 0 255
0.756304 1.115419 0.126194 0 0 255
0.666904 1.105493 0.398341 0 0 255
0.767341 1.085276 0.207194 0 0 255
0.657011 0.973967 0.094680 0 0 255
0.694980 1.013056 0.336194 0 0 255
0.644069 0.998411 0.333788 0 0 255
0.529281 0.956570 0.072194 0 0 255
0.634592 0.969900 0.327194 0 0 255
0.647604 0.966456 0.381193 0 0 255
0.537358 0.959836 0.084194 0 0 255
0.649887 0.957427 0.162193 0 0 255
0.713034 0.977035 0.204194 0 0 255
0.728545 0.983670 0.153194 0 0 255
0.726957 1.126979 0.269836 0 0 255
0.561094 0.992403 0.394973 0 0 255
0.724503 0.981594 0.165193 0 0 255
0.684855 1.093766 0.396194 0 0 255
0.649711 0.976842 0.300193 0 0 255
0.745651 1.068025 0.346486 0 0 255
0.651446 0.992581 0.294194 0 0 255
0.498584 0.968661 0.345194 0 0 255
0.747511 1.138229 0.093219 0 0 255
0.749288 1.118183 0.091612 0 0 255
0.698118 0.996467 0.094640 0 0 255
0.775025 1.050006 0.204194 0 0 255
0.645254 0.985047 0.323810 0 0 255
0.416293 0.981730 0.123194 0 0 255
0.511951 1.014986 0.397083 0 0 255
0.671807 1.022952 0.372194 0 0 255
0.654248 0.987953 0.309194 0 0 255
0.774982 1.050023 0.210193 0 0 255
0.401485 1.045602 0.175744 0 0 255
0.492140 1.042135 0.402193 0 0 255
0.666822 1.015244 0.343651 0 0 255
0.673249 1.064302 0.404355 0 0 255
0.627788 0.957077 0.327194 0 0 255
0.491485 0.963030 0.171194 0 0 255
0.546792 0.956097 0.087193 0 0 255
0.733809 1.095260 0.334577 0 0 255
0.530910 0.968826 0.222194 0 0 255
0.678831 1.062102 0.417512 0 0 255
0.642463 0.986146 0.291120 0 0 255
0.774912 1.044080 0.195193 0 0 255
0.655377 0.981060 0.384193 0 0 255
0.763799 1.099568 0.252194 0 0 255
0.506876 1.026658 0.400235 0 0 255
0.474651 0.969405 0.171194 0 0 255
0.644624 0.998192 0.363194 0 0 255
0.735728 1.017119 0.270194 0 0 255
0.478360 1.019752 0.297193 0 0 255
0.662968 1.005458 0.264193 0 0 255
0.580594 1.062107 0.411194 0 0 255
0.752318 1.007360 0.243194 0 0 255
0.514490 0.955947 0.190632 0 0 255
0.772308 1.094771 0.186194 0 0 255
0.558923 0.962335 0.093194 0 0 255
0.643678 1.172681 0.366193 0 0 255
0.490679 0.955653 0.078193 0 0 255
0.723257 1.035729 0.336194 0 0 255
0.411321 0.983689 0.180193 0 0 255
0.509497 1.057869 0.414776 0 0 255
0.449758 1.102664 0.414194 0 0 255
0.565155 0.961784 0.375735 0 0 255
0.559784 0.956337 0.309194 0 0 255
0.737193 1.087479 0.349523 0 0 255
0.573441 1.081047 0.415031 0 0 255
0.566794 0.965946 0.159193 0 0 255
0.566136 0.956090 0.078193 0 0 255
0.426691 1.019551 0.181197 0 0 255
0.759522 1.078683 0.263871 0 0 255
0.524930 0.966079 0.339194 0 0 255
0.481134 0.965862 0.192194 0 0 255
0.756333 1.127883 0.201194 0 0 255
0.624725 0.965674 0.084194 0 0 255
0.767237 1.085317 0.132194 0 0 255
0.619142 0.967870 0.084194 0 0 255
0.747585 1.130231 0.102194 0 0 255
0.488859 1.062774 0.409815 0 0 255
0.477441 1.009233 0.328380 0 0 255
0.540118 0.955525 0.220395 0 0 255
0.770011 1.097121 0.091035 0 0 255
0.646671 1.176912 0.309194 0 0 255
0.640015 0.983886 0.351193 0 0 255
0.458324 1.042558 0.421920 0 0 255
0.646603 1.152182 0.386099 0 0 255
0.650244 0.989530 0.382335 0 0 255
0.521641 1.023215 0.393194 0 0 255
0.624658 0.965505 0.198193 0 0 255
0.478034 1.002552 0.283320 0 0 255
0.521424 1.014479 0.392448 0 0 255
0.683018 1.028209 0.306194 0 0 255
0.644352 1.031870 0.405194 0 0 255
0.764214 1.102630 0.165193 0 0 255
0.437977 0.974532 0.159193 0 0 255
0.704349 1.069584 0.396194 0 0 255
0.760537 1.097629 0.257584 0 0 255
0.660520 1.031988 0.396194 0 0 255
0.631346 0.966109 0.264193 0 0 255
0.514490 0.955947 0.100507 0 0 255
0.510257 0.973736 0.372194 0 0 255
0.653507 0.988245 0.321194 0 0 255
0.572317 0.963596 0.189194 0 0 255
0.718164 0.998244 0.085909 0 0 255
0.643729 1.063032 0.409720 0 0 255
0.707438 1.101983 0.381193 0 0 255
0.511339 0.956134 0.300193 0 0 255
0.568113 1.034779 0.394960 0 0 255
0.363085 1.038158 0.176237 0 0 255
0.762061 1.019644 0.091007 0 0 255
0.750611 1.027379 0.105193 0 0 255
0.643837 1.017848 0.309194 0 0 255
0.705139 1.014289 0.300193 0 0 255
0.637277 0.968842 0.069194 0 0 255
0.584217 1.009090 0.393194 0 0 255
0.639071 0.964911 0.075194 0 0 255
0.488420 1.030703 0.285194 0 0 255
0.653366 1.022011 0.384193 0 0 255
0.595773 0.965846 0.380807 0 0 255
0.688574 0.984104 0.162193 0 0 255
0.729666 1.035629 0.268851 0 0 255
0.585046 0.966847 0.174194 0 0 255
0.561771 0.969567 0.384394 0 0 255
0.713061 0.977102 0.135194 0 0 255
0.570738 0.959586 0.068168 0 0 255
0.703024 1.017105 0.335709 0 0 255
0.763421 1.104949 0.225194 0 0 255
0.558779 0.973969 0.372194 0 0 255
0.595666 0.973758 0.375194 0 0 255
0.576211 0.965296 0.105193 0 0 255
0.718472 0.978776 0.117194 0 0 255
0.746979 1.046839 0.360194 0 0 255
0.494782 0.966935 0.309194 0 0 255
0.727585 1.091263 0.306194 0 0 255
0.632142 1.041802 0.397708 0 0 255
0.776670 1.075152 0.132194 0 0 255
0.578338 0.966265 0.078193 0 0 255
0.595617 0.969131 0.240194 0 0 255
0.640691 0.977171 0.288194 0 0 255
0.582240 0.996971 0.394823 0 0 255
0.586300 0.966353 0.124642 0 0 255
0.474651 1.010333 0.316799 0 0 255
0.493749 1.006034 0.264193 0 0 255
0.723195 1.101056 0.327194 0 0 255
0.507704 0.963276 0.153194 0 0 255
0.490539 0.960629 0.144194 0 0 255
0.766457 1.021137 0.081194 0 0 255
0.595434 1.030467 0.406509 0 0 255
0.653646 0.957238 0.270194 0 0 255
0.634587 0.969902 0.318193 0 0 255
0.589599 0.974726 0.376872 0 0 255
0.511269 0.955956 0.171194 0 0 255
0.609626 0.968270 0.291194 0 0 255
0.735805 1.088025 0.285194 0 0 255
0.716622 1.031095 0.270194 0 0 255
0.649122 0.986747 0.294194 0 0 255
0.613196 1.042816 0.403992 0 0 255
0.595583 0.969145 0.315193 0 0 255
0.698203 0.980311 0.092766 0 0 255
0.640639 0.977191 0.327194 0 0 255
0.666735 1.023210 0.387194 0 0 255
0.582900 0.965906 0.294194 0 0 255
0.763933 1.098065 0.123194 0 0 255
0.413920 1.011685 0.175803 0 0 255
0.650414 0.957219 0.245081 0 0 255
0.515505 0.974894 0.376805 0 0 255
0.710549 1.068954 0.391066 0 0 255
0.688560 0.984110 0.135194 0 0 255
0.618231 0.957372 0.144194 0 0 255
0.671982 0.987415 0.097374 0 0 255
0.484392 1.019392 0.396194 0 0 255
0.677210 1.004702 0.375194 0 0 255
0.742843 1.077266 0.345194 0 0 255
0.740999 0.992473 0.132194 0 0 255
0.415114 1.040233 0.180193 0 0 255
0.461842 0.973461 0.174194 0 0 255
0.649016 1.015808 0.339194 0 0 255
0.775519 1.070178 0.240194 0 0 255
0.602990 0.967793 0.207194 0 0 255
0.444031 1.006272 0.181538 0 0 255
0.693972 1.043241 0.376723 0 0 255
0.750180 1.008203 0.249193 0 0 255
0.514797 0.968724 0.357194 0 0 255
0.699135 0.986393 0.210193 0 0 255
0.674220 0.984913 0.135194 0 0 255
0.462530 0.963193 0.165193 0 0 255
0.712581 1.000442 0.250825 0 0 255
0.702009 0.973603 0.156194 0 0 255
0.699133 1.015413 0.325872 0 0 255
0.683644 0.984280 0.087193 0 0 255
0.635273 0.976081 0.376800 0 0 255
0.495880 0.998746 0.396975 0 0 255
0.579429 0.969059 0.213193 0 0 255
0.621515 0.957524 0.120194 0 0 255
0.712588 1.074600 0.387194 0 0 255
0.535558 0.968503 0.282193 0 0 255
0.620225 0.970620 0.300193 0 0 255
0.621483 1.047481 0.405194 0 0 255
0.566065 0.955909 0.258194 0 0 255
0.740236 1.144318 0.073602 0 0 255
0.728900 1.082796 0.282193 0 0 255
0.747171 0.998212 0.168194 0 0 255
0.507472 0.954504 0.249193 0 0 255
0.647682 1.019559 0.297193 0 0 255
0.757072 1.015161 0.068312 0 0 255
0.544009 0.957217 0.118977 0 0 255
0.475578 1.037246 0.399193 0 0 255
0.575566 0.967356 0.336194 0 0 255
0.498355 0.955916 0.168194 0 0 255
0.598565 0.964746 0.073700 0 0 255
0.745103 1.140300 0.192194 0 0 255
0.565083 0.969786 0.264193 0 0 255
0.671309 0.981232 0.168194 0 0 255
0.646946 0.981156 0.154628 0 0 255
0.619050 0.967636 0.198193 0 0 255
0.554497 0.975656 0.379942 0 0 255
0.482391 0.968591 0.300193 0 0 255
0.641185 0.970528 0.279193 0 0 255
0.487119 0.968317 0.255194 0 0 255
0.720371 0.995661 0.174194 0 0 255
0.593657 1.050512 0.406822 0 0 255
0.545038 0.968014 0.213193 0 0 255
0.707032 0.994542 0.240194 0 0 255
0.641734 1.038023 0.393194 0 0 255
0.765484 1.073110 0.159193 0 0 255
0.598757 0.957049 0.264193 0 0 255
0.528296 0.974626 0.372194 0 0 255
0.502171 0.965603 0.168194 0 0 255
0.737110 0.997229 0.252605 0 0 255
0.706882 0.989790 0.156194 0 0 255
0.718385 1.047918 0.330193 0 0 255
0.645276 0.978589 0.372194 0 0 255
0.762520 1.106521 0.111194 0 0 255
0.651413 1.000684 0.321194 0 0 255
0.686283 1.026924 0.387194 0 0 255
0.650837 0.982848 0.322223 0 0 255
0.449697 0.962123 0.177193 0 0 255
0.679679 1.006955 0.265716 0 0 255
0.765455 1.073121 0.153194 0 0 255
0.727994 0.982271 0.105193 0 0 255
0.539462 0.970230 0.288194 0 0 255
0.619107 0.967782 0.174194 0 0 255
0.719923 1.068487 0.381193 0 0 255
0.485264 0.967459 0.174194 0 0 255
0.708526 0.985918 0.078193 0 0 255
0.643386 0.976110 0.123194 0 0 255
0.766079 1.098671 0.084194 0 0 255
0.552694 0.966693 0.243194 0 0 255
0.747437 1.018956 0.225194 0 0 255
0.766675 1.091986 0.126194 0 0 255
0.689024 1.009723 0.294194 0 0 255
0.764490 1.091292 0.183194 0 0 255
0.515451 0.966573 0.321194 0 0 255
0.764675 1.059023 0.114193 0 0 255
0.532590 1.010081 0.356142 0 0 255
0.717614 0.996847 0.135194 0 0 255
0.621942 0.966793 0.147193 0 0 255
0.636233 0.966029 0.084194 0 0 255
0.515491 0.966675 0.240194 0 0 255
0.739247 1.010837 0.225194 0 0 255
0.654585 0.992365 0.258194 0 0 255
0.686389 0.983063 0.213193 0 0 255
0.584533 0.961866 0.162193 0 0 255
0.488417 1.014583 0.318193 0 0 255
0.480413 0.967666 0.177193 0 0 255
0.512543 1.008304 0.392293 0 0 255
0.524190 0.968248 0.222194 0 0 255
0.667539 0.984323 0.138193 0 0 255
0.587934 0.970499 0.204194 0 0 255
0.732622 1.100431 0.279193 0 0 255
0.766635 1.075881 0.141194 0 0 255
0.518696 1.007552 0.348193 0 0 255
0.652414 1.019594 0.396194 0 0 255
0.372643 1.021495 0.180713 0 0 255
0.527268 0.955642 0.273194 0 0 255
0.619052 0.967642 0.189194 0 0 255
0.623602 0.971005 0.172723 0 0 255
0.644057 1.006564 0.372194 0 0 255
0.738068 1.083909 0.336194 0 0 255
0.408130 1.010741 0.180193 0 0 255
0.596741 0.976486 0.381193 0 0 255
0.543199 0.967208 0.300193 0 0 255
0.662661 1.016883 0.276194 0 0 255
0.679040 1.100712 0.402193 0 0 255
0.726960 1.020573 0.276879 0 0 255
0.566687 0.965673 0.342194 0 0 255
0.661533 0.977260 0.252194 0 0 255
0.636373 0.978872 0.343607 0 0 255
0.504216 0.966443 0.342194 0 0 255
0.511189 1.053979 0.410152 0 0 255
0.543845 0.964985 0.255194 0 0 255
0.619120 0.967815 0.180193 0 0 255
0.743248 1.065747 0.354194 0 0 255
0.615179 0.965996 0.309194 0 0 255
0.541164 0.966365 0.102194 0 0 255
0.527046 0.967122 0.276194 0 0 255
0.728515 0.983596 0.180193 0 0 255
0.737533 1.022857 0.253745 0 0 255
0.514380 0.963853 0.153194 0 0 255
0.714111 1.045253 0.324194 0 0 255
0.508013 0.955875 0.255194 0 0 255
0.592982 0.966945 0.181781 0 0 255
0.740622 1.055258 0.357194 0 0 255
0.546507 0.959457 0.126194 0 0 255
0.683946 1.042345 0.381193 0 0 255
0.764944 1.063650 0.066194 0 0 255
0.663028 0.989242 0.267193 0 0 255
0.752418 1.052461 0.088699 0 0 255
0.556781 0.965083 0.178701 0 0 255
0.640066 0.983866 0.282193 0 0 255
0.732710 1.092469 0.274888 0 0 255
0.476849 1.015915 0.277512 0 0 255
0.594431 0.966374 0.144194 0 0 255
0.549167 1.035794 0.391759 0 0 255
0.717024 1.072853 0.357194 0 0 255
0.669410 1.001327 0.261194 0 0 255
0.570145 0.966267 0.184698 0 0 255
0.577372 0.968243 0.177193 0 0 255
0.760138 1.042972 0.126194 0 0 255
0.482462 0.968564 0.315193 0 0 255
0.749035 1.060244 0.274125 0 0 255
0.626921 0.971250 0.354194 0 0 255
0.766908 1.108017 0.174194 0 0 255
0.729273 1.001888 0.105193 0 0 255
0.759812 1.091466 0.243194 0 0 255
0.639967 1.000027 0.300193 0 0 255
0.764331 1.086462 0.213193 0 0 255
0.641203 0.970521 0.357194 0 0 255
0.628557 0.967215 0.207194 0 0 255
0.670120 1.023617 0.292689 0 0 255
0.600208 0.968916 0.066194 0 0 255
0.730851 1.022265 0.259744 0 0 255
0.666105 1.115481 0.393194 0 0 255
0.462556 0.979629 0.181286 0 0 255
0.430160 0.995614 0.181735 0 0 255
0.501177 1.036747 0.399193 0 0 255
0.461443 1.038105 0.399193 0 0 255
0.528851 0.967849 0.366193 0 0 255
0.696256 1.032668 0.313695 0 0 255
0.673237 1.019165 0.282193 0 0 255
0.477441 1.009233 0.277499 0 0 255
0.720362 1.003826 0.250745 0 0 255
0.389475 0.998743 0.109499 0 0 255
0.760452 1.113785 0.184642 0 0 255
0.771872 1.060921 0.097418 0 0 255
0.530948 0.968810 0.234194 0 0 255
0.761032 1.061966 0.087193 0 0 255
0.508113 0.968132 0.291194 0 0 255
0.658210 1.021860 0.294194 0 0 255
0.485247 0.967466 0.354194 0 0 255
0.660670 1.011218 0.354194 0 0 255
0.663101 0.981242 0.070850 0 0 255
0.683672 0.984353 0.153194 0 0 255
0.484845 0.962546 0.156194 0 0 255
0.764485 1.054157 0.084194 0 0 255
0.758977 1.040205 0.150194 0 0 255
0.619033 0.992151 0.394767 0 0 255
0.727802 1.058934 0.357194 0 0 255
0.489368 0.965842 0.163642 0 0 255
0.577290 0.968036 0.204194 0 0 255
0.616919 0.970413 0.247669 0 0 255
0.553716 0.969515 0.318193 0 0 255
0.489099 0.969174 0.204194 0 0 255
0.660039 0.985671 0.225194 0 0 255
0.761773 1.113265 0.099194 0 0 255
0.650832 0.991022 0.369193 0 0 255
0.479238 0.992404 0.393194 0 0 255
0.762923 1.111872 0.234194 0 0 255
0.730935 1.006110 0.187692 0 0 255
0.727176 1.086606 0.321194 0 0 255
0.674686 1.108877 0.406231 0 0 255
0.511939 0.969849 0.303194 0 0 255
0.555620 0.970322 0.303194 0 0 255
0.489840 0.967039 0.240194 0 0 255
0.512206 0.966520 0.208695 0 0 255
0.754730 1.033774 0.123194 0 0 255
0.744212 1.129854 0.089186 0 0 255
0.678110 0.986602 0.222194 0 0 255
0.748646 1.026514 0.225194 0 0 255
0.389475 0.998743 0.179591 0 0 255
0.646571 1.037501 0.402193 0 0 255
0.642789 0.998915 0.372194 0 0 255
0.612463 0.967285 0.171194 0 0 255
0.763291 1.104620 0.105193 0 0 255
0.765276 1.044173 0.068045 0 0 255
0.705877 1.061122 0.375194 0 0 255
0.656925 0.981935 0.153194 0 0 255
0.589561 0.966445 0.270194 0 0 255
0.637473 0.981663 0.382863 0 0 255
0.573405 0.966356 0.246193 0 0 255
0.619710 0.969313 0.292715 0 0 255
0.763387 1.051365 0.126194 0 0 255
0.678444 1.028376 0.345194 0 0 255
0.541051 0.966080 0.363194 0 0 255
0.436428 1.031838 0.414194 0 0 255
0.682749 1.018642 0.279193 0 0 255
0.454286 1.092515 0.414194 0 0 255
0.483786 0.968042 0.361723 0 0 255
0.598419 0.956188 0.135194 0 0 255
0.656908 0.981890 0.171194 0 0 255
0.642885 1.011775 0.277658 0 0 255
0.755017 1.038541 0.231193 0 0 255
0.726790 1.052884 0.346675 0 0 255
0.539477 0.970267 0.276194 0 0 255
0.514757 0.968740 0.198193 0 0 255
0.497517 0.965858 0.150194 0 0 255
0.559336 0.967301 0.219194 0 0 255
0.521408 0.969344 0.261194 0 0 255
0.485998 0.965473 0.144194 0 0 255
0.704837 0.988967 0.114193 0 0 255
0.508038 0.968162 0.198193 0 0 255
0.608875 0.970358 0.354194 0 0 255
0.762752 1.058065 0.237194 0 0 255
0.472158 0.954893 0.075194 0 0 255
0.759521 1.049664 0.243194 0 0 255
0.562316 0.970948 0.288194 0 0 255
0.539477 0.970270 0.198193 0 0 255
0.627869 0.969324 0.327194 0 0 255
0.697074 1.108414 0.378194 0 0 255
0.506624 0.968719 0.247660 0 0 255
0.753396 1.093994 0.267193 0 0 255
0.576570 0.970186 0.306194 0 0 255
0.763355 1.051377 0.132194 0 0 255
0.651717 1.009640 0.348193 0 0 255
0.540626 0.964998 0.094667 0 0 255
0.535588 0.968580 0.327194 0 0 255
0.735133 1.088290 0.327194 0 0 255
0.552619 0.966722 0.108194 0 0 255
0.635275 0.967898 0.336194 0 0 255
0.693111 0.983757 0.180193 0 0 255
0.548629 0.955396 0.324194 0 0 255
0.511177 0.955723 0.291194 0 0 255
0.478299 0.962298 0.354194 0 0 255
0.477205 0.959520 0.360194 0 0 255
0.436530 0.980207 0.180193 0 0 255
0.747555 1.023743 0.138193 0 0 255
0.760534 1.052489 0.237194 0 0 255
0.634483 0.969943 0.309194 0 0 255
0.695185 0.984725 0.132194 0 0 255
0.693720 0.985302 0.124714 0 0 255
0.755295 1.035207 0.112677 0 0 255
0.648850 0.990079 0.246193 0 0 255
0.631975 0.967707 0.067697 0 0 255
0.478203 0.970241 0.361739 0 0 255
0.653285 1.152774 0.385904 0 0 255
0.507014 0.965341 0.138193 0 0 255
0.488319 0.954992 0.093194 0 0 255
0.735126 1.020581 0.093194 0 0 255
0.645265 0.976891 0.075194 0 0 255
0.560022 0.965123 0.282193 0 0 255
0.576827 0.966860 0.085656 0 0 255
0.751920 1.001068 0.105193 0 0 255
0.585201 0.963561 0.118695 0 0 255
0.743425 1.017312 0.108194 0 0 255
0.755295 1.035207 0.208666 0 0 255
0.616255 0.964226 0.093194 0 0 255
0.639671 0.987246 0.364667 0 0 255
0.747390 1.018975 0.102194 0 0 255
0.710998 0.975271 0.222194 0 0 255
0.644836 0.992174 0.372194 0 0 255
0.559148 0.962907 0.378194 0 0 255
0.489368 0.965842 0.383455 0 0 255
0.760236 1.047751 0.123194 0 0 255
0.498577 0.968664 0.258194 0 0 255
0.747432 1.018958 0.216193 0 0 255
0.757955 1.123818 0.222194 0 0 255
0.536062 0.961599 0.165193 0 0 255
0.599041 0.965957 0.219194 0 0 255
0.645418 0.985462 0.378194 0 0 255
0.766035 1.066444 0.084194 0 0 255
0.627476 0.964470 0.123194 0 0 255
0.616919 0.970413 0.256664 0 0 255
0.505524 0.965928 0.148641 0 0 255
