ply
format ascii 1.0
element vertex 1260
property float x
property float y
property float z
property uchar red
property uchar green
property uchar blue
end_header
-0.253376 -0.420000 0.029238 149 65 35
-0.296945 0.219444 0.024107 151 71 31
-0.287627 0.255556 0.023059 147 67 28
-0.258402 -0.344176 0.028168 160 75 47
-0.304994 -0.334488 0.028671 161 76 52
-0.280672 -0.681919 0.175348 67 63 61
-0.256032 -0.679841 0.174845 86 84 80
-0.285353 -0.668783 0.181139 75 75 71
-0.604264 -0.643268 0.028222 29 22 15
-0.552614 0.258450 -0.033568 13 11 8
-0.566108 0.248709 -0.037818 11 8 10
-0.586418 0.240562 -0.049645 19 11 8
-0.574263 0.230568 -0.030192 8 7 10
-0.564557 0.235708 -0.033236 12 8 7
-0.578213 0.237116 -0.034977 8 6 8
-0.437297 0.085148 0.027528 157 70 29
-0.413119 0.079012 0.026807 154 66 34
0.030483 -0.156687 0.020153 154 77 49
-0.340649 0.165835 0.024807 150 67 35
-0.441504 -0.412622 0.030906 163 76 45
-0.473264 -0.422831 0.029115 161 76 49
-0.463493 -0.405400 0.028598 142 82 62
-0.147551 0.023281 0.020920 148 67 43
0.081027 -0.242667 0.020111 164 79 46
-0.556214 -0.638480 -0.210057 35 21 13
-0.556862 -0.630691 -0.181747 35 23 21
-0.557497 -0.610621 -0.189647 35 23 15
-0.192616 -0.628609 0.173041 100 95 95
-0.217346 -0.640235 0.182938 93 90 87
-0.188211 -0.607614 0.178193 92 89 90
-0.203451 -0.614640 0.184639 92 89 87
-0.259083 -0.426347 -0.283745 21 15 7
-0.481471 0.158797 0.028290 167 78 36
-0.491695 0.191975 0.027082 155 71 33
-0.181856 -0.546525 -0.281737 11 10 6
-0.199649 -0.575751 -0.285686 26 17 14
-0.198002 -0.555054 -0.284191 11 7 4
-0.396087 -0.673144 0.045283 33 14 8
-0.394011 -0.654008 0.046249 36 15 8
-0.477407 -0.284253 0.028119 42 25 14
-0.487158 -0.265092 0.028348 152 75 43
-0.502590 -0.284340 0.027689 107 50 31
-0.509744 -0.258352 0.031408 164 77 46
-0.178257 0.225292 0.022386 146 67 29
-0.569842 -0.309824 -0.098084 24 21 17
-0.211366 -0.461757 0.115424 12 10 13
-0.202187 -0.449185 0.124083 22 24 23
-0.213532 -0.445338 0.029036 113 42 27
-0.232536 -0.485253 0.030425 118 48 32
-0.229267 -0.454232 0.029011 122 46 32
-0.207457 -0.473230 0.032688 93 39 22
-0.199100 -0.452230 0.030659 99 51 35
-0.353678 -0.608245 0.168988 60 55 57
-0.025330 -0.344983 0.023634 155 78 55
-0.003703 -0.341170 0.023273 156 78 55
-0.204893 -0.066563 0.024336 151 65 42
-0.191541 -0.086119 0.023416 153 72 44
-0.580081 -0.592542 0.080938 140 105 92
-0.575969 -0.593375 0.074973 139 103 93
-0.586641 -0.571950 0.084681 140 106 89
-0.435156 -0.382902 0.031446 163 79 40
-0.066205 -0.334424 0.023541 156 76 54
-0.037167 -0.319878 0.022667 157 78 54
-0.212490 0.248325 -0.276745 14 12 10
-0.170002 -0.558498 -0.280638 19 20 16
-0.553536 -0.443178 -0.242595 32 21 20
-0.553941 -0.422486 -0.240465 30 21 14
-0.557314 -0.452055 -0.221287 30 23 11
-0.214490 -0.535870 -0.285409 21 14 10
-0.207942 -0.515446 -0.282750 9 8 3
-0.558765 -0.443333 -0.193045 39 29 19
-0.560034 -0.476527 -0.183504 41 27 21
-0.054748 -0.002075 0.024974 175 158 148
-0.051601 0.029617 0.025058 157 139 130
-0.557493 -0.461885 -0.216348 39 25 17
-0.057425 -0.233275 0.021848 154 73 49
-0.562459 -0.393271 -0.138778 30 20 18
-0.569083 -0.414212 -0.121340 24 18 11
-0.561498 -0.387834 -0.148279 43 27 24
-0.570020 -0.393803 -0.102437 30 19 17
-0.565848 -0.381746 -0.114906 28 19 14
-0.350740 -0.683747 0.145708 69 65 66
-0.366057 -0.643860 0.155780 75 74 72
-0.260351 -0.339084 -0.278089 26 16 11
-0.261940 -0.575098 0.195152 58 56 53
-0.261549 -0.565104 0.189306 52 49 47
-0.241333 -0.579251 0.193989 73 69 63
-0.261396 -0.591379 0.199627 77 77 72
-0.504126 -0.653897 0.032663 152 74 44
-0.496462 -0.671613 0.029730 152 72 39
-0.484727 -0.645622 0.027319 152 71 39
-0.581009 -0.331763 0.073869 31 18 12
-0.595197 -0.343747 0.082383 27 19 13
-0.606642 -0.343846 0.081718 29 21 11
-0.595733 -0.324481 0.074895 29 20 13
-0.578451 0.224478 0.028155 85 33 21
-0.570460 0.181351 0.025176 85 39 16
-0.556420 0.219303 0.026859 86 35 18
-0.587847 0.227721 0.032950 54 23 10
-0.574935 0.204171 0.022954 82 39 20
-0.584654 0.214199 0.019390 84 41 25
-0.591541 0.222511 0.021387 68 35 20
-0.568726 0.217186 0.025948 84 38 19
-0.627456 -0.504419 0.106422 97 64 53
-0.625347 -0.479815 0.105387 114 81 65
-0.386090 -0.583398 0.089886 25 21 20
-0.382933 -0.577146 0.095024 23 19 19
-0.143544 0.150241 0.021421 150 68 29
-0.618382 -0.543971 0.037340 26 17 14
-0.611869 -0.557278 0.019222 27 17 14
-0.307686 0.083650 0.024981 149 64 34
-0.285427 0.079825 0.024511 151 66 32
-0.273007 -0.597884 0.200530 68 68 65
-0.558272 -0.429456 -0.211856 42 27 17
-0.562620 -0.386636 -0.185156 38 27 20
-0.558806 -0.396029 -0.217809 40 26 18
-0.559879 -0.396049 -0.186177 41 26 22
-0.166802 -0.674429 -0.276065 24 15 14
-0.191532 -0.692689 -0.274238 24 17 13
-0.087252 -0.070147 0.024897 149 77 51
-0.298145 -0.181191 0.027719 152 68 45
-0.206686 -0.471550 0.041828 73 29 18
-0.206715 -0.453296 0.067086 32 18 13
-0.218558 -0.477456 0.058441 61 28 18
-0.210765 -0.463535 0.066198 90 65 59
-0.195635 -0.457751 0.042986 104 66 56
-0.609543 -0.620168 0.035134 28 21 15
-0.605197 -0.622325 0.019304 28 18 18
-0.550956 0.074993 0.029398 90 36 22
-0.571218 0.081526 0.027189 87 36 21
-0.560548 0.072641 0.029014 91 38 21
-0.567604 0.054559 0.027048 91 39 19
-0.588251 -0.540272 -0.076335 25 19 15
-0.543631 -0.579788 -0.277747 22 24 27
-0.545694 -0.542401 -0.279088 24 26 24
-0.548845 -0.555532 -0.272572 20 19 21
-0.548062 -0.548545 -0.262121 23 18 17
-0.547809 0.115087 -0.033798 9 8 6
-0.558485 0.110001 -0.030139 10 10 3
-0.543990 0.123399 -0.033112 11 9 4
-0.210739 0.241061 -0.281913 10 12 12
-0.600999 0.260534 0.074120 30 21 14
-0.620620 0.278559 0.086962 33 18 17
-0.448304 -0.564120 0.029810 138 61 35
-0.574516 -0.304420 -0.079136 26 28 22
-0.407364 -0.570904 0.030624 101 42 19
-0.120368 -0.142833 0.022532 157 71 49
-0.141724 -0.137761 0.023388 155 71 44
-0.541294 -0.638541 -0.279462 21 25 20
-0.545520 -0.627254 -0.273979 26 29 30
-0.546802 -0.662698 -0.259981 22 20 16
-0.545561 -0.651207 -0.272411 23 22 19
-0.082623 -0.263961 0.022464 153 74 45
-0.584788 0.268982 -0.125402 24 16 11
-0.538679 -0.362800 -0.282688 12 12 14
-0.321405 -0.602063 0.179926 64 60 57
-0.320018 -0.581469 0.170306 61 57 53
-0.627079 -0.621777 0.096997 30 23 18
-0.626413 -0.619685 0.090457 30 22 15
-0.620656 -0.639898 0.082584 33 22 16
-0.625292 -0.617122 0.103065 33 24 16
-0.397757 -0.638724 0.035087 88 36 12
-0.394308 -0.637050 0.041756 90 35 15
-0.395786 -0.608658 0.031500 88 29 13
-0.396193 -0.665651 0.034366 91 35 20
-0.405649 -0.629253 0.031553 90 33 14
-0.547464 -0.574862 -0.263142 28 20 18
-0.554290 -0.536216 -0.236778 31 20 18
-0.556795 -0.539815 -0.220705 31 25 16
-0.395959 0.103925 0.026334 145 65 33
-0.363611 0.155799 0.025328 152 70 32
-0.546735 -0.223255 0.032815 93 40 21
-0.558142 -0.191391 0.030973 97 38 21
-0.486868 -0.138264 0.030242 163 72 35
-0.511913 -0.140891 0.031016 164 73 37
-0.503328 -0.119446 0.030679 161 73 36
-0.245387 0.226540 0.023263 150 63 30
-0.279205 -0.368947 -0.282198 18 13 7
-0.272453 -0.353807 -0.281980 22 13 11
-0.259052 -0.353390 -0.272539 34 23 16
-0.433436 -0.453675 0.031274 160 80 54
-0.415223 -0.449383 0.031652 159 80 58
-0.389598 -0.425345 0.031525 160 79 51
-0.250342 0.280150 -0.282104 14 12 12
-0.512521 -0.619320 0.034219 146 84 64
-0.508845 -0.604249 0.033173 143 80 56
-0.506357 -0.588056 0.030696 136 87 72
-0.334815 -0.063558 0.026428 151 66 34
-0.081311 -0.023916 0.024451 135 89 69
-0.573400 -0.475410 -0.128778 24 18 11
-0.543041 -0.078571 -0.028809 29 26 28
-0.550836 -0.057811 -0.030264 19 23 28
-0.213748 -0.680819 -0.276628 26 17 15
-0.243702 -0.688763 -0.278931 26 15 14
-0.186799 0.177471 0.021695 148 64 33
-0.191374 0.188007 0.021304 145 66 33
-0.169970 -0.373091 0.026935 131 70 48
-0.184931 -0.342232 0.026322 147 75 50
-0.562660 -0.651769 0.071479 145 79 54
-0.541380 -0.051312 0.030823 153 71 40
-0.183907 -0.559213 -0.281462 17 12 8
-0.596272 -0.564701 0.095672 151 114 103
-0.592931 -0.540861 0.087446 69 44 30
-0.145734 -0.580534 -0.275928 32 25 22
-0.158757 -0.547020 -0.270381 25 28 26
-0.165514 -0.571168 -0.281956 26 31 24
-0.158684 -0.558116 -0.278132 27 29 25
-0.551429 -0.211555 -0.027028 27 29 36
-0.549882 -0.195241 -0.027544 35 36 37
-0.539751 -0.222833 -0.025763 42 39 44
-0.537587 -0.198710 -0.025721 30 26 36
-0.037159 -0.058372 0.024956 149 86 63
-0.065613 -0.063045 0.025220 152 78 52
-0.114348 -0.156557 0.022490 144 68 45
-0.076703 -0.116773 0.021594 148 69 48
-0.642499 0.313569 0.092173 37 20 16
-0.615535 0.299892 0.083663 29 20 12
-0.616632 0.313707 0.083519 30 20 13
-0.628664 0.321519 0.089744 33 18 15
-0.359764 -0.147315 0.028237 157 70 40
-0.381839 -0.144524 0.027988 157 70 40
-0.615497 -0.661207 0.099867 37 28 19
-0.617767 -0.659356 0.090700 33 23 16
-0.610519 -0.661285 0.102710 71 51 45
-0.565063 -0.477052 -0.164779 22 19 13
-0.564941 -0.500903 -0.166370 28 17 15
-0.568521 -0.482019 -0.149627 24 19 13
-0.491232 -0.304825 0.028031 55 35 23
-0.492019 -0.330918 0.027950 102 71 56
-0.501938 -0.319090 0.027204 68 41 30
-0.499145 -0.304659 0.027415 64 38 29
-0.612997 -0.476874 0.023721 25 17 14
-0.618421 -0.491456 0.037222 24 17 10
-0.607574 -0.486226 -0.002403 25 16 11
-0.615326 -0.497702 0.023683 25 15 13
0.065111 -0.170449 0.019426 159 76 52
-0.192536 -0.416734 0.031737 76 30 11
-0.191752 -0.449663 0.035012 73 30 15
-0.211795 -0.527817 -0.278825 10 7 4
-0.508241 0.256667 0.025017 154 75 30
-0.510582 0.294728 0.025532 153 71 35
-0.601577 -0.539175 0.097658 150 110 95
-0.601638 -0.519362 0.097100 106 77 60
-0.614089 -0.525957 0.103779 136 104 90
-0.595354 -0.520151 0.089376 126 96 82
-0.450570 -0.465319 0.030508 166 84 54
-0.131963 0.231243 0.020602 145 66 38
-0.122682 0.219041 0.020624 150 68 33
-0.578180 0.074622 0.018535 31 15 6
-0.575350 0.076116 0.023869 94 39 19
-0.581915 0.107998 0.002596 26 18 9
-0.595139 -0.550711 -0.051778 25 17 13
-0.602543 -0.560101 -0.018778 24 17 14
-0.599213 -0.535548 -0.036153 23 17 12
-0.214572 0.285298 -0.277508 13 9 8
-0.208032 0.265404 -0.276435 18 14 13
-0.193740 -0.596362 0.181989 106 99 98
-0.192340 -0.586731 0.177790 106 99 98
-0.214207 0.112228 0.022963 153 68 34
-0.269633 -0.369493 -0.280465 21 15 6
-0.303710 -0.261008 0.028147 161 80 43
-0.558366 -0.570961 -0.196712 37 24 20
-0.468334 0.241000 0.025373 161 74 35
-0.491508 0.240016 0.025643 157 75 32
-0.368670 -0.538915 0.060780 15 11 12
-0.376338 -0.553730 0.055311 14 12 10
-0.367105 -0.540698 0.040634 82 33 15
-0.375222 -0.560575 0.040805 81 28 13
-0.361686 -0.529315 0.065614 14 11 15
-0.375130 -0.550340 0.075031 15 11 14
-0.408383 -0.107418 0.028623 159 67 34
-0.409058 -0.122580 0.028338 160 71 42
-0.360814 -0.228156 0.029518 157 73 43
-0.092068 0.221885 0.021480 143 70 47
-0.074641 0.269044 0.020723 146 67 32
-0.554460 -0.470447 -0.234168 37 25 18
-0.309568 -0.382460 0.029267 150 70 56
-0.295459 -0.358905 0.028659 153 72 48
-0.570098 -0.329498 -0.130999 29 25 21
-0.559002 -0.315517 -0.135326 27 24 23
-0.571339 -0.336324 -0.138564 22 21 18
-0.632160 -0.500793 0.095269 27 21 15
-0.633091 -0.525194 0.101679 30 20 17
-0.632768 -0.520490 0.090964 26 20 11
-0.563925 -0.406884 -0.138922 27 18 15
0.083434 -0.207421 0.019403 159 78 50
0.057400 -0.207201 0.019466 159 77 48
0.067471 -0.183116 0.019286 160 76 53
0.089204 -0.183155 0.019074 162 77 55
-0.574448 0.267291 0.047430 43 27 18
-0.558556 0.295642 -0.130448 23 17 13
-0.558493 0.316103 -0.144496 41 23 13
-0.557028 0.302084 -0.138086 39 25 18
-0.559726 0.313782 -0.125878 48 28 16
0.063088 -0.314185 0.021051 162 76 59
0.074432 -0.327729 0.019462 157 83 61
-0.559001 -0.411330 -0.195029 39 25 23
-0.204383 -0.413413 0.086473 134 75 58
-0.199826 -0.408924 0.097533 138 75 59
-0.338145 -0.500465 0.031076 132 79 62
-0.354989 -0.512839 0.030817 127 70 48
-0.342598 -0.514066 0.040494 74 30 17
-0.601064 -0.418690 0.000316 26 16 12
-0.601844 -0.434685 -0.002779 23 17 10
-0.132533 -0.266448 0.023711 153 72 42
-0.113736 -0.231792 0.023398 155 78 50
-0.254401 -0.555368 0.179863 195 125 108
-0.254306 -0.551011 0.168421 164 100 79
-0.558582 -0.607363 -0.181783 33 25 18
-0.558319 -0.654954 -0.155079 32 23 12
-0.560598 -0.616801 -0.165686 30 20 15
-0.389303 0.278066 0.023497 144 63 28
-0.368752 0.267812 0.023603 151 69 33
-0.353107 0.307736 0.023068 148 69 30
-0.294160 -0.557447 0.159000 25 24 20
-0.291413 -0.555793 0.141232 23 21 22
0.096939 -0.052870 0.022090 159 80 50
0.115355 -0.066291 0.020312 152 74 47
-0.368312 -0.611500 0.156957 59 60 55
-0.263446 0.104907 0.023851 152 65 38
-0.287948 0.061396 0.024319 154 63 28
-0.398918 -0.655242 0.060370 21 15 11
-0.398291 -0.633553 0.056987 26 24 22
-0.052016 -0.158517 0.021711 153 75 44
-0.033083 -0.130165 0.021502 153 73 49
-0.647970 0.318329 0.078240 34 20 15
-0.646503 0.314533 0.086475 34 22 11
-0.569794 -0.057450 -0.019501 23 19 25
-0.560495 -0.082907 -0.025757 19 19 23
-0.569645 -0.090751 -0.017629 20 21 26
-0.580415 -0.087249 -0.001052 23 24 27
-0.576903 -0.088181 -0.008940 21 22 26
-0.578541 -0.059058 -0.006292 24 21 23
-0.526322 0.054344 0.029179 143 68 42
-0.244950 -0.028244 0.024386 151 67 39
-0.242957 -0.005401 0.024089 157 68 37
-0.614441 0.317023 -0.049529 32 18 13
-0.597906 -0.645119 0.004846 26 20 13
-0.500015 -0.104409 0.030862 163 74 29
-0.519699 -0.096558 0.030571 163 74 36
-0.476824 -0.479297 0.029503 163 83 53
-0.466245 -0.455805 0.028838 164 79 54
-0.567061 -0.304965 0.055155 38 19 5
-0.553719 -0.295680 0.047155 88 45 27
-0.220828 0.077446 0.022696 154 68 32
-0.199167 0.092971 0.022261 149 62 36
-0.192059 0.070020 0.022339 153 67 30
0.031587 0.220089 0.019578 177 161 154
0.024432 0.199015 0.020364 177 162 153
-0.238207 -0.253102 0.025912 159 77 47
-0.243809 -0.229681 0.026440 159 76 46
-0.590584 -0.625643 -0.033325 28 19 16
-0.564093 -0.111085 0.028707 90 40 19
-0.571590 -0.106897 0.021852 54 27 21
-0.478042 -0.576808 -0.281723 11 9 5
-0.348972 0.087598 0.025532 149 63 33
-0.385495 0.036174 0.026585 144 60 38
-0.584475 0.297716 -0.185356 37 24 15
-0.585680 0.291694 -0.163228 40 24 14
-0.150873 0.109079 0.021457 150 68 44
-0.387150 -0.635353 0.137139 57 58 52
-0.379386 -0.639263 0.145103 67 65 62
-0.281226 0.193683 0.023446 155 69 33
-0.562625 -0.580659 -0.173278 29 20 16
-0.209059 -0.296392 0.026325 160 75 48
-0.456340 -0.218544 0.030336 158 73 40
-0.453368 -0.193657 0.030407 157 69 38
-0.487892 -0.244090 0.031309 161 71 41
-0.370482 -0.573250 0.119788 35 29 29
-0.379529 -0.591353 0.126736 41 34 33
-0.377696 -0.574019 0.101142 31 27 23
-0.038541 0.222723 0.020927 152 133 119
-0.557072 -0.586368 -0.198041 38 24 20
-0.324474 -0.510926 0.055095 22 19 16
-0.327557 -0.512791 0.072803 36 19 15
-0.298020 -0.503164 0.044171 135 62 32
-0.309756 -0.506048 0.047242 134 61 34
-0.387989 0.147159 0.025247 147 62 32
-0.364511 0.181576 0.025254 147 66 33
-0.280934 0.116250 0.024128 153 65 36
-0.557149 -0.404115 -0.224963 32 24 14
0.005739 0.115594 0.022258 191 177 171
-0.217667 -0.480555 0.030440 100 45 28
-0.204504 -0.479532 0.037146 70 34 17
-0.208533 -0.482926 0.030903 69 33 17
0.048887 -0.085257 0.021244 155 78 47
0.026744 -0.118203 0.020299 158 78 50
-0.202546 -0.097337 0.023176 158 71 44
-0.191198 -0.122712 0.023438 157 70 46
-0.445972 0.234841 0.025297 153 68 38
-0.465318 0.182730 0.027712 161 78 40
-0.308880 -0.126274 0.026782 157 69 47
-0.201167 -0.416795 0.070655 77 41 33
-0.214845 -0.427241 0.073467 59 27 26
-0.222775 -0.440747 0.090223 15 15 10
-0.215678 -0.422332 0.084062 25 17 13
-0.220933 -0.436620 0.079878 11 10 10
-0.225131 -0.453229 0.098807 13 12 11
-0.209478 -0.419447 0.096656 25 12 11
-0.442585 0.305700 -0.005554 151 80 42
-0.437122 0.294520 -0.000374 161 80 42
-0.433051 0.309736 -0.012673 147 77 41
-0.447015 0.294823 -0.000428 161 77 40
-0.233537 0.042243 0.023277 156 71 30
-0.238922 0.011251 0.024246 153 69 34
-0.327012 0.251443 0.023912 148 67 33
-0.609705 -0.620529 0.103511 138 110 94
-0.620592 -0.612022 0.106212 138 111 95
-0.426138 -0.581139 0.030470 147 64 36
-0.453995 -0.588275 0.030033 139 57 33
-0.262456 -0.308660 0.027047 157 74 44
-0.234219 -0.295697 0.026841 156 75 42
-0.279702 -0.279169 0.027135 160 77 45
-0.341671 0.047531 0.025992 143 60 29
-0.590169 0.261622 -0.092627 35 23 18
-0.592877 0.251410 -0.061240 43 27 19
-0.590356 0.247136 -0.064656 36 22 16
-0.543912 -0.020523 -0.033170 27 18 14
-0.551072 -0.006544 -0.032665 27 19 13
-0.559650 -0.032011 -0.027979 22 15 13
-0.133892 -0.569384 -0.276072 24 19 17
-0.142054 -0.566752 -0.274002 26 18 14
-0.125822 -0.574358 -0.279721 24 19 17
-0.563623 0.173551 -0.028679 10 7 7
-0.567793 0.198090 -0.029761 9 9 11
-0.547072 0.103575 0.029509 91 38 13
-0.562410 0.086833 0.029570 87 38 16
-0.568263 0.118198 0.027395 86 36 21
-0.612851 -0.531594 0.015615 22 17 13
-0.606861 -0.518461 -0.008529 25 17 13
-0.618463 -0.520017 0.036525 25 17 13
-0.284906 -0.679070 -0.285367 21 16 9
-0.305346 -0.695604 -0.282566 25 18 14
-0.133731 -0.369108 0.025923 144 73 53
-0.140645 -0.383870 0.029560 120 65 56
-0.599479 -0.358042 0.038721 28 19 15
-0.165514 -0.403573 0.053844 118 69 51
-0.582394 -0.501133 -0.098779 26 17 16
-0.574245 -0.548524 -0.129528 25 17 14
-0.581584 -0.524417 -0.101481 28 16 15
-0.578072 -0.499001 -0.113779 27 16 14
-0.208798 0.131092 0.023083 153 70 36
-0.238164 0.126511 0.022923 156 68 40
-0.579667 0.308420 -0.234107 22 16 13
-0.582494 0.297014 -0.201987 28 18 14
-0.111566 0.119421 0.023500 139 68 45
-0.094512 0.145940 0.023804 147 70 39
-0.203394 -0.382091 0.027061 142 76 44
-0.214757 -0.353397 0.027438 151 73 47
-0.242133 0.144886 0.023445 154 66 34
-0.257789 0.164558 0.024128 151 65 36
-0.109188 -0.621545 -0.284566 17 12 8
-0.564181 -0.386220 -0.232148 14 15 23
-0.566663 -0.356549 -0.226459 13 15 15
-0.565722 -0.370255 -0.230080 20 21 16
-0.201531 -0.425867 -0.276014 27 15 13
-0.219073 -0.424260 -0.276148 18 10 8
-0.329940 -0.111905 0.027033 158 75 40
-0.307818 -0.087803 0.026069 148 63 36
-0.038342 -0.334745 0.024260 157 78 54
-0.046296 -0.352899 0.025131 150 77 58
-0.428657 -0.060605 0.028634 156 66 33
-0.470705 -0.087292 0.029627 155 66 32
-0.391777 -0.068079 0.028186 153 65 25
-0.629762 0.283481 0.043222 32 20 13
-0.633550 0.303023 0.036824 31 19 11
-0.642327 0.314559 0.055482 32 18 12
-0.355381 0.066203 0.025476 146 65 36
-0.406544 -0.644742 0.097223 33 29 25
-0.402497 -0.634729 0.077347 23 20 17
-0.507756 -0.643561 -0.269370 58 41 28
-0.512746 -0.631312 -0.263431 50 36 21
-0.514482 -0.622816 -0.252628 18 13 11
-0.516901 -0.634993 -0.246585 32 23 17
-0.552266 0.239823 -0.032135 19 14 11
-0.579715 -0.343266 -0.026778 30 18 14
-0.580835 -0.333700 -0.020101 30 20 17
-0.586666 -0.335954 -0.053926 28 25 22
-0.581183 -0.333396 -0.038842 31 25 20
-0.577694 -0.336794 -0.039638 31 19 16
-0.595320 -0.334848 -0.036715 23 22 26
-0.596371 -0.327002 -0.038173 21 18 14
-0.576569 -0.337599 -0.055165 35 26 20
-0.481061 -0.215496 0.030351 157 69 35
-0.427083 -0.199647 0.030317 160 69 39
-0.552861 -0.592685 -0.239805 32 20 15
-0.555923 -0.601086 -0.217276 38 24 18
-0.554243 -0.570872 -0.231137 32 22 15
-0.613662 -0.597276 0.035722 24 18 16
-0.606789 -0.605155 0.017113 26 18 16
-0.567582 -0.655011 -0.112298 31 23 18
-0.570047 -0.640372 -0.110776 31 21 17
-0.235126 -0.679771 0.174304 74 73 67
-0.229740 -0.698764 0.161514 50 50 48
-0.327058 -0.535073 0.094304 20 19 17
-0.318530 -0.524316 0.085712 24 20 19
-0.323180 -0.519466 0.081382 20 18 16
0.060753 0.041492 0.023097 212 198 194
0.082696 0.062182 0.021202 199 187 185
-0.013595 0.140069 0.021784 184 167 163
-0.003883 0.155147 0.020393 183 165 164
0.029440 0.183740 0.019051 182 164 159
-0.378846 -0.564026 0.088403 17 13 10
-0.214451 0.153796 0.022621 149 67 39
-0.270074 -0.253147 0.026881 159 75 45
-0.577269 0.209545 -0.023721 10 8 7
-0.561624 0.214519 -0.033673 10 8 7
-0.122218 -0.696170 -0.278807 38 27 15
-0.109928 -0.683858 -0.286302 36 27 16
-0.131436 -0.710464 -0.275232 44 32 23
-0.241529 -0.182599 0.025575 158 74 42
-0.555020 -0.502968 -0.235651 36 24 21
0.078746 -0.232339 0.020398 159 78 44
0.042527 -0.248869 0.021288 166 78 47
-0.001909 -0.087150 0.022150 149 72 49
-0.585013 -0.398012 -0.044778 26 18 11
-0.467185 -0.547830 0.029013 156 78 49
-0.106778 -0.679320 0.113537 67 63 60
-0.093553 -0.671957 0.106724 56 50 46
-0.517949 0.310513 0.002189 142 79 41
-0.526734 0.304465 0.001523 141 81 46
-0.536958 0.300070 0.007423 120 57 27
-0.539539 0.292702 0.002654 109 57 33
-0.556306 0.311514 0.003823 144 74 46
-0.572369 -0.222436 -0.005303 31 30 36
-0.572597 -0.238950 -0.001044 50 49 49
-0.564431 -0.254102 -0.017969 34 35 43
-0.568657 -0.229488 -0.014024 41 38 47
-0.569282 -0.240681 -0.011227 41 43 45
-0.594192 -0.406035 0.086306 33 18 11
-0.589671 -0.389857 0.080381 32 20 14
-0.600069 -0.404846 0.091280 37 19 14
-0.601801 -0.371882 0.088950 35 21 16
-0.595293 -0.388244 0.087603 33 22 18
-0.428561 0.121621 0.027476 156 69 30
-0.471994 0.098298 0.027746 155 70 27
-0.325687 -0.566497 0.152665 25 23 20
-0.309874 -0.561446 0.146706 22 20 17
-0.135867 -0.472717 0.108323 16 15 12
-0.127873 -0.473227 0.101302 20 17 16
0.096858 -0.107888 0.018636 144 73 51
-0.181456 -0.152230 0.023860 158 72 46
-0.163272 0.262482 -0.279322 17 16 15
-0.531501 0.290246 0.003616 125 68 37
-0.368765 -0.001904 0.027191 152 63 34
-0.377145 0.009000 0.027020 149 67 32
-0.425121 -0.558378 0.030961 136 60 33
-0.421674 -0.530473 0.030449 135 59 33
-0.592251 -0.524865 -0.062519 26 18 13
-0.586933 -0.512028 -0.080278 24 18 14
-0.320167 0.224791 0.023941 151 67 38
-0.345521 0.227746 0.024434 147 68 32
-0.376947 0.241243 0.023679 149 67 34
-0.606488 -0.416397 0.021971 27 18 12
-0.585342 0.150467 -0.002192 41 28 18
-0.577234 0.145959 -0.017400 16 8 6
-0.584547 0.127260 -0.000550 49 32 21
-0.584253 0.130139 -0.006146 30 21 14
-0.522818 -0.222513 0.032762 166 74 36
-0.502908 -0.202512 0.031873 169 78 39
0.020762 -0.177972 0.020355 153 75 52
-0.213411 -0.688311 0.166580 62 61 57
-0.210996 -0.698602 0.159313 46 47 44
-0.196717 -0.695050 0.157219 50 51 47
-0.215207 -0.365092 -0.263912 11 5 4
-0.203874 -0.373546 -0.273282 10 5 3
-0.216364 -0.357040 -0.261811 17 9 7
-0.392212 -0.651891 0.127655 54 55 47
-0.401428 -0.687657 0.103072 35 36 26
-0.403863 -0.657488 0.106949 35 36 26
0.062595 -0.092794 0.020077 144 70 48
-0.243719 -0.137516 0.024789 159 74 41
-0.009621 -0.291366 0.021475 152 74 42
-0.383165 -0.615533 0.138231 47 44 42
-0.398253 -0.619240 0.113490 45 44 37
-0.592560 -0.355499 0.014796 27 18 13
-0.596910 -0.377115 0.012239 29 15 15
-0.573463 -0.220426 0.000607 27 30 30
-0.561754 -0.214300 -0.020746 34 35 38
-0.568452 -0.203814 -0.013523 23 31 29
-0.573221 -0.200042 -0.002167 28 29 33
-0.429705 -0.362202 0.031841 162 77 47
-0.605504 -0.466988 -0.002695 23 18 13
-0.189156 -0.674399 -0.275780 22 15 13
-0.224660 -0.693075 -0.276845 28 18 14
-0.534022 0.239059 0.026289 136 66 33
-0.380392 -0.398934 0.030582 160 76 47
-0.354835 -0.409367 0.030425 155 73 51
-0.618026 -0.435277 0.055566 25 17 10
-0.612091 -0.404167 0.049722 26 17 13
-0.620371 -0.395650 0.082453 28 17 14
-0.626977 -0.432203 0.091185 28 17 13
-0.617213 -0.437256 0.099830 36 21 14
-0.623245 -0.420382 0.098799 28 17 10
-0.628582 -0.518828 0.108236 89 66 51
-0.627783 -0.530040 0.107845 40 27 22
-0.441847 -0.321382 0.031019 161 78 48
-0.290969 -0.288912 0.027680 160 76 48
-0.071379 -0.038891 0.024721 182 166 154
-0.045651 -0.022584 0.023704 84 71 72
-0.571623 -0.343060 -0.071689 32 23 16
-0.491274 0.211137 0.026316 153 76 37
-0.474039 0.201598 0.026634 154 71 29
-0.238946 0.319948 0.022411 149 66 36
-0.257992 0.263714 0.022406 143 63 28
-0.223468 0.293257 0.021234 151 68 31
-0.249009 0.282810 0.021735 147 64 36
-0.137389 -0.628869 -0.272158 17 12 8
-0.120629 -0.637908 -0.278684 20 14 12
-0.101218 -0.636634 -0.288295 21 16 13
-0.175167 -0.465958 -0.274111 8 5 5
-0.190414 -0.479887 -0.277702 8 5 3
-0.185508 -0.463918 -0.276243 7 6 3
-0.200734 -0.444888 -0.278007 16 11 9
-0.198525 -0.469649 -0.283061 17 13 4
0.045812 -0.132157 0.019475 160 78 53
-0.564705 -0.037913 -0.024824 26 18 15
-0.162201 0.014329 0.020674 146 63 36
-0.213169 0.039099 0.023174 151 64 34
-0.215209 -0.461705 -0.281040 19 15 11
-0.551359 -0.616115 -0.244427 26 18 16
-0.553307 -0.637290 -0.233301 29 22 15
-0.554592 -0.625072 -0.229755 31 22 15
-0.592403 0.272684 -0.098779 42 27 19
-0.588477 0.271336 -0.120136 25 18 16
-0.286304 -0.567572 0.188186 29 29 26
-0.293675 -0.576188 0.190888 39 37 33
-0.284720 -0.583637 0.196900 39 37 33
-0.307622 -0.574941 0.177525 36 29 29
-0.305648 -0.596415 0.184329 63 57 56
-0.198105 -0.006810 0.022149 151 65 40
-0.283989 -0.409175 -0.284265 12 6 4
-0.255523 -0.412451 -0.277395 25 17 10
-0.272249 -0.421521 -0.284269 18 13 7
-0.152794 -0.398376 0.044633 120 70 53
-0.131748 -0.388332 0.035700 123 67 53
-0.397882 -0.636651 0.121926 46 43 43
-0.397915 -0.648984 0.120683 55 50 49
-0.126315 -0.336994 0.024862 155 74 46
-0.433227 -0.659989 0.031229 98 38 16
0.037023 0.025747 0.023486 219 207 200
-0.573885 0.280389 0.035324 55 29 24
-0.583034 0.303832 0.040403 52 30 22
-0.567350 0.287102 0.023060 96 52 32
-0.558851 0.288038 0.035145 58 34 28
-0.560386 0.269080 0.034303 52 32 23
-0.570792 0.281708 0.042048 64 30 26
-0.578025 0.282655 0.032833 72 41 29
-0.561918 0.291418 0.033272 60 32 24
-0.561686 0.286607 0.017741 55 26 17
-0.556458 0.281667 0.008648 54 26 14
-0.068582 0.207784 0.021603 142 102 86
-0.566377 -0.626255 -0.135029 29 20 18
-0.158261 -0.220431 0.024650 161 78 50
-0.159568 -0.193160 0.023491 155 75 49
-0.423966 -0.409766 0.031701 161 76 42
0.107092 0.227548 0.018581 169 157 149
-0.424057 -0.313051 0.031251 160 75 49
-0.435097 -0.279593 0.031252 160 74 45
-0.133086 0.003833 0.022469 145 63 43
-0.196757 -0.224628 0.024774 161 78 48
-0.188680 -0.205448 0.024274 160 77 54
-0.235226 -0.600615 -0.283946 18 11 9
-0.290218 -0.606145 0.193350 80 74 73
-0.280124 -0.616898 0.193678 86 86 85
-0.303865 -0.619097 0.189406 80 79 76
-0.297612 -0.601306 0.190255 64 62 61
-0.388687 -0.570947 0.030691 90 37 15
-0.376960 -0.586840 0.034822 82 33 12
-0.384029 -0.596007 0.032501 84 32 19
0.014933 -0.314465 0.023348 164 83 57
0.010187 -0.336229 0.022473 157 82 50
0.033281 -0.331103 0.021670 158 80 58
-0.590595 0.219565 -0.008786 31 23 15
-0.580758 0.202459 0.017740 35 25 21
-0.587760 0.208883 -0.008309 22 17 12
-0.582329 0.199805 -0.017940 15 10 9
-0.523572 0.200282 0.027294 153 74 39
-0.538005 0.202535 0.027490 122 62 32
-0.012242 -0.219001 0.021654 152 72 49
-0.482924 -0.526458 0.030214 164 86 65
-0.484244 -0.507186 0.030522 162 89 65
-0.104745 0.155862 0.022729 149 66 38
-0.078844 0.153086 0.023026 148 70 39
-0.081470 0.173777 0.022602 149 68 40
-0.114119 0.166974 0.022729 146 67 39
-0.557755 -0.644229 -0.169526 42 26 18
-0.319616 -0.055610 0.026396 148 63 37
-0.284092 -0.022434 0.025009 150 66 35
-0.575474 0.003318 0.017924 84 40 25
-0.554692 0.004301 0.029155 97 40 23
-0.536073 0.021127 0.029363 93 38 19
-0.558780 0.037782 0.028671 91 35 18
-0.571564 0.005449 0.023586 87 38 18
-0.565281 0.010078 0.027135 89 36 18
-0.492597 -0.383248 0.027943 63 41 32
-0.478995 -0.366213 0.027276 65 40 31
-0.496576 -0.368263 0.027115 98 66 47
-0.610633 0.298874 -0.044778 30 18 13
-0.605659 0.265174 -0.028641 31 19 15
-0.606933 0.274457 -0.033778 31 20 14
-0.009677 0.247519 0.019852 165 132 119
-0.015436 0.263859 0.018964 142 63 36
-0.020308 0.279097 0.019509 141 63 35
-0.375652 -0.378543 0.030965 158 76 47
-0.037123 -0.193012 0.021540 157 77 51
-0.353612 -0.642718 0.166891 69 69 66
-0.376713 -0.660017 0.138177 63 61 62
-0.362721 -0.663973 0.148376 57 55 57
-0.360203 -0.630849 0.163372 58 54 58
-0.086459 0.283128 0.020057 148 67 32
-0.113839 0.273986 0.020507 149 69 35
-0.240165 0.052892 0.023712 154 65 32
-0.208170 -0.408145 0.027846 113 47 30
-0.233889 -0.429970 0.028921 114 48 25
-0.198016 -0.430204 0.035454 76 30 12
-0.202514 -0.433130 0.031040 80 30 9
-0.145842 -0.615910 -0.274812 18 11 9
-0.121304 -0.610054 -0.279954 22 17 11
-0.133836 -0.608149 -0.275178 22 17 14
-0.123412 -0.593905 -0.279385 22 15 12
-0.167085 -0.520265 0.074443 10 11 12
-0.154375 -0.521001 0.091280 15 17 14
-0.164937 -0.522071 0.082078 10 11 10
-0.417881 -0.148436 0.029547 154 68 36
-0.482378 -0.169086 0.031005 160 71 30
-0.077226 0.029111 0.025775 137 78 62
-0.094660 0.047436 0.023677 140 73 51
0.025282 -0.043122 0.023308 205 176 168
-0.002233 -0.044962 0.022990 217 203 200
0.006868 -0.012608 0.020562 224 211 207
-0.407392 -0.666073 0.089075 36 33 29
-0.405803 -0.650962 0.083648 37 33 30
-0.403209 -0.673416 0.066745 36 33 32
-0.406736 -0.667124 0.098204 47 40 34
-0.549307 -0.086001 -0.030760 18 22 27
-0.181125 -0.611211 -0.281159 16 11 7
0.052701 -0.065327 0.023033 159 82 61
-0.387109 -0.032536 0.027923 155 66 35
-0.415675 -0.035631 0.027908 151 63 29
-0.464007 0.146755 0.027562 157 71 33
-0.421301 -0.492738 0.030185 158 86 69
-0.451280 -0.524090 0.029798 151 82 58
-0.467717 -0.513787 0.029346 161 84 64
-0.439035 -0.491210 0.029036 163 87 64
-0.051878 0.049983 0.025328 132 115 112
-0.615461 0.286072 -0.013124 30 19 14
-0.622746 0.312415 -0.012978 28 17 13
-0.481021 -0.397821 0.027132 92 62 48
-0.493196 -0.432826 0.030167 121 83 64
-0.491652 -0.401747 0.027341 110 78 61
-0.910067 -0.047431 -0.730540 27 29 38
-0.932521 -0.099551 -0.728828 34 34 34
-0.912346 -0.081829 -0.728690 33 29 39
-1.045463 -0.169618 -0.728591 44 40 46
-0.954700 0.080228 -0.731241 37 37 38
-0.924545 0.082589 -0.732107 29 30 37
-0.963785 -0.287533 -0.726393 36 33 36
-0.979763 -0.274972 -0.727208 29 28 32
-0.931070 -0.064059 -0.729008 26 30 29
-1.041961 -0.061087 -0.729959 38 39 38
-1.058047 -0.070425 -0.730284 45 43 43
-0.893840 0.109101 -0.732215 35 34 35
-0.907295 0.139398 -0.732586 32 29 36
-0.934214 0.280349 -0.732097 27 26 23
-0.961648 0.290874 -0.731885 28 29 26
-0.959460 0.272223 -0.732537 32 28 28
-0.953412 -0.195789 -0.726387 40 36 43
-1.010607 0.329592 -0.732206 33 34 36
-0.974927 0.345614 -0.733102 24 27 22
-0.978105 0.294239 -0.733524 27 28 25
-1.043259 -0.019884 -0.730984 39 37 42
-1.039475 -0.039993 -0.730571 31 30 32
-1.066035 -0.036399 -0.730440 30 37 36
-0.915463 0.101242 -0.731519 36 31 43
-0.885375 0.092364 -0.731725 36 31 31
-0.908911 0.083759 -0.730781 38 29 43
-0.939084 -0.047146 -0.728860 37 32 37
-0.930109 -0.019534 -0.730588 34 34 41
-0.949777 -0.015625 -0.729533 32 33 35
-1.009113 0.246128 -0.733116 31 29 32
-1.028028 0.256982 -0.732657 30 31 32
-0.938516 -0.398365 -0.723532 42 40 41
-0.910738 0.221519 -0.732452 34 32 34
-0.922492 0.154075 -0.734466 27 29 31
-0.930711 0.142116 -0.734395 32 29 35
-0.937095 0.123659 -0.733039 28 30 34
-0.939072 0.228139 -0.734423 35 35 33
-0.961424 0.231342 -0.733258 33 32 30
-0.993551 0.146342 -0.732715 31 33 34
-1.008883 0.178962 -0.733027 38 38 43
-0.963728 -0.119512 -0.727855 34 34 37
-0.936087 -0.176932 -0.727995 34 37 34
-0.929727 -0.218607 -0.725866 44 43 45
-1.013805 -0.298647 -0.726733 32 32 37
-0.937810 0.074457 -0.731822 33 37 39
-0.949448 0.047601 -0.732900 33 33 40
-0.987272 0.220955 -0.735013 28 31 28
-0.993224 0.199198 -0.734933 31 34 28
-1.052084 0.034015 -0.732276 37 37 35
-0.912474 0.296092 -0.733609 24 27 26
-0.925342 0.324254 -0.732989 28 25 29
-0.964794 -0.398186 -0.724198 44 39 42
-0.957904 -0.074030 -0.729601 28 35 32
-0.953661 -0.106682 -0.727648 31 35 32
-0.999058 -0.003347 -0.730243 37 36 40
-1.011662 -0.022531 -0.729950 37 37 32
-1.032989 0.008579 -0.731443 39 38 40
-1.034855 0.308157 -0.731917 29 30 27
-0.898104 0.196304 -0.733784 38 29 36
-0.873873 0.164675 -0.732271 32 28 33
-0.883440 0.157802 -0.731858 35 32 39
-1.043732 0.238907 -0.733586 36 36 36
-1.032060 -0.215556 -0.727474 39 39 39
-1.025191 -0.186340 -0.727940 37 38 36
-1.009901 0.144000 -0.733752 34 32 37
-1.024837 0.164027 -0.732671 28 35 28
-0.959361 0.321147 -0.732164 25 27 26
-0.989901 0.301823 -0.733950 23 26 22
-0.974848 -0.077784 -0.730777 32 36 33
-0.942647 -0.123205 -0.729140 30 29 32
-0.873844 0.260026 -0.732287 32 32 33
-0.861535 0.286335 -0.733680 26 26 35
-0.891745 0.287483 -0.733734 28 25 22
-1.063273 0.128778 -0.731429 43 43 49
-1.056699 0.101806 -0.731451 40 40 41
-1.031462 0.354489 -0.731696 33 32 33
-0.972568 -0.130978 -0.727513 38 37 40
-1.001273 -0.147772 -0.728905 36 36 39
-0.984754 -0.297683 -0.727199 27 29 32
-0.985009 0.115208 -0.732047 40 38 42
-0.974262 0.069711 -0.731306 38 38 42
-1.016244 -0.270442 -0.726900 29 29 29
-1.001245 -0.248165 -0.726135 28 29 30
-0.995832 -0.261090 -0.726665 28 28 26
-1.018160 -0.165941 -0.728303 46 42 43
-1.004906 0.224336 -0.733840 26 29 25
-1.012652 0.198125 -0.733641 31 34 29
-1.023526 0.219187 -0.733660 39 35 37
-1.041804 0.191668 -0.734021 32 36 37
-1.038934 0.151251 -0.733020 37 37 36
-1.043889 0.115998 -0.730983 41 36 38
-1.030442 0.123636 -0.732389 32 35 40
-0.923443 -0.306321 -0.726339 41 40 37
-0.917517 -0.280845 -0.727253 45 42 43
-0.959462 -0.168016 -0.727805 39 35 42
-0.963234 -0.148432 -0.727756 37 36 37
-0.915506 0.064468 -0.730990 38 36 36
-0.917270 0.033797 -0.731294 33 33 38
-0.938706 0.043819 -0.731636 32 32 39
-0.897750 0.060549 -0.731562 37 34 40
-0.901735 0.033791 -0.730938 32 30 42
-1.027461 -0.249126 -0.726548 29 28 32
-0.953417 -0.359933 -0.725399 45 49 41
-0.940516 -0.377068 -0.724059 44 46 42
-0.998577 -0.310502 -0.727887 39 33 42
-1.044816 0.210608 -0.735184 32 31 43
-0.874960 0.321063 -0.734480 28 27 33
-0.895402 0.351045 -0.733394 25 25 32
-0.892295 0.325695 -0.733898 27 27 28
-0.937990 0.028661 -0.731019 33 33 28
-0.966306 0.170371 -0.733130 27 29 29
-0.989065 0.177895 -0.733391 28 28 32
-1.040475 -0.129211 -0.729993 47 41 47
-1.013846 -0.121340 -0.729591 36 36 36
-1.026519 -0.134860 -0.728483 38 38 42
-0.971163 -0.027748 -0.730296 42 36 45
-0.995367 -0.027966 -0.730395 37 41 42
-0.959190 0.194061 -0.733142 34 33 28
-0.972634 0.197130 -0.733910 27 29 23
-1.058741 0.145260 -0.731905 36 34 40
-0.925890 0.263213 -0.733561 32 26 28
-0.906837 0.273299 -0.734098 31 24 32
-0.962849 0.100043 -0.732096 28 29 32
-0.974073 0.123660 -0.732846 31 28 34
-1.052811 0.004319 -0.732136 43 40 43
-0.986828 0.236704 -0.734256 33 34 35
-0.973884 0.263504 -0.734199 34 32 30
-0.994782 0.270766 -0.731917 31 26 25
-0.969029 0.000903 -0.730060 39 40 35
-1.031394 -0.152870 -0.728793 44 40 42
-1.027820 -0.079782 -0.730633 43 41 44
-1.035136 -0.103641 -0.730849 41 38 47
-1.001697 -0.092559 -0.728815 41 33 36
-1.016786 0.111381 -0.731548 41 39 41
-0.995685 0.123922 -0.731373 40 35 39
-1.016100 0.093861 -0.733205 37 34 39
-1.034521 0.081783 -0.733256 42 39 43
-0.977926 -0.233318 -0.726451 36 36 38
-0.989034 -0.219965 -0.726451 31 33 33
-1.064051 0.066440 -0.732837 45 38 52
-1.016814 0.062958 -0.731539 38 37 38
-1.001217 -0.202183 -0.728214 36 34 36
-0.894238 0.139241 -0.731716 33 31 37
-0.909389 0.165921 -0.733660 34 27 37
-0.942218 0.356086 -0.732940 26 26 28
-0.939055 0.324295 -0.733507 25 24 28
-0.965747 0.357589 -0.733402 26 29 25
-0.932792 -0.335263 -0.724584 45 45 39
-0.946601 -0.303357 -0.726584 54 54 48
-0.939551 -0.211880 -0.726319 38 36 36
-0.938561 -0.419185 -0.724457 39 46 38
-0.953127 -0.434083 -0.724964 38 42 41
-0.999511 0.041285 -0.731737 46 41 44
-0.991665 0.018563 -0.730027 41 40 42
-1.010560 0.028766 -0.731315 38 39 41
-1.037323 0.049182 -0.733394 41 43 45
-1.030871 0.283339 -0.733416 28 29 29
-1.004932 0.296431 -0.733490 32 29 22
-0.982723 -0.166853 -0.728698 42 38 38
-0.982491 -0.116045 -0.729099 37 32 37
-0.992088 -0.102415 -0.729394 34 36 39
-0.953107 0.026685 -0.730947 35 34 35
-0.966061 0.043737 -0.731572 36 33 32
-0.998685 0.335034 -0.733103 25 29 30
-0.926338 0.191489 -0.733532 34 28 38
-0.937151 0.170647 -0.734762 30 35 35
-1.000947 -0.175916 -0.729080 39 39 39
-1.069867 0.014292 -0.731661 48 45 51
-1.069224 -0.015480 -0.730980 46 42 45
-0.975522 0.043623 -0.731881 28 32 33
-0.989820 0.077085 -0.732002 33 33 35
-1.003588 0.095995 -0.732406 29 31 31
-0.958673 -0.317413 -0.727465 53 42 46
-0.919958 -0.166187 -0.727563 31 31 35
-0.951319 0.249812 -0.732295 35 33 36
-1.012954 -0.232836 -0.726965 35 36 34
-0.877400 0.300626 -0.734964 23 24 32
-0.904616 0.327807 -0.732648 25 28 22
-0.938400 -0.453347 -0.723960 40 44 37
-0.961362 -0.244217 -0.727899 46 47 41
-0.959754 -0.229433 -0.728130 49 48 45
-0.971806 -0.206701 -0.727082 34 34 35
-0.893049 0.219187 -0.732793 32 30 33
-0.885163 0.187358 -0.733439 35 32 37
-0.885998 0.209308 -0.732221 32 29 33
-0.930134 -0.262917 -0.726966 51 45 44
-0.996119 -0.065160 -0.730140 36 37 37
-1.013425 -0.039153 -0.730679 39 36 37
-0.979627 -0.344072 -0.726763 39 39 36
-0.973263 -0.374371 -0.725368 48 46 44
-0.891025 -0.022412 -0.730489 36 37 40
-0.901019 0.011089 -0.731364 32 30 37
-0.929087 0.111916 -0.732060 34 32 37
-1.062274 0.191436 -0.733062 40 39 39
-0.966597 -0.337145 -0.726459 48 43 44
-0.878071 0.219831 -0.731786 36 34 37
-0.898046 0.255992 -0.732178 34 29 37
-1.049104 -0.106261 -0.730028 45 43 45
-0.968847 -0.055239 -0.731337 32 31 35
0.700252 0.425035 -0.738516 28 27 38
0.687694 0.419839 -0.740643 34 36 38
0.686058 0.429904 -0.739729 32 33 36
0.689445 0.413620 -0.734709 29 28 37
0.685224 0.404091 -0.736640 32 30 37
0.489227 0.732748 -0.740288 12 12 14
0.509540 0.719643 -0.741230 12 13 15
0.708821 0.873395 -0.745037 15 15 18
0.703361 0.872235 -0.735095 9 9 13
0.698437 0.875120 -0.740810 9 9 13
0.691006 0.886789 -0.737554 8 10 8
0.715278 0.876872 -0.736029 9 11 15
0.702272 0.860542 -0.744159 20 21 21
0.694695 0.866280 -0.746229 18 20 18
0.718529 0.857182 -0.748439 19 21 23
0.720571 0.874824 -0.745398 15 16 16
0.695046 0.882812 -0.742923 14 14 11
0.325514 0.443054 -0.738296 21 21 19
0.302920 0.470756 -0.737547 19 20 13
0.269429 0.305841 -0.741019 25 23 20
0.264339 0.286243 -0.740238 25 25 23
0.396278 0.781708 -0.739168 13 13 15
0.413852 0.771396 -0.739982 13 13 14
0.417914 0.801073 -0.740674 12 13 15
0.423889 0.587701 -0.761574 41 36 33
0.412627 0.589101 -0.761193 42 36 33
0.392991 0.817574 -0.739276 13 10 16
0.409871 0.813389 -0.739561 13 11 15
0.616881 0.899234 -0.727495 8 7 9
0.503629 0.356284 -0.744422 16 17 20
0.667857 0.704012 -0.740310 21 21 27
0.533819 0.244923 -0.742416 18 17 21
0.202981 0.931943 -0.736222 9 9 9
0.187554 0.935980 -0.738586 8 8 5
0.255333 0.899329 -0.736464 10 10 10
0.262749 0.912483 -0.738155 10 10 10
0.249083 0.905125 -0.738697 10 9 11
0.251155 0.919719 -0.740688 9 10 11
0.564869 0.736335 -0.746267 10 13 13
0.578965 0.715907 -0.746227 13 14 14
0.568174 0.703350 -0.748560 13 13 16
0.575943 0.732098 -0.746321 13 14 15
0.559344 0.707530 -0.746491 12 14 14
0.648275 0.530471 -0.743863 24 25 28
0.642097 0.509107 -0.741520 21 23 28
0.617873 0.508600 -0.743224 21 23 28
0.508915 0.321504 -0.742820 17 17 20
0.494358 0.577040 -0.742241 11 14 15
0.486352 0.565410 -0.741204 10 14 16
0.478163 0.583456 -0.738852 11 14 16
0.459407 0.551482 -0.738555 11 15 16
0.385757 0.542993 -0.734125 19 18 19
0.381716 0.556237 -0.736397 26 25 22
0.370133 0.540539 -0.729220 18 20 18
0.395131 0.554394 -0.737936 16 13 15
0.393633 0.533234 -0.739252 13 15 15
0.372653 0.533145 -0.736923 12 15 16
0.369854 0.542288 -0.738856 22 22 20
0.371628 0.554956 -0.739058 45 43 40
0.498669 0.823062 -0.746332 9 11 13
0.524002 0.837511 -0.744922 9 12 12
0.508029 0.839671 -0.742951 11 12 12
0.286645 0.350114 -0.737573 23 22 20
0.236057 0.901329 -0.738969 9 9 9
0.230802 0.881118 -0.740943 9 9 10
0.219714 0.887094 -0.740366 8 9 9
0.205989 0.870304 -0.738870 10 8 6
0.537098 0.841800 -0.742520 12 13 13
0.537875 0.860152 -0.731113 13 12 12
0.553797 0.838553 -0.743968 10 12 13
0.551945 0.864429 -0.735839 13 11 12
0.563642 0.378151 -0.729794 18 16 19
0.554586 0.355398 -0.740122 16 18 19
0.569838 0.371534 -0.729718 16 17 21
0.633896 0.678734 -0.737874 21 22 27
0.400812 0.464501 -0.735575 16 16 14
0.430403 0.621476 -0.736739 13 14 13
0.428693 0.590416 -0.734156 55 51 43
0.427649 0.606124 -0.737296 53 48 40
0.408752 0.589337 -0.756880 37 32 29
0.409614 0.598941 -0.734257 20 15 15
0.417397 0.612800 -0.736585 11 13 13
0.423573 0.596141 -0.759240 46 39 37
0.505135 0.259381 -0.743802 17 20 19
0.513010 0.249105 -0.747646 22 23 23
0.484634 0.222933 -0.744042 21 22 23
0.536435 0.240751 -0.735620 14 13 18
0.518048 0.243948 -0.746927 20 21 22
0.528451 0.229732 -0.740742 21 21 22
0.467978 0.348678 -0.741026 19 21 18
0.458100 0.330547 -0.741164 18 18 16
0.452982 0.351400 -0.738052 21 23 19
0.307736 0.814682 -0.739103 25 24 21
0.323307 0.823339 -0.736896 24 17 16
0.325491 0.809133 -0.739858 25 18 20
0.656656 0.446083 -0.741662 29 33 34
0.665449 0.464265 -0.735423 40 40 41
0.659253 0.454887 -0.734363 35 34 37
0.665487 0.448731 -0.732002 13 13 13
0.196150 0.544692 -0.739583 10 12 12
0.192608 0.533322 -0.741154 11 12 14
0.188195 0.518711 -0.740948 11 12 13
0.622665 0.801185 -0.743121 14 18 17
0.623591 0.815212 -0.745598 14 15 17
0.647936 0.801134 -0.742328 17 18 20
0.408350 0.408479 -0.739419 17 20 19
0.396452 0.566704 -0.756049 19 20 19
0.384163 0.572441 -0.743484 42 37 35
0.377450 0.576831 -0.733538 16 12 13
0.389607 0.572059 -0.752163 39 38 36
0.402641 0.571525 -0.742474 30 26 23
0.399374 0.564273 -0.745540 30 30 27
0.396109 0.580559 -0.750735 28 22 19
0.411293 0.570050 -0.752890 20 21 19
0.404510 0.583396 -0.745284 45 39 36
0.403540 0.577741 -0.737367 47 43 38
0.391220 0.580304 -0.733990 35 29 25
0.397855 0.579091 -0.740132 28 22 18
0.399132 0.586909 -0.732388 29 24 19
0.390320 0.567746 -0.743872 40 38 34
0.370039 0.560329 -0.740203 36 30 29
0.627877 0.563049 -0.743143 19 24 25
0.649453 0.539161 -0.742759 23 24 29
0.652161 0.562117 -0.743861 21 22 29
0.608358 0.896328 -0.721000 8 8 6
0.616860 0.923991 -0.723778 10 8 5
0.608540 0.904861 -0.722111 8 8 6
0.630182 0.921257 -0.726162 8 8 6
0.416890 0.455870 -0.736055 18 19 14
0.764011 0.676844 -0.736864 12 14 14
0.757692 0.678556 -0.740450 12 14 14
0.736179 0.663677 -0.739395 11 13 14
0.753971 0.687114 -0.740779 11 13 14
0.740408 0.689643 -0.737421 11 13 13
0.173217 0.490592 -0.738597 13 13 16
0.168644 0.512640 -0.735441 11 13 15
0.144769 0.520165 -0.731248 10 12 15
0.147341 0.495686 -0.733641 12 12 18
0.137046 0.480531 -0.733408 13 12 19
0.691480 0.874508 -0.722885 9 11 16
0.695183 0.883715 -0.724712 9 11 16
0.711286 0.881428 -0.722692 8 13 15
0.573433 0.454652 -0.741668 13 15 16
0.572912 0.437964 -0.743071 10 12 16
0.563831 0.419515 -0.741012 14 14 18
0.356110 0.265418 -0.742133 24 22 20
0.371605 0.258295 -0.743643 21 22 17
0.438723 0.829172 -0.741984 12 11 14
0.462103 0.836017 -0.741668 11 11 15
0.441096 0.841395 -0.735324 12 11 15
0.446535 0.815099 -0.742654 11 11 14
0.260434 0.852078 -0.738188 9 8 8
0.246405 0.833900 -0.736590 8 9 9
0.643631 0.933288 -0.724126 11 10 6
0.374556 0.348727 -0.737662 16 18 18
0.703090 0.910124 -0.734437 9 9 12
0.697252 0.901456 -0.746583 15 16 17
0.698117 0.910304 -0.746587 14 13 17
0.510488 0.820107 -0.745580 10 12 14
0.518662 0.783241 -0.744980 12 12 14
0.514211 0.798158 -0.746848 12 12 14
0.489275 0.783796 -0.745218 13 12 15
0.311019 0.834321 -0.739165 6 10 9
0.327125 0.851620 -0.739105 7 10 10
0.529655 0.685704 -0.743841 11 12 15
0.536853 0.702415 -0.745478 11 12 15
0.443276 0.528287 -0.736707 14 16 13
0.662341 0.929012 -0.747614 14 12 10
0.667273 0.937889 -0.741200 14 11 9
0.671765 0.920188 -0.739228 10 9 11
0.624146 0.731505 -0.739202 14 18 22
0.625523 0.743520 -0.740258 13 18 20
0.613974 0.753318 -0.743520 14 18 18
0.611517 0.765651 -0.742309 15 17 20
0.645590 0.739630 -0.739803 14 18 21
0.628942 0.755890 -0.742700 17 18 20
0.648888 0.767885 -0.744378 14 18 21
0.665638 0.369707 -0.730388 30 35 36
0.663908 0.352483 -0.733837 30 32 36
0.668832 0.374242 -0.737038 32 33 39
0.651941 0.348349 -0.748580 31 27 37
0.652439 0.355526 -0.744597 26 23 34
0.656013 0.367323 -0.738490 32 32 39
0.641178 0.365379 -0.741015 32 32 37
0.654899 0.493515 -0.744983 31 30 37
0.673373 0.483706 -0.739790 37 39 41
0.662311 0.477807 -0.740397 36 38 39
0.687430 0.487860 -0.735574 31 31 34
0.676401 0.475682 -0.731407 37 39 41
0.579696 0.636911 -0.745370 14 14 18
0.554456 0.612419 -0.743311 16 14 20
0.548293 0.617285 -0.743676 14 13 19
0.536066 0.628319 -0.745307 22 22 22
0.541707 0.626518 -0.740844 13 13 15
0.331559 0.638233 -0.738081 14 15 16
0.320348 0.651623 -0.737574 16 18 19
0.348176 0.620948 -0.737138 13 13 16
0.591771 0.673489 -0.758489 41 41 35
0.587591 0.663531 -0.733618 24 24 22
0.608423 0.668317 -0.743906 18 18 21
0.599721 0.655255 -0.745623 14 14 18
0.586395 0.653585 -0.740730 26 27 25
0.595971 0.667961 -0.735063 18 18 22
0.611311 0.674483 -0.737030 10 10 11
0.582238 0.663180 -0.752817 67 68 65
0.579664 0.653026 -0.743041 25 25 25
0.567878 0.642446 -0.743022 14 14 15
0.591589 0.672187 -0.730522 20 18 17
0.376577 0.426819 -0.739107 22 22 17
0.386626 0.415983 -0.741163 16 22 16
0.527444 0.416294 -0.740375 15 15 14
0.556044 0.432325 -0.740638 14 14 14
0.361993 0.538620 -0.741356 19 15 17
0.345835 0.576688 -0.736535 13 12 15
0.361517 0.533312 -0.733936 18 17 19
0.361447 0.559332 -0.735624 28 22 19
0.351577 0.544356 -0.732388 37 35 32
0.364551 0.540565 -0.730446 25 26 26
0.358206 0.511924 -0.739655 14 16 14
0.385151 0.516253 -0.737521 15 14 14
0.615786 0.594698 -0.744884 16 17 21
0.624796 0.581398 -0.745617 15 17 17
0.364725 0.724484 -0.737878 13 14 12
0.349759 0.751715 -0.738438 14 14 13
0.430579 0.782080 -0.741815 12 13 14
0.444062 0.763688 -0.740072 13 13 15
0.628148 0.408249 -0.740467 19 22 22
0.639504 0.390516 -0.736104 42 38 42
0.648637 0.405674 -0.740590 31 27 36
0.639835 0.380304 -0.740221 33 30 37
0.627815 0.390581 -0.737810 30 28 33
0.625146 0.398447 -0.737421 21 23 25
0.354413 0.885904 -0.741657 11 9 10
0.353150 0.898901 -0.740158 10 9 9
0.350170 0.915308 -0.739240 5 10 10
0.342715 0.889139 -0.742873 10 9 10
0.354346 0.904393 -0.736953 8 8 9
0.358826 0.889700 -0.734807 10 9 8
0.715413 0.904356 -0.726150 8 13 16
0.713122 0.889399 -0.720196 8 13 15
0.291445 0.404385 -0.738295 22 22 20
0.717399 0.623668 -0.747918 22 25 31
0.700215 0.616025 -0.749404 21 24 27
0.726248 0.613151 -0.739796 24 27 33
0.721444 0.598313 -0.747197 28 27 32
0.720799 0.611235 -0.750390 26 26 31
0.323403 0.887567 -0.735310 10 9 10
0.304787 0.856525 -0.739928 8 10 11
0.315685 0.867752 -0.740271 10 10 11
0.268030 0.374833 -0.737842 24 20 20
0.230925 0.645711 -0.736456 12 12 14
0.246321 0.642236 -0.740898 12 13 15
0.626547 0.628884 -0.744817 18 20 23
0.613668 0.617592 -0.745163 17 19 23
0.610860 0.630394 -0.745225 16 19 21
0.608199 0.641744 -0.747883 16 18 19
0.270440 0.749863 -0.740014 13 12 14
0.302546 0.756704 -0.738492 14 16 18
0.200947 0.455586 -0.732932 13 14 18
0.557405 0.519663 -0.740539 15 15 16
0.558521 0.535870 -0.742491 16 14 20
0.595389 0.550524 -0.742672 16 14 19
0.243052 0.302815 -0.740438 23 20 20
0.274302 0.620842 -0.740805 9 12 11
0.252251 0.601376 -0.738591 11 12 12
0.256977 0.621109 -0.740950 10 12 12
0.676504 0.763516 -0.742645 21 21 22
0.667626 0.774742 -0.743188 16 21 18
0.669796 0.795093 -0.745910 17 20 18
0.638598 0.789419 -0.740934 17 19 23
0.313438 0.581862 -0.738147 12 13 15
0.290930 0.562215 -0.738113 12 13 16
0.350582 0.562549 -0.733722 21 17 17
0.337614 0.544651 -0.734476 23 21 21
0.327103 0.548298 -0.734552 13 13 13
0.729966 0.629439 -0.725760 12 13 16
0.415020 0.854028 -0.738780 10 10 13
0.406435 0.873190 -0.740995 10 9 8
0.399505 0.879007 -0.741936 10 8 7
0.413868 0.860675 -0.741901 9 11 9
0.423697 0.853639 -0.738237 11 12 15
0.201656 0.880951 -0.739949 10 8 10
0.195377 0.894006 -0.737938 12 9 8
0.177672 0.872502 -0.754801 26 22 20
0.184555 0.903909 -0.744644 16 11 7
0.181775 0.888412 -0.750756 17 14 10
0.482694 0.593867 -0.737067 13 17 14
0.489866 0.609423 -0.733528 24 26 26
0.502813 0.594756 -0.739698 9 12 10
0.485081 0.616846 -0.740050 78 75 70
0.180966 0.895299 -0.751952 16 15 14
0.184277 0.874703 -0.746645 34 33 27
0.469941 0.615572 -0.735983 85 82 76
0.216336 0.377509 -0.735463 20 20 20
0.588949 0.881066 -0.718199 9 8 10
0.601294 0.884327 -0.729762 13 10 11
0.372638 0.442045 -0.737563 24 20 20
0.367941 0.459673 -0.739121 20 21 15
0.655991 0.577193 -0.744327 21 24 26
0.663548 0.563395 -0.744884 21 24 26
0.658760 0.596071 -0.745532 20 21 23
0.640193 0.588294 -0.744291 17 19 20
0.137945 0.271187 -0.738678 20 21 20
0.140532 0.280710 -0.738416 19 22 19
0.523280 0.631588 -0.752605 57 56 53
0.540864 0.633324 -0.755953 22 22 21
0.540513 0.640115 -0.764302 20 20 21
0.514667 0.622144 -0.745364 18 18 19
0.529404 0.621873 -0.742088 18 18 19
0.515221 0.649414 -0.746888 36 30 27
