ply
format ascii 1.0
element vertex 1209
property float x
property float y
property float z
property uchar red
property uchar green
property uchar blue
end_header
-0.010071 0.466334 0.534285 254 255 254
-0.255700 0.599571 0.614889 241 246 244
-0.269921 0.598900 0.632969 240 246 242
-0.286526 0.592738 0.631178 238 244 242
0.330948 0.268609 0.900874 207 206 199
0.246896 0.310277 0.489827 205 206 201
0.259416 0.327945 0.493843 206 208 203
0.263312 0.301062 0.491530 203 205 199
0.273315 0.299777 0.490712 202 204 199
0.267594 0.307979 0.490454 203 205 200
0.289893 0.305611 0.491168 202 203 198
0.306417 0.283885 0.500289 197 199 193
0.287666 0.274945 0.500624 191 192 183
0.277802 0.286273 0.494296 198 200 195
0.296495 0.286924 0.495400 201 204 198
0.111809 0.322383 0.496567 209 211 205
0.117272 0.323209 0.511900 212 215 207
0.103711 0.325432 0.515765 214 216 207
0.108933 0.318720 0.515667 214 217 209
0.105721 0.328111 0.497477 212 216 210
0.106956 0.323187 0.507142 213 215 207
0.112305 0.330774 0.507251 213 215 207
0.245824 0.342186 0.522783 212 215 214
0.234843 0.347434 0.523874 211 214 214
0.254281 0.344343 0.521649 213 217 215
-0.017015 0.384610 0.930294 254 255 255
-0.016590 0.370303 0.945513 254 255 255
-0.632992 0.219963 -0.712565 90 73 57
-0.631495 0.226063 -0.702343 42 30 22
-0.638507 0.219168 -0.730170 83 66 48
-0.630343 0.230677 -0.718947 83 65 47
-0.642554 0.209892 -0.703367 84 66 46
-0.666329 0.536081 -0.859407 97 83 63
-0.617844 0.302887 -0.963290 136 113 87
-0.621606 0.305954 -0.971088 103 83 61
-0.639286 0.275538 -0.980974 123 99 71
-0.627428 0.307246 -0.980341 112 91 69
-0.620829 0.295293 -0.975753 122 97 71
-0.629768 0.279760 -0.613360 144 100 70
-0.637314 0.285917 -0.616349 140 100 64
-0.636230 0.301206 -0.617014 138 97 63
-0.643934 0.313323 -0.636648 139 115 94
-0.642203 0.290634 -0.625125 139 109 87
-0.625129 0.498102 -0.787185 97 71 54
-0.619810 0.475948 -0.774176 117 97 72
-0.615353 0.492545 -0.782547 111 88 65
-0.543033 0.627348 -0.755445 147 129 114
-0.533395 0.620650 -0.748631 149 137 123
-0.544799 0.628968 -0.742629 146 128 111
-0.521175 0.619138 -0.747644 151 140 127
-0.533647 0.626478 -0.763344 148 130 112
-0.538516 0.203046 -0.587969 142 126 108
-0.539238 0.221151 -0.599139 137 113 92
-0.680331 0.117824 -0.980990 210 180 146
-0.674005 0.120710 -0.956546 182 157 135
-0.395420 0.596063 -0.927453 95 76 56
-0.377265 0.563407 -0.942046 81 61 42
-0.397632 0.562989 -0.953512 80 64 48
-0.387082 0.591580 -0.949349 81 65 49
-0.404614 0.568718 -0.949869 86 69 52
-0.388884 0.565353 -0.950562 82 65 46
-0.379193 0.553778 -0.945571 92 71 49
-0.399993 0.585911 -0.942802 88 71 52
-0.610217 0.313623 -0.640289 146 108 74
-0.560649 0.348636 -0.574697 94 74 59
-0.564594 0.351011 -0.581829 151 121 91
-0.549129 0.378228 -0.575621 153 117 84
-0.533196 0.628194 -0.777432 143 126 101
-0.540170 0.633011 -0.764885 142 121 98
-0.530681 0.636177 -0.789285 139 108 82
-0.529210 0.628159 -0.789182 138 114 90
-0.644520 0.487538 -0.696433 65 46 30
-0.640196 0.483405 -0.689474 114 89 63
-0.463006 0.448865 -0.951075 85 73 57
-0.475156 0.450914 -0.958515 103 80 61
-0.489658 0.450452 -0.973846 84 68 51
-0.469640 0.443912 -0.959865 95 78 62
-0.483991 0.430618 -0.960874 96 77 61
-0.487778 0.434166 -0.965288 96 79 64
-0.481523 0.444482 -0.966900 108 84 65
-0.599930 0.203684 -0.662247 153 119 85
-0.590580 0.201343 -0.646316 125 91 64
-0.596919 0.196256 -0.660950 155 127 102
-0.591824 0.159613 -0.663217 78 61 40
-0.588236 0.179977 -0.647566 85 69 47
-0.589959 0.167004 -0.640855 121 101 82
-0.655222 0.632640 -0.748498 148 135 119
-0.624509 0.625478 -0.740273 145 133 118
-0.489671 0.470629 -0.992057 89 78 60
-0.673651 0.632644 -0.742338 150 142 125
-0.682470 0.633344 -0.746537 150 142 124
-0.554361 0.028074 -0.683856 124 86 56
-0.558463 0.033606 -0.688628 114 81 53
-0.416180 0.411215 -0.741198 83 62 46
-0.406171 0.396549 -0.758017 96 68 42
-0.409830 0.406197 -0.764189 110 81 53
-0.411674 0.409857 -0.747252 107 82 59
-0.417083 0.429944 -0.760059 102 80 59
-0.423392 0.421672 -0.751648 103 84 65
-0.648525 0.201801 -0.813718 102 84 64
-0.659404 0.194046 -0.798640 110 91 69
-0.654871 0.206497 -0.801971 113 91 68
-0.660421 0.184073 -0.827467 108 90 72
-0.629916 0.136497 -0.967894 150 118 89
-0.631064 0.133597 -0.952127 149 117 82
-0.611656 0.147810 -0.982219 123 95 67
-0.622899 0.155245 -0.979019 137 112 90
-0.624257 0.131544 -0.973882 128 99 67
-0.626776 0.141913 -0.976018 136 113 93
-0.562521 0.183084 -0.774612 126 88 62
-0.557914 0.191822 -0.774419 105 75 53
-0.633145 0.444779 -0.763906 95 66 40
-0.639403 0.412509 -0.748711 95 66 40
-0.366948 0.602474 -0.907435 86 69 49
-0.381865 0.614715 -0.895461 105 86 62
-0.382099 0.606219 -0.913629 90 69 46
-0.370333 0.604207 -0.921060 83 63 43
-0.590578 0.458580 -0.597588 118 89 61
-0.638791 0.113594 -0.961294 149 126 112
-0.629173 0.114801 -0.969559 110 85 51
-0.574549 -0.026800 -0.685358 106 77 51
-0.572309 -0.034299 -0.669758 118 83 47
-0.650138 0.316863 -0.766055 126 96 64
-0.668416 0.321324 -0.775728 96 73 45
-0.668469 0.184388 -0.779243 94 77 59
-0.666523 0.196224 -0.770435 105 82 59
-0.667080 0.201127 -0.780461 101 81 60
-0.387475 0.600956 -0.939223 85 67 48
-0.381925 0.601337 -0.943653 90 75 55
-0.365157 0.583995 -0.926168 82 67 48
-0.369490 0.585610 -0.940038 80 65 46
-0.377531 0.591871 -0.948363 89 74 56
-0.371749 0.603815 -0.937174 82 63 43
-0.380294 0.607829 -0.924732 82 62 43
-0.631521 0.270096 -0.972871 140 112 81
-0.636652 0.253955 -0.969101 129 102 75
-0.646268 0.256046 -0.980141 106 93 71
-0.633651 0.266716 -0.611157 140 102 68
-0.645589 0.246328 -0.628243 125 90 60
-0.530511 0.645208 -0.678497 144 121 103
-0.533297 0.659720 -0.681511 138 115 93
-0.517228 0.670391 -0.698071 100 84 69
-0.526606 0.667708 -0.699398 116 98 76
-0.521617 0.653624 -0.690195 97 82 67
-0.534789 0.653192 -0.675409 135 112 90
-0.534996 0.655976 -0.688085 130 109 86
-0.629316 0.061331 -0.858542 175 139 100
-0.638835 0.059661 -0.852777 128 102 86
-0.633031 0.066159 -0.886159 132 104 87
-0.628439 0.061991 -0.870796 130 103 86
-0.639133 0.061638 -0.890065 129 113 100
-0.677156 0.060897 -0.992163 160 148 138
-0.751416 0.630895 -0.637950 162 152 140
-0.738534 0.632441 -0.652978 160 151 138
-0.675723 0.629407 -0.628987 164 155 142
-0.684423 0.629267 -0.609487 166 158 145
-0.553621 0.193147 -0.745719 157 115 81
-0.542542 0.182945 -0.735518 123 91 63
-0.667032 0.113619 -0.945139 179 138 95
-0.554502 0.379064 -0.596064 149 125 103
-0.576484 0.380341 -0.581564 134 99 75
-0.578215 0.379114 -0.589027 121 92 72
-0.558856 0.361671 -0.578282 160 132 106
-0.562764 0.357446 -0.589876 153 123 96
-0.573641 0.394309 -0.571726 114 81 56
-0.669986 0.631543 -0.789717 142 129 116
-0.663020 0.632139 -0.763114 142 130 109
-0.654104 0.633647 -0.773288 141 131 114
-0.645000 0.462685 -0.815491 96 65 37
-0.648061 0.476706 -0.822469 80 58 38
-0.644325 0.455478 -0.809591 107 78 48
-0.645652 0.463958 -0.792902 108 75 45
-0.649234 0.478726 -0.811384 101 71 46
-0.640303 -0.004312 -0.845429 227 185 119
-0.544346 0.187024 -0.982935 146 129 110
-0.558269 0.198751 -0.971946 136 119 105
-0.600862 -0.085082 -1.004142 148 138 125
-0.510640 0.124396 -0.993066 138 127 114
-0.526924 0.148125 -0.992654 131 121 107
-0.499373 0.145216 -0.986987 128 102 78
-0.518674 0.170586 -0.578396 159 113 72
-0.525070 0.162245 -0.588090 196 143 89
-0.496575 0.156216 -0.582189 171 122 76
-0.669249 0.430746 -0.672996 146 129 110
-0.658748 0.448322 -0.669467 142 124 100
-0.394831 0.496390 -0.878513 87 65 42
-0.587666 0.634805 -0.698334 136 112 91
-0.571245 0.599509 -0.689918 144 124 109
-0.581097 0.632782 -0.662645 153 127 109
-0.582006 0.607184 -0.694206 94 75 62
-0.439660 0.392000 -0.988557 98 81 66
-0.440445 0.402118 -0.984128 100 79 63
-0.516748 0.229894 -0.970977 145 126 116
-0.547791 0.192833 -0.976053 152 130 122
-0.536881 0.216551 -0.973349 148 131 119
-0.517066 0.216372 -0.981288 148 140 129
-0.528824 0.208964 -0.983908 155 137 128
-0.542595 0.235667 -0.975257 119 106 95
-0.422952 0.401671 -0.990956 90 79 64
-0.419950 0.430633 -0.984543 94 78 62
-0.411819 0.412962 -0.990918 89 76 59
-0.568488 0.220264 -0.598599 109 80 62
-0.643594 0.491549 -0.708736 107 84 59
-0.636194 0.018343 -0.726800 89 77 59
-0.623552 0.347258 -0.626195 138 99 66
-0.619297 0.362517 -0.635903 141 98 64
-0.636077 0.345492 -0.615781 134 94 54
-0.566020 0.291823 -0.985413 96 81 63
-0.564629 0.300034 -0.984518 93 79 61
-0.575665 0.288214 -0.980547 99 80 59
-0.570887 0.313009 -0.977179 103 85 64
-0.559583 0.291577 -0.979008 102 84 68
-0.550558 0.309941 -0.977464 100 83 67
-0.581231 0.294698 -0.977399 121 96 69
-0.582567 0.293705 -0.963653 117 96 77
-0.578088 0.311346 -0.962407 54 42 37
-0.590118 0.281132 -0.969508 121 96 74
-0.353834 0.608196 -0.854196 112 92 77
-0.345263 0.600970 -0.859387 128 100 77
-0.777987 0.632686 -0.590593 165 156 143
-0.566472 0.034431 -0.769210 106 80 55
-0.571457 0.036841 -0.770938 95 70 48
-0.563109 0.052967 -0.787966 98 72 48
-0.560004 0.047491 -0.785551 103 82 61
-0.548725 0.050396 -0.794668 95 75 56
-0.574195 0.035736 -0.762862 83 60 44
-0.666531 0.402608 -0.719953 101 68 36
-0.659192 0.397127 -0.738761 96 64 35
-0.675169 0.413291 -0.709059 128 100 78
-0.646330 0.281791 -0.633430 131 108 84
-0.625731 0.286698 -0.657225 131 88 54
-0.630611 0.306145 -0.656969 124 100 71
-0.644331 0.298411 -0.640997 136 111 91
-0.636016 0.290987 -0.649000 129 106 81
-0.542299 0.658124 -0.770242 141 112 86
-0.549996 0.662652 -0.767411 105 79 59
-0.616714 -0.013434 -0.600659 94 76 56
-0.623195 -0.007976 -0.629530 131 96 63
-0.564902 0.211259 -0.596649 136 110 84
-0.572221 0.194441 -0.581780 143 118 90
-0.580145 0.214065 -0.586892 134 112 88
-0.556264 0.206092 -0.593978 132 112 93
-0.567108 0.191599 -0.585535 128 103 85
-0.577397 0.203644 -0.580716 170 135 95
-0.605354 0.142937 -0.633838 176 133 87
-0.627282 0.151198 -0.625153 173 130 84
-0.617649 0.151082 -0.600187 173 131 88
-0.628744 0.156274 -0.613305 197 155 108
-0.621874 0.156895 -0.590132 236 197 146
-0.637296 0.158096 -0.631529 191 156 115
-0.617786 0.443405 -0.759689 112 90 67
-0.594468 0.453823 -0.764809 114 94 71
-0.608765 0.478064 -0.746658 133 109 87
-0.617345 0.450787 -0.730702 130 105 82
-0.568545 0.433225 -0.960560 103 86 66
-0.575114 0.432976 -0.964822 136 110 85
-0.580721 0.417352 -0.970658 101 84 65
-0.569605 0.441638 -0.955380 100 82 61
-0.861188 0.634285 -0.594788 160 150 136
-0.661751 0.453936 -0.689030 143 125 103
-0.674356 0.427810 -0.698381 140 125 109
-0.668472 0.450755 -0.712430 141 125 107
-0.679535 0.438620 -0.731620 140 126 110
-0.650360 0.275907 -0.807421 101 81 59
-0.654550 0.294715 -0.805597 95 77 58
-0.587893 0.628700 -0.735788 112 87 70
-0.605699 0.298574 -0.673509 121 90 58
-0.651732 0.363063 -0.815813 90 72 52
-0.661834 0.361231 -0.811569 81 65 42
-0.642350 0.377274 -0.802346 108 83 57
-0.641363 0.357236 -0.790857 126 97 66
-0.649752 0.378021 -0.821893 87 67 49
-0.540307 0.419461 -0.981564 98 81 65
-0.532858 0.437981 -0.974751 98 81 65
-0.489948 0.216291 -0.969814 122 112 105
-0.485565 0.240873 -0.970258 107 94 88
-0.501466 0.234006 -0.973931 109 99 90
-0.475191 0.235524 -0.966463 83 73 66
-0.511073 0.183160 -0.618020 129 113 95
-0.515414 0.171092 -0.613438 113 91 76
-0.528835 0.161766 -0.606244 148 111 75
-0.521826 0.177429 -0.616118 139 111 90
-0.804243 0.635308 -0.666201 159 147 132
-0.616593 0.121484 -0.763713 88 71 46
-0.581505 0.595684 -0.694761 137 110 90
-0.588488 0.578720 -0.684716 88 73 64
-0.586266 0.571165 -0.676693 89 74 65
-0.586837 0.593313 -0.686209 88 74 63
-0.651045 0.201223 -0.974348 165 136 106
-0.641121 0.208317 -0.968054 166 142 114
-0.654501 0.212387 -0.964261 161 132 103
-0.656161 0.197078 -0.951934 165 137 106
-0.650811 0.192546 -0.963216 165 137 106
-0.578129 0.097909 -0.734061 161 116 74
-0.574885 0.084177 -0.717693 178 135 86
-0.567566 0.110290 -0.728306 166 124 79
-0.568456 0.089823 -0.708651 162 120 79
-0.577779 -0.025424 -0.700215 114 79 46
-0.574576 -0.009629 -0.725480 96 73 48
-0.366752 0.583631 -0.941263 91 68 44
-0.368086 0.574335 -0.952433 99 75 51
-0.373180 0.557976 -0.946459 94 69 48
-0.395287 0.435596 -0.912697 74 55 38
-0.634756 0.377234 -0.585072 110 77 44
-0.627859 0.378883 -0.596003 112 74 42
-0.627896 0.170115 -0.585735 215 176 128
-0.691756 0.632411 -0.758636 148 138 120
-0.672034 0.631403 -0.761053 140 135 108
-0.660415 0.040320 -0.954475 166 134 111
-0.569180 0.007856 -0.723904 105 85 61
-0.569212 0.028904 -0.712001 109 82 58
-0.568085 0.022683 -0.720215 110 87 67
-0.571332 0.030425 -0.725673 111 87 67
-0.569421 0.448142 -0.616877 127 101 81
-0.579944 0.447825 -0.600534 98 70 47
-0.587612 0.465301 -0.607935 47 33 21
-0.575036 0.439488 -0.617142 155 126 102
-0.594591 0.441096 -0.617314 126 105 88
-0.583418 0.456643 -0.622543 113 90 75
-0.577652 0.420195 -0.612482 136 116 96
-0.543417 0.185396 -0.626316 137 105 74
-0.550068 0.202816 -0.625735 137 104 72
-0.556170 0.179134 -0.621381 137 113 92
-0.532705 0.184312 -0.626128 139 114 90
-0.607114 0.629263 -0.773166 112 91 73
-0.610864 0.628981 -0.785623 134 107 88
-0.631479 0.624073 -0.784272 141 123 104
-0.600543 0.629430 -0.760807 119 94 77
-0.603560 0.622046 -0.773091 112 91 73
-0.622415 0.621569 -0.792269 119 97 81
-0.618392 0.623167 -0.780187 139 114 93
-0.603815 0.623021 -0.788057 103 81 63
-0.641867 0.003877 -0.758435 99 84 67
-0.410713 0.391680 -0.775091 100 72 44
-0.409889 0.411124 -0.774747 112 82 54
-0.407050 0.427427 -0.785103 86 62 35
-0.404364 0.404603 -0.781696 94 68 41
-0.563788 0.063995 -0.996336 155 146 137
-0.585672 0.399603 -0.971726 118 99 75
-0.574755 0.411265 -0.965905 115 98 74
-0.613541 0.628400 -0.615539 162 150 140
-0.618052 0.630963 -0.631869 159 151 133
-0.602293 0.620893 -0.614826 160 150 138
-0.601253 0.624163 -0.632808 160 149 136
-0.605366 -0.011993 -0.823413 119 84 48
-0.595543 -0.045173 -0.796646 176 145 116
-0.607611 -0.032753 -0.800028 128 89 51
-0.610558 -0.022233 -0.809601 120 83 45
-0.599506 -0.022968 -0.809032 142 115 92
-0.604403 -0.044196 -0.793307 157 129 109
-0.689050 0.421432 -0.870709 88 61 35
-0.685159 0.430656 -0.897056 87 59 36
-0.694792 0.431691 -0.900235 84 62 35
-0.697363 0.429127 -0.876257 84 62 40
-0.678537 0.421806 -0.867980 88 59 29
-0.586433 -0.019970 -0.743526 118 81 47
-0.599441 -0.026209 -0.737073 127 85 44
-0.580907 -0.032399 -0.759465 120 85 54
-0.596338 -0.049372 -0.750732 151 101 62
-0.580024 -0.017164 -0.754980 123 89 48
-0.596029 -0.029743 -0.746566 129 93 56
-0.609070 -0.040756 -0.749739 193 139 77
-0.607140 -0.031340 -0.743342 183 133 76
-0.599218 0.058090 -0.859553 188 158 127
-0.576270 0.202739 -0.629414 130 95 66
-0.580044 0.188466 -0.629934 148 117 83
-0.561562 0.192310 -0.624293 132 111 87
-0.560064 0.216201 -0.629746 124 84 55
-0.509642 0.154387 -0.583049 173 124 76
-0.675490 0.398625 -0.803272 93 62 34
-0.672898 0.404152 -0.821759 91 63 32
-0.623606 0.364054 -0.665910 142 118 95
-0.663753 0.500831 -0.795921 134 113 89
-0.666213 0.486761 -0.783176 137 118 96
-0.676026 0.457823 -0.764652 136 114 91
-0.674109 0.466060 -0.785363 134 113 90
-0.665726 0.478774 -0.769550 122 101 75
-0.652551 0.069176 -0.944045 152 122 85
-0.627725 0.140151 -0.684238 173 133 84
-0.616569 0.137165 -0.672520 173 132 85
-0.586660 0.614930 -0.723136 97 74 60
-0.586606 0.631658 -0.728858 126 100 80
-0.569084 0.615043 -0.730760 148 116 90
-0.571260 0.617555 -0.706589 147 129 114
-0.561160 0.625180 -0.703957 145 130 114
-0.580560 0.597767 -0.698623 129 104 88
-0.576213 0.598703 -0.717603 129 104 88
-0.587712 0.603266 -0.710729 92 76 63
-0.584170 0.629625 -0.702622 118 93 78
-0.578996 0.614123 -0.704431 93 74 62
-0.587109 0.616867 -0.711228 127 99 79
-0.568352 0.616857 -0.720112 147 120 99
-0.652545 0.009537 -0.989178 217 174 123
-0.638720 0.009844 -0.989937 140 100 60
-0.666840 0.133595 -0.812980 123 98 73
-0.669981 0.135369 -0.834109 104 82 64
-0.621439 0.009526 -0.627494 81 71 54
-0.615119 0.012111 -0.612805 81 68 51
-0.515026 0.612128 -0.799876 56 50 44
-0.522595 0.615270 -0.766501 139 119 98
-0.526037 0.616329 -0.781075 144 127 107
-0.519114 0.607991 -0.785237 115 97 76
-0.515683 0.612896 -0.781891 117 101 83
-0.494726 0.613434 -0.769980 134 107 88
-0.502679 0.610258 -0.772291 118 92 72
-0.503255 0.613565 -0.793088 113 99 81
-0.495924 0.602864 -0.788780 112 102 89
-0.508307 0.601732 -0.796644 110 93 71
-0.630853 -0.048710 -1.004290 155 146 137
-0.400771 0.553309 -0.958036 87 69 55
-0.411334 0.541136 -0.951787 83 67 52
-0.672094 0.054793 -0.986908 177 166 158
-0.667368 0.028507 -0.981686 196 171 144
-0.354839 0.594472 -0.921390 80 60 39
-0.339872 0.586290 -0.904635 85 60 37
-0.339500 0.596509 -0.911182 83 58 35
-0.343997 0.598406 -0.914280 87 64 41
-0.346673 0.600702 -0.901663 85 62 39
-0.362444 0.592768 -0.908454 95 73 47
-0.352978 0.601674 -0.898307 95 73 46
-0.350669 0.593475 -0.915991 83 61 39
-0.564802 0.113291 -0.990497 137 129 115
-0.381426 0.531461 -0.939775 64 48 32
-0.379982 0.543425 -0.941132 80 61 42
-0.387285 0.534336 -0.946140 37 29 20
-0.392984 0.513489 -0.934065 81 62 44
-0.651974 0.146431 -0.761770 236 196 146
-0.644819 0.356206 -0.778005 123 94 60
-0.643756 0.378107 -0.786021 122 90 57
-0.655486 0.369333 -0.765325 121 87 55
-0.657952 0.355164 -0.763505 122 88 54
-0.581338 0.147326 -0.769885 96 78 58
-0.585680 0.139519 -0.762432 96 75 55
-0.606074 0.148188 -0.786001 128 101 69
-0.611011 0.131113 -0.777844 86 74 50
-0.599181 0.154396 -0.777478 88 68 43
-0.442957 0.628000 -0.724752 154 140 129
-0.423987 0.610624 -0.725168 152 140 128
-0.427456 0.623923 -0.723092 152 138 126
-0.433226 0.618642 -0.702882 139 119 101
-0.449192 0.614136 -0.706890 151 127 105
-0.443731 0.623810 -0.714986 150 128 110
-0.450343 0.622597 -0.721305 153 135 117
-0.423466 0.620094 -0.715645 152 140 128
-0.426360 0.621683 -0.702475 148 133 120
-0.630699 0.633074 -0.707696 153 141 126
-0.638416 0.634681 -0.709456 153 140 124
-0.664188 0.631261 -0.733747 150 140 124
-0.632782 0.630963 -0.732150 149 136 117
-0.642760 0.634243 -0.730897 150 139 122
-0.586143 0.051088 -0.623993 97 74 52
-0.605910 0.033980 -0.627711 89 71 49
-0.589881 0.044258 -0.616365 88 72 52
-0.605785 0.026592 -0.611965 85 70 50
-0.563228 0.455604 -0.601173 120 94 70
-0.582482 0.436230 -0.591680 123 97 72
-0.574615 0.433416 -0.588800 134 112 88
-0.701487 0.629743 -0.623923 164 155 142
-0.716435 0.629446 -0.630367 163 153 142
-0.668614 0.174008 -0.768488 95 80 59
-0.666272 0.126802 -0.871870 226 190 143
-0.672443 0.141416 -0.872932 102 84 67
-0.672446 0.152657 -0.883032 114 92 67
-0.560339 0.613511 -0.635279 137 115 99
-0.574666 0.196333 -0.970928 143 122 104
-0.578853 0.204450 -0.985223 142 119 98
-0.570479 0.224014 -0.987338 120 101 81
-0.571793 0.183305 -0.966131 147 130 117
-0.565459 0.199407 -0.969301 132 120 113
-0.588379 0.188333 -0.990343 139 119 96
-0.659113 0.461087 -0.709140 141 121 97
-0.654882 0.472188 -0.720768 134 114 87
-0.663545 0.459728 -0.720487 130 101 76
-0.651981 0.479256 -0.705658 143 123 102
-0.444148 0.626244 -0.739772 153 137 120
-0.439909 0.621388 -0.755625 146 137 123
-0.431555 0.613384 -0.736736 150 142 129
-0.433698 0.619268 -0.734682 148 141 128
-0.425593 0.607074 -0.767273 146 136 122
-0.459902 0.607207 -0.759080 134 116 98
-0.431134 0.618333 -0.764607 144 136 123
-0.439923 0.620884 -0.763546 145 134 120
-0.448884 0.628361 -0.759260 143 125 106
-0.437971 0.623840 -0.742896 149 138 124
-0.430124 0.614315 -0.752304 147 140 127
-0.451621 0.619733 -0.737989 155 131 104
-0.456058 0.615565 -0.754558 147 126 106
-0.444939 0.617426 -0.749383 151 138 124
-0.657150 0.424707 -0.604591 155 142 125
-0.661577 0.398618 -0.594967 152 138 123
-0.662849 0.400830 -0.616797 150 132 115
-0.615626 -0.015734 -0.672275 214 173 116
-0.612566 -0.021374 -0.663878 233 185 119
-0.632811 0.621949 -0.803124 143 127 111
-0.639938 0.629681 -0.785604 141 130 116
-0.630294 0.626197 -0.768681 143 131 110
-0.651874 0.632748 -0.797625 141 127 111
-0.646028 0.633079 -0.759825 143 134 117
-0.557975 0.173037 -0.769643 83 65 43
-0.575171 0.155184 -0.769323 121 88 64
-0.562459 0.162575 -0.769270 131 94 62
-0.535179 0.150322 -0.766528 91 69 49
-0.568585 0.148856 -0.770008 114 87 57
-0.518255 0.127291 -0.582703 171 140 110
-0.529071 0.113572 -0.586712 162 137 116
-0.585251 0.624336 -0.595571 174 155 137
-0.587562 0.621661 -0.574275 183 159 141
-0.573783 0.627383 -0.594605 181 155 136
-0.565752 0.616716 -0.586845 157 132 109
-0.567545 0.625138 -0.573368 162 136 115
-0.567333 0.620460 -0.596988 159 135 111
-0.582356 -0.016385 -1.000681 150 142 128
-0.561665 -0.012712 -1.000179 150 142 129
-0.577059 0.031390 -0.997806 141 133 122
-0.663610 0.181848 -0.871404 99 84 65
-0.504609 0.357040 -0.969404 117 90 67
-0.503521 0.378812 -0.971476 106 84 63
-0.524736 0.363637 -0.972114 108 86 66
-0.505598 0.391764 -0.970640 116 91 68
-0.634540 -0.008329 -1.001702 159 149 139
-0.356785 0.605061 -0.848929 112 98 83
-0.672424 0.142271 -0.926685 121 101 83
-0.674873 0.139075 -0.947874 205 175 139
-0.676687 0.155507 -0.956994 136 114 98
-0.671603 0.123415 -0.943139 221 190 141
-0.615520 -0.039168 -0.770135 173 126 75
-0.613252 -0.032180 -0.791246 151 104 64
-0.618349 0.470459 -0.659581 88 64 42
-0.592821 0.166253 -0.702486 126 97 67
-0.592581 0.181972 -0.727862 107 80 53
-0.591299 0.170084 -0.720954 119 92 63
-0.588869 0.155540 -0.724726 88 70 53
-0.678801 0.096124 -0.990982 172 153 142
-0.652615 0.491629 -0.814447 74 53 34
-0.675729 0.468296 -0.808580 121 102 82
-0.678553 0.473046 -0.820961 114 90 68
-0.670544 0.481186 -0.802177 131 116 98
-0.520596 0.626088 -0.618300 171 152 135
-0.511627 0.631917 -0.624828 175 157 136
-0.525856 0.622171 -0.602306 175 156 135
-0.462707 0.378059 -0.952604 102 80 59
-0.590551 0.061763 -0.992755 170 156 145
-0.576508 0.079398 -0.995595 163 157 148
-0.579651 0.060098 -0.997638 155 145 137
-0.577720 0.051855 -0.573188 125 105 87
-0.679908 0.421417 -0.726444 115 92 69
-0.684644 0.416235 -0.761946 131 110 86
-0.687363 0.428611 -0.767393 135 121 106
-0.679192 0.404070 -0.760711 105 80 53
-0.472850 0.431417 -0.966056 119 92 68
-0.476012 0.396639 -0.970344 90 73 54
-0.458664 0.393509 -0.960040 81 66 51
-0.617649 0.170565 -0.862698 135 103 80
-0.616383 0.166784 -0.841824 114 94 77
-0.594092 0.467356 -0.628127 124 104 91
-0.582237 0.460911 -0.608064 109 83 58
-0.563323 0.467327 -0.609965 109 83 61
-0.393111 0.464069 -0.805413 72 52 32
-0.394198 0.457080 -0.790335 115 85 59
-0.403273 0.457476 -0.799117 117 89 64
-0.405098 0.458142 -0.821402 92 67 43
-0.774501 0.635773 -0.692336 155 145 130
-0.795543 0.636261 -0.676943 157 148 130
-0.667847 0.276600 -0.770638 97 75 49
-0.665952 0.284081 -0.792421 87 72 53
-0.670470 0.252515 -0.776714 83 70 51
-0.671411 0.285846 -0.776959 86 72 51
-0.608507 0.176310 -0.793822 156 123 86
-0.610536 0.148127 -0.806098 144 115 81
-0.613759 0.157570 -0.822614 163 127 85
-0.496921 0.600366 -0.776837 85 78 67
-0.487106 0.600709 -0.777143 123 100 80
-0.482097 0.616418 -0.774361 142 116 92
-0.477298 0.597590 -0.781299 131 110 89
-0.473591 0.600298 -0.772646 144 122 98
-0.663606 0.301114 -0.796445 91 73 55
-0.667938 0.330780 -0.796531 87 73 49
-0.655605 0.307251 -0.805453 91 74 53
-0.634705 -0.008704 -0.744361 101 82 67
-0.635318 -0.011548 -0.757644 115 92 72
-0.617867 -0.022133 -0.736587 227 177 109
-0.617924 -0.028622 -0.749270 184 132 70
-0.606785 0.034878 -0.876936 129 97 66
-0.610110 0.046989 -0.894347 128 98 71
-0.601485 0.043883 -0.851847 228 189 138
-0.659241 0.631764 -0.708979 158 145 129
-0.621635 -0.028100 -0.761879 172 120 62
-0.628222 -0.018080 -0.760059 234 178 114
-0.621621 -0.024474 -0.780813 132 90 45
-0.653433 0.022683 -0.922925 227 180 130
-0.654376 0.014481 -0.958764 228 180 126
-0.643325 0.009674 -0.935148 148 103 56
-0.650086 0.012253 -0.938450 229 182 125
-0.636044 0.012077 -0.937357 138 95 56
-0.636540 0.014814 -0.956543 135 94 55
-0.625741 0.020138 -0.942470 131 91 49
-0.646482 0.162226 -0.635531 133 122 105
-0.640981 0.150875 -0.678044 109 82 53
-0.649633 0.158175 -0.666876 132 113 88
-0.652750 0.163696 -0.666991 92 77 58
-0.648569 0.162417 -0.653958 96 82 63
-0.649315 0.171589 -0.640953 118 105 90
-0.443680 0.612057 -0.800285 129 115 95
-0.436399 0.617224 -0.796567 131 112 96
-0.444873 0.610674 -0.786792 131 119 99
-0.552493 0.031260 -0.626084 174 141 108
-0.533503 0.624936 -0.727446 145 129 114
-0.537113 0.630860 -0.721900 142 126 112
-0.548173 0.632699 -0.724716 150 140 127
-0.549662 0.634377 -0.708514 157 141 128
-0.543140 0.620117 -0.695872 153 142 131
-0.546166 0.630344 -0.702485 153 141 129
-0.530067 0.625095 -0.710457 140 126 111
-0.536000 0.627733 -0.704742 138 124 109
-0.520796 0.627795 -0.708669 157 139 124
-0.390083 0.432234 -0.843041 77 61 40
-0.410391 0.439468 -0.844958 72 51 30
-0.400669 0.417595 -0.823419 91 69 47
-0.408213 0.429621 -0.833577 72 52 29
-0.413425 0.447664 -0.851767 71 52 29
-0.413006 0.437449 -0.827773 72 51 29
-0.408175 0.428353 -0.853372 77 55 32
-0.402751 0.424873 -0.837147 74 56 34
-0.498169 0.635025 -0.633212 191 166 144
-0.494982 0.632160 -0.619435 171 147 127
-0.507023 0.637256 -0.619971 176 152 131
-0.502471 0.646290 -0.633045 183 159 139
-0.494900 0.649984 -0.617284 157 137 124
-0.491447 0.632037 -0.627485 177 158 142
-0.494550 0.630693 -0.610546 177 147 125
-0.734641 0.634104 -0.692812 156 147 131
-0.752732 0.635305 -0.684915 158 148 130
-0.732146 0.633415 -0.674500 159 149 134
-0.755455 0.632904 -0.663507 159 147 133
-0.618964 0.163783 -0.872528 155 119 82
-0.626675 0.131994 -0.880687 153 117 81
-0.620175 0.147436 -0.860694 153 118 81
-0.670462 0.627672 -0.598360 168 159 148
-0.662551 0.628839 -0.577222 166 156 146
-0.682660 0.628568 -0.586834 168 155 147
-0.508037 0.159255 -0.762772 99 74 51
-0.520106 0.159090 -0.767033 80 62 43
-0.614474 -0.020583 -0.643192 212 168 114
-0.780843 0.634799 -0.663008 160 149 135
-0.600116 0.051613 -0.661757 148 112 73
-0.643610 0.400624 -0.796403 118 90 55
-0.641231 0.391477 -0.813253 107 84 57
-0.640445 0.401427 -0.808613 116 89 60
-0.641716 0.416761 -0.807346 112 85 52
-0.605668 0.629369 -0.796449 112 91 72
-0.618147 0.627214 -0.810409 135 110 92
-0.624057 0.624759 -0.820231 130 104 83
-0.609769 0.629512 -0.803195 115 93 75
-0.450545 0.615409 -0.784400 73 61 54
-0.433690 0.617360 -0.780840 141 131 115
-0.425606 0.617078 -0.785134 141 130 114
-0.449948 0.617886 -0.764862 153 127 107
-0.653996 0.170205 -0.755908 165 125 76
-0.599369 0.091142 -0.971131 149 126 106
-0.592745 0.108862 -0.974855 161 135 111
-0.619665 0.101462 -0.961986 161 133 107
-0.614169 0.121773 -0.963782 153 133 118
-0.622063 0.113919 -0.963877 142 119 97
-0.603126 0.090117 -0.959132 171 142 115
-0.404105 0.389046 -0.747974 89 63 41
-0.818646 0.636209 -0.647324 161 153 135
-0.800143 0.633761 -0.641050 159 151 134
-0.599829 0.253747 -0.961603 82 69 54
-0.610078 0.222807 -0.944109 54 44 32
-0.599462 0.253734 -0.939436 109 91 71
-0.603605 0.244290 -0.943959 87 73 58
-0.595540 0.246416 -0.933638 89 70 58
-0.594604 0.258515 -0.937778 140 117 93
-0.657682 0.117208 -0.897592 163 127 82
-0.637825 0.117261 -0.902813 157 120 82
-0.643279 0.111281 -0.914218 166 126 82
-0.628422 0.138540 -0.914108 155 117 82
-0.445858 0.610443 -0.779110 144 131 117
-0.455505 0.615909 -0.769494 120 93 75
-0.646042 0.213983 -0.901388 120 97 76
-0.623689 0.208974 -0.906732 139 115 93
-0.624597 0.214118 -0.915412 152 127 101
-0.427422 0.365561 -1.002464 92 74 55
-0.436117 0.366409 -1.006720 90 71 53
-0.621472 0.264165 -0.611180 147 109 73
-0.631944 0.250460 -0.608392 145 104 65
-0.620301 0.467352 -0.640628 115 89 64
-0.618240 0.451253 -0.657977 119 85 54
-0.621922 0.463750 -0.651822 116 83 53
-0.620923 0.449681 -0.642896 125 87 53
-0.691713 0.437053 -0.793631 125 109 92
-0.689874 0.424844 -0.785412 123 103 78
-0.491537 0.359660 -0.965566 121 94 68
-0.386912 0.520121 -0.929281 56 42 28
-0.679836 0.173826 -0.973529 116 106 89
-0.675015 0.178308 -0.964140 113 98 82
-0.682165 0.143624 -0.972495 140 129 116
-0.383286 0.444977 -0.966976 85 70 55
-0.382391 0.435725 -0.958993 85 70 55
-0.635593 -0.006509 -0.879262 146 99 51
-0.641908 -0.004830 -0.874566 131 87 43
-0.631462 -0.010589 -0.854705 128 84 53
-0.622079 -0.009505 -0.852462 126 87 52
-0.824537 0.632206 -0.580649 163 153 141
-0.803177 0.633139 -0.600402 162 154 140
-0.803715 0.632762 -0.586217 165 158 143
-0.600782 0.630264 -0.749607 139 114 94
-0.628590 0.627512 -0.754372 142 120 100
-0.615114 0.625460 -0.763237 144 123 101
-0.597430 0.628250 -0.737289 115 92 76
-0.597941 0.634649 -0.731465 143 116 92
-0.561791 0.628970 -0.639273 138 111 91
-0.574454 0.633020 -0.650623 135 109 93
-0.571863 0.636271 -0.664248 124 103 85
-0.566147 0.639044 -0.641025 130 106 86
-0.515531 0.481410 -0.976093 84 65 53
-0.584175 0.150333 -0.597472 105 69 39
-0.581999 0.156697 -0.585579 104 71 50
-0.571133 0.176601 -0.580121 121 91 71
-0.575154 0.181141 -0.574666 129 108 87
-0.581935 0.161272 -0.576962 116 82 64
-0.505786 0.171509 -0.985676 153 130 109
-0.647667 0.045044 -0.885250 159 142 133
-0.628829 0.062157 -0.903790 194 158 119
-0.638218 0.064248 -0.899516 155 135 119
-0.537697 0.099169 -0.720743 123 88 56
-0.532109 0.107870 -0.731445 126 91 57
-0.631062 0.249544 -0.759016 99 79 50
-0.584168 0.016267 -0.822105 94 80 66
-0.569013 0.008446 -0.812276 144 126 114
-0.570390 0.015382 -0.816034 113 97 81
-0.620474 0.168710 -0.957326 140 115 98
-0.625158 0.155967 -0.934096 156 120 84
-0.846446 0.631688 -0.559112 163 156 140
-0.842194 0.634290 -0.600640 160 152 138
-0.842216 0.634391 -0.584289 161 154 137
-0.861547 0.632566 -0.574546 162 152 138
-0.838509 0.636519 -0.621090 161 151 139
-0.646008 0.150739 -0.701013 91 72 48
-0.653783 0.158508 -0.694457 93 73 50
-0.553339 0.134232 -0.713970 129 95 65
-0.557830 0.159082 -0.726523 125 93 63
-0.561615 0.148763 -0.725143 148 109 72
-0.573405 0.159578 -0.727127 124 94 68
-0.550309 0.148775 -0.724762 131 98 66
-0.542441 0.166321 -0.729093 121 95 63
-0.548823 0.171096 -0.730426 112 86 56
-0.538580 0.153749 -0.725438 102 75 51
-0.553799 0.131570 -0.720995 146 107 69
-0.622736 0.426976 -0.711327 111 83 57
-0.612055 0.410647 -0.730413 119 92 66
-0.615800 0.416020 -0.715099 133 113 93
-0.697824 0.434976 -0.838682 78 62 41
-0.686110 0.417066 -0.837423 87 60 34
-0.694914 0.427040 -0.850812 88 61 38
-0.678881 0.413108 -0.845123 87 59 30
-0.648806 0.469923 -0.859775 81 52 29
-0.656806 0.456469 -0.853643 86 59 34
-0.564134 0.455981 -0.756773 148 118 91
-0.616665 0.483097 -0.588138 152 117 82
-0.644431 0.115990 -0.838918 165 127 82
-0.657648 0.124555 -0.848562 170 132 84
-0.622433 0.125030 -0.829809 140 108 78
-0.628776 0.114913 -0.833950 147 112 81
-0.620653 0.135190 -0.851455 137 105 76
-0.633147 0.112186 -0.832964 166 126 82
-0.671654 0.171501 -0.941855 111 95 79
-0.668075 0.175899 -0.925347 104 92 70
-0.453488 0.598045 -0.687571 142 121 102
-0.470119 0.590283 -0.692266 125 111 95
-0.463586 0.590473 -0.687442 111 104 90
-0.457306 0.584825 -0.679824 152 137 125
-0.556285 0.378909 -0.973440 61 48 39
-0.576812 0.113893 -0.733310 143 101 60
-0.573580 0.141404 -0.723038 140 97 61
-0.575968 0.128124 -0.732739 139 97 59
-0.557275 0.120286 -0.707559 73 53 37
-0.564422 0.133251 -0.730294 153 113 74
-0.558201 0.111331 -0.710457 135 104 77
-0.569689 -0.017655 -0.697281 95 73 55
-0.516432 0.624793 -0.739785 150 139 125
-0.515055 0.617828 -0.756566 138 111 94
-0.496175 0.623555 -0.737517 170 148 128
-0.500355 0.621333 -0.755690 156 131 107
-0.557610 0.329904 -0.986609 90 76 56
-0.640640 0.319271 -0.648297 137 119 98
-0.627074 0.324449 -0.663257 130 106 79
-0.627085 0.337072 -0.664622 134 107 82
-0.612904 0.329493 -0.643108 145 103 74
-0.635134 0.000571 -0.722995 92 79 62
-0.631198 0.010406 -0.706386 89 76 61
-0.536030 0.389922 -0.985369 87 78 57
-0.534666 0.368260 -0.978326 89 78 58
-0.542196 0.404361 -0.980161 99 79 66
-0.540258 0.377645 -0.985977 85 72 53
-0.523904 0.382270 -0.976046 90 76 60
-0.546868 0.379381 -0.979605 97 77 62
-0.602922 0.140761 -0.711869 99 72 47
-0.590394 0.144012 -0.729613 94 69 48
-0.619549 0.134242 -0.731699 173 131 89
-0.609177 0.136223 -0.723036 173 131 89
-0.594859 0.155913 -0.713200 87 68 53
-0.623042 0.135900 -0.720820 171 132 84
-0.553687 0.084605 -0.995184 165 157 151
-0.545750 0.055150 -0.996736 147 136 124
-0.518648 0.082220 -0.996207 159 150 142
-0.651086 0.181790 -0.729662 128 94 61
-0.651008 0.174037 -0.741568 142 103 67
-0.651235 0.204027 -0.736465 148 106 66
-0.652773 0.203498 -0.749599 151 110 67
-0.659362 0.171463 -0.764315 146 109 75
-0.659981 0.210128 -0.766961 124 93 60
-0.656976 0.189259 -0.761276 140 103 64
-0.621324 -0.001803 -1.000446 144 137 125
-0.627109 0.007567 -0.997098 120 96 78
-0.620963 0.019672 -0.992711 129 99 72
-0.556158 0.614138 -0.693784 154 139 127
-0.564317 0.606614 -0.690671 150 131 117
-0.569496 0.590467 -0.682543 146 126 111
-0.700846 0.450890 -0.846728 75 61 43
-0.599171 -0.082774 -0.751416 187 139 86
-0.605195 -0.061533 -0.753780 186 136 83
-0.610403 -0.050150 -0.758518 197 145 90
-0.607124 -0.082039 -0.756925 193 143 93
-0.432736 0.376881 -1.002281 89 77 60
-0.435146 0.388641 -0.996022 92 79 62
-0.420627 0.385777 -0.996828 93 77 61
-0.608570 0.035235 -0.701756 98 79 59
-0.606653 0.053572 -0.717459 103 82 59
-0.622005 0.044410 -0.718553 93 77 61
-0.509666 0.146109 -0.990801 107 94 79
-0.538092 0.162421 -0.992337 126 116 105
-0.524078 0.189155 -0.989988 135 128 115
-0.672554 0.439208 -0.703546 142 129 110
-0.650486 0.192929 -0.827281 127 104 80
-0.652296 0.194281 -0.836736 94 80 62
-0.642502 -0.076203 -1.005989 159 144 135
-0.542919 0.081727 -0.711847 147 104 67
-0.538342 0.097237 -0.727820 104 77 52
-0.548338 0.064455 -0.700269 145 102 62
-0.555190 0.072770 -0.728855 112 81 55
-0.547215 0.073605 -0.710944 112 81 55
-0.649665 0.269948 -0.760450 137 103 69
-0.655426 0.270491 -0.761395 133 99 70
-0.414278 0.376016 -0.761801 95 73 52
-0.622200 -0.018753 -0.813994 132 88 46
-0.626441 -0.016418 -0.831646 219 168 117
-0.642159 -0.001853 -0.811490 230 183 119
-0.623046 -0.019289 -0.797862 122 83 46
-0.518781 0.349774 -0.972295 128 99 74
-0.503539 0.333030 -0.963748 121 93 69
-0.599826 -0.032991 -0.674434 153 106 57
-0.606839 -0.027702 -0.707536 215 165 107
-0.597021 -0.030727 -0.704518 130 85 42
-0.588397 -0.037703 -0.661103 129 86 42
-0.587202 -0.033531 -0.682379 122 83 45
-0.564151 0.609470 -0.630266 121 101 85
-0.564212 0.615310 -0.637111 140 113 93
-0.586347 0.624490 -0.648348 156 132 113
-0.588874 0.623084 -0.632134 162 139 119
-0.585470 0.623491 -0.613606 169 148 130
-0.566424 0.620528 -0.610278 146 121 99
-0.571081 0.623084 -0.611395 167 142 120
-0.566094 0.603062 -0.602971 139 115 96
-0.621629 0.056757 -0.774226 95 80 65
-0.629249 0.054016 -0.791339 97 84 66
-0.632698 0.050958 -0.772134 90 78 58
-0.639014 0.041281 -0.780575 93 77 56
-0.625581 0.054843 -0.760194 89 78 58
-0.619093 0.052680 -0.787707 143 113 83
-0.619252 0.388503 -0.641804 133 96 55
-0.618480 0.403483 -0.650047 132 95 54
-0.654117 0.433776 -0.840373 91 64 39
-0.661303 0.421606 -0.842017 85 56 32
-0.650644 0.411562 -0.832547 79 59 37
-0.657225 0.441453 -0.850619 84 54 34
-0.362978 0.591462 -0.944698 88 64 42
-0.357626 0.594879 -0.948887 95 71 46
-0.348350 0.595502 -0.929344 97 71 46
-0.341037 0.604093 -0.926699 101 74 47
-0.353616 0.595477 -0.935368 91 67 43
-0.641196 0.115673 -0.931017 156 122 77
-0.644818 0.107881 -0.932213 165 124 82
-0.628296 0.139430 -0.933657 161 124 80
-0.616547 0.175481 -0.967140 140 117 100
-0.611066 0.188571 -0.970033 131 109 95
-0.608300 0.180863 -0.979623 143 119 101
-0.381496 0.530046 -0.926333 85 60 40
-0.621642 0.177294 -0.919720 100 81 66
-0.621992 0.165375 -0.902052 118 94 70
-0.549629 0.041754 -0.633148 92 70 50
-0.609818 0.321525 -0.971433 136 114 87
-0.668196 0.173101 -0.888559 107 93 74
-0.670510 0.166532 -0.915360 105 93 70
-0.671476 0.151176 -0.903199 110 90 69
-0.660090 0.480707 -0.892553 81 57 32
-0.612042 -0.051336 -0.776541 174 129 89
-0.606369 -0.060615 -0.785127 131 93 58
-0.590848 -0.067476 -0.793105 178 146 118
-0.607926 -0.085445 -0.777453 163 142 123
-0.598440 -0.004126 -1.001306 160 148 139
-0.602920 -0.034924 -1.002131 152 142 133
-0.750312 0.629732 -0.599081 164 156 145
-0.752533 0.630200 -0.580487 166 157 146
-0.518520 0.130374 -0.745115 102 70 43
-0.532680 0.126838 -0.761990 91 71 51
-0.512785 0.150563 -0.764234 93 69 45
-0.510427 0.150882 -0.751781 94 64 39
-0.626611 0.259959 -0.771527 121 93 61
-0.673154 0.408133 -0.728030 111 77 48
-0.669188 0.397961 -0.751071 96 62 36
-0.649415 0.410509 -0.753771 95 65 37
-0.664012 0.396010 -0.752693 99 65 37
-0.667023 0.388533 -0.758282 98 64 39
-0.602733 0.415349 -0.612866 137 120 105
-0.657299 0.020805 -0.949197 223 180 131
-0.647494 0.012243 -0.956914 155 110 66
-0.663176 0.016855 -0.986759 220 177 123
-0.642781 0.012186 -0.974940 134 97 59
-0.492038 0.341412 -0.957444 84 71 52
-0.497824 0.252100 -0.964234 91 79 68
-0.505796 0.248573 -0.972726 100 92 82
-0.518307 0.242687 -0.965462 97 85 73
-0.508938 0.252739 -0.965694 94 82 70
-0.535127 0.232264 -0.971224 107 93 80
-0.554370 0.377322 -0.581491 159 121 88
-0.570890 0.408853 -0.573704 172 134 101
-0.557633 0.401369 -0.600823 167 144 116
-0.576741 0.402244 -0.605848 132 109 91
-0.552266 0.389872 -0.596368 159 127 99
-0.555352 0.378662 -0.589008 147 116 89
-0.560899 0.386742 -0.587506 150 116 85
-0.553832 0.394868 -0.575434 143 110 78
-0.556366 0.399450 -0.575942 169 129 94
-0.421295 0.601662 -0.724752 79 67 55
-0.603134 0.022340 -0.868609 121 82 47
-0.605291 0.008977 -0.865003 120 85 49
-0.613050 0.000139 -0.866741 123 82 48
-0.615783 0.013128 -0.903292 124 85 49
-0.646199 0.451698 -0.638467 142 112 86
-0.664380 0.426974 -0.646509 151 135 117
-0.636003 0.172926 -0.616194 205 162 118
-0.554796 0.073707 -0.578015 157 132 111
-0.613014 0.005681 -0.593539 82 71 52
-0.601780 0.026709 -0.593663 81 67 49
-0.616761 -0.003821 -0.597618 79 68 49
-0.642298 0.111815 -0.888542 167 125 82
-0.622992 0.134816 -0.858831 150 116 81
-0.639015 0.111717 -0.860277 166 127 82
-0.652854 0.114931 -0.878874 170 130 89
-0.638490 0.112269 -0.881982 165 125 84
-0.633867 0.114162 -0.858764 146 113 81
-0.591207 0.236835 -0.984600 105 87 73
-0.597526 0.235714 -0.967465 87 74 60
-0.582661 0.225947 -0.983362 126 101 84
-0.586106 0.237091 -0.980220 109 92 79
-0.586855 0.248759 -0.978118 106 88 71
-0.596883 0.240271 -0.986563 94 84 73
-0.595820 0.256230 -0.970024 51 42 31
-0.604023 0.234762 -0.961042 85 70 50
-0.695248 0.451104 -0.823344 90 80 56
-0.687516 0.462146 -0.813625 97 83 64
-0.693604 0.442508 -0.810264 113 99 79
-0.519317 0.446431 -0.978380 87 74 52
-0.514991 0.468532 -0.974325 100 81 65
-0.496812 0.453316 -0.983388 89 77 60
-0.505859 0.460080 -0.972894 89 75 57
-0.521553 0.439424 -0.975382 87 74 51
-0.519479 0.458264 -0.978563 82 65 52
-0.505675 0.455643 -0.985928 89 78 57
-0.505581 0.440088 -0.982284 88 79 59
-0.496576 0.463485 -0.980683 90 78 58
-0.496708 0.441195 -0.968874 89 76 62
-0.575213 0.024560 -0.744246 107 84 58
-0.573625 0.021615 -0.737229 110 85 59
-0.569520 0.005499 -0.757972 96 76 54
-0.570610 0.012690 -0.752275 113 84 56
-0.571464 0.028349 -0.758461 112 83 55
-0.562484 0.020631 -0.766625 91 74 56
-0.572655 0.034676 -0.752600 107 75 53
-0.580783 0.033691 -0.756704 125 86 55
-0.572142 0.031649 -0.741352 114 83 59
-0.578034 0.039866 -0.746707 142 117 85
-0.589478 0.485645 -0.777820 127 104 86
-0.602213 0.483215 -0.776781 126 104 84
-0.560755 0.603959 -0.616578 146 125 108
-0.564788 0.604443 -0.625513 136 116 98
-0.555721 0.613544 -0.622821 144 121 106
-0.567522 0.596631 -0.621473 129 111 95
-0.543523 0.624362 -0.609640 154 135 122
-0.563064 0.598732 -0.606539 141 124 105
-0.643086 0.202115 -0.624323 127 99 68
-0.645014 0.172374 -0.624445 138 112 86
-0.635072 0.195304 -0.610506 180 137 94
-0.645137 0.183974 -0.625405 141 117 91
-0.671276 0.377752 -0.767865 101 68 38
-0.673060 0.378372 -0.787651 90 60 36
-0.670984 0.365637 -0.783783 89 58 35
-0.662703 0.366457 -0.762890 115 80 45
-0.586760 0.636175 -0.714619 129 104 87
-0.558273 0.628351 -0.725626 149 129 113
-0.563327 0.630951 -0.712879 140 117 99
-0.662525 0.180948 -0.847953 92 79 64
-0.671244 0.163341 -0.863216 94 80 64
-0.671223 0.150024 -0.832022 93 80 66
-0.665279 0.174496 -0.833272 90 79 62
-0.526853 0.407291 -0.984993 87 79 54
-0.533038 0.406578 -0.985582 86 73 49
-0.494183 0.429803 -0.967079 87 75 61
-0.512781 0.436604 -0.983084 87 78 56
-0.525574 0.430777 -0.986100 93 77 62
-0.514034 0.418027 -0.976883 86 78 56
-0.518414 0.393133 -0.974023 89 77 62
-0.508193 0.412625 -0.974387 91 78 65
-0.501212 0.427440 -0.972223 85 72 59
-0.400997 0.463713 -0.979103 93 80 61
-0.390398 0.466334 -0.978200 86 70 57
-0.394526 0.466194 -0.960782 89 74 60
-0.387383 0.472853 -0.967902 89 74 60
-0.387602 0.463791 -0.963919 87 67 47
-0.676130 0.434891 -0.891828 88 58 31
-0.481505 0.641692 -0.707670 173 149 126
-0.478630 0.629301 -0.706308 85 75 61
-0.633443 0.259404 -0.645148 122 83 50
-0.643713 0.269294 -0.637218 122 99 70
-0.652454 0.194876 -0.709935 91 74 50
-0.654697 0.186856 -0.717369 117 95 63
-0.658471 0.250914 -0.764591 117 86 59
-0.673127 0.155549 -0.934084 118 95 74
-0.470169 0.222787 -0.963722 88 74 70
-0.634169 0.199675 -0.903405 155 129 104
-0.647385 0.192417 -0.888902 143 119 96
-0.640819 0.185273 -0.892222 189 157 126
-0.648504 0.179811 -0.911676 213 177 136
-0.641831 0.182789 -0.908204 173 146 112
-0.647166 0.210123 -0.890566 114 95 73
-0.665407 0.179265 -0.903991 121 98 70
-0.649409 0.204172 -0.905504 106 89 72
-0.643860 0.206840 -0.894895 108 93 75
-0.655547 0.192284 -0.908968 134 106 76
-0.651648 0.186821 -0.909872 121 99 79
-0.654393 0.190323 -0.930525 172 142 109
-0.617403 0.628614 -0.672104 157 146 132
-0.607464 0.625174 -0.664200 155 146 132
-0.616851 0.629310 -0.649495 158 146 135
-0.604824 0.627303 -0.641434 161 149 140
-0.598637 0.047928 -0.669559 157 116 77
-0.588419 0.050611 -0.686271 174 130 84
-0.599504 0.046059 -0.685669 207 157 104
-0.585629 0.056974 -0.671966 102 76 51
-0.578098 0.069640 -0.683232 133 101 79
-0.561660 0.222988 -0.972359 136 115 94
-0.549390 0.220066 -0.973682 125 113 106
-0.555117 0.233533 -0.970329 121 109 102
-0.568951 0.240809 -0.984873 128 105 85
-0.564660 0.231860 -0.986388 143 115 89
-0.561261 0.238681 -0.978381 139 112 88
-0.646639 0.003687 -0.852784 218 179 131
-0.625221 -0.087776 -1.005089 153 141 131
-0.614931 -0.119841 -1.005345 149 137 127
-0.611088 -0.061461 -1.004625 150 138 128
-0.517846 0.139981 -0.758060 96 73 52
-0.523465 0.151244 -0.769207 81 62 42
-0.535809 0.145944 -0.762329 62 52 41
-0.526824 0.136935 -0.767725 85 68 49
-0.398797 0.487403 -0.880289 99 73 47
-0.401553 0.477757 -0.868120 80 60 37
-0.396570 0.480688 -0.858794 82 61 39
-0.405478 0.468755 -0.875995 82 60 37
-0.659680 0.478514 -0.866491 86 58 32
-0.658024 0.457561 -0.873331 89 60 35
-0.657746 0.469991 -0.892662 87 60 33
-0.660097 0.477251 -0.876926 90 60 33
-0.671652 0.633404 -0.716201 156 144 132
-0.694911 0.634030 -0.722917 155 144 129
-0.693863 0.634634 -0.701805 157 147 129
-0.680402 0.632591 -0.699181 156 146 130
-0.411094 0.423299 -0.818062 72 52 30
-0.551282 0.602267 -0.595182 147 129 113
-0.555527 0.607566 -0.603083 143 119 100
-0.560045 0.603177 -0.595874 136 113 93
-0.548786 0.609344 -0.592865 96 86 80
-0.654316 0.038841 -0.924786 154 129 105
-0.647016 0.005029 -0.908619 230 180 114
-0.640935 0.002960 -0.910482 199 150 97
-0.651058 0.013805 -0.923454 232 182 115
-0.609959 0.307308 -0.635006 145 104 72
-0.631080 0.314969 -0.617173 141 102 69
-0.637971 0.324607 -0.617922 137 95 59
-0.620511 0.317826 -0.626175 141 99 63
-0.641369 0.319646 -0.625333 142 106 75
-0.524059 0.258865 -0.967520 105 91 74
-0.511045 0.263944 -0.966533 92 78 65
-0.504009 0.260561 -0.962012 94 84 72
-0.542866 0.438154 -0.590198 145 114 82
-0.557524 0.431114 -0.582987 166 130 98
-0.538551 0.429227 -0.584891 153 124 95
-0.546200 0.418922 -0.580562 144 114 87
-0.564298 0.426498 -0.579780 152 126 103
-0.649315 0.392012 -0.690465 104 73 43
-0.638438 0.381359 -0.677833 102 70 41
-0.636058 0.393145 -0.691371 103 72 42
-0.627128 0.397271 -0.683916 108 79 54
-0.622118 0.400457 -0.675662 130 99 76
-0.629564 0.382001 -0.676637 126 101 77
-0.624537 0.416617 -0.685632 108 77 52
-0.621353 0.386786 -0.673274 141 118 97
-0.644435 0.340697 -0.637775 111 76 48
-0.658228 0.398122 -0.705706 107 71 41
-0.661021 0.396301 -0.685517 120 91 54
-0.671948 0.412036 -0.688563 145 127 107
-0.672149 0.421535 -0.677890 143 129 108
-0.605638 0.265925 -0.968349 115 95 75
-0.610681 0.272906 -0.982201 97 82 68
-0.607804 0.286341 -0.980297 94 81 66
-0.603586 0.293445 -0.968769 91 80 65
-0.615317 0.293000 -0.974611 94 82 64
-0.600329 0.286994 -0.978555 101 86 70
-0.615703 0.278873 -0.972726 104 91 73
-0.617722 0.271905 -0.976713 102 88 70
-0.625684 0.277684 -0.972441 101 87 69
-0.593111 0.279999 -0.959755 103 86 70
-0.611207 0.139359 -0.657715 167 131 88
-0.606398 0.140184 -0.654954 144 114 84
-0.599030 0.144768 -0.658242 84 64 40
-0.569343 0.457380 -0.952488 127 100 78
-0.620268 0.171460 -0.939503 114 96 78
-0.617467 0.185063 -0.946469 105 90 76
-0.612300 0.466489 -0.630755 106 83 60
-0.613953 0.473837 -0.636328 100 75 55
-0.585386 0.478864 -0.604384 105 83 61
-0.571989 -0.017861 -0.765595 116 80 50
-0.564972 0.000139 -0.766694 94 71 50
-0.585168 0.418330 -0.582421 127 105 80
-0.588967 0.404075 -0.577919 117 91 67
-0.586801 0.393323 -0.577024 101 74 50
-0.499237 0.465638 -0.971335 86 71 54
-0.503851 0.468875 -0.963489 52 42 35
-0.498947 0.496829 -0.971420 55 42 34
-0.504334 0.475279 -0.976919 47 40 34
-0.667949 0.229305 -0.774918 95 78 57
-0.666961 0.231230 -0.782898 96 80 60
-0.668311 0.247048 -0.771197 99 80 56
-0.661461 0.207002 -0.791676 96 79 58
-0.663978 0.248709 -0.791282 93 76 57
-0.401630 0.477470 -0.913994 56 43 28
-0.401174 0.483347 -0.901261 73 51 35
-0.607050 -0.004345 -0.843628 122 84 46
-0.334219 0.606193 -0.862737 104 82 59
-0.341914 0.609361 -0.894421 102 87 72
-0.354941 0.602749 -0.884869 102 86 70
-0.459492 0.604701 -0.651971 144 125 106
-0.628189 0.465172 -0.592323 151 127 100
-0.624141 0.460728 -0.580317 153 116 83
-0.556095 0.178504 -0.737338 147 108 73
-0.644724 0.450122 -0.797365 110 78 46
-0.641699 0.426927 -0.815998 97 76 49
-0.648222 0.436765 -0.795379 115 81 46
-0.645602 0.424874 -0.798880 121 87 53
-0.642180 0.441110 -0.812218 113 81 50
-0.513507 0.628250 -0.636459 166 149 136
-0.532802 0.629810 -0.626597 135 110 91
-0.541582 0.631319 -0.631226 151 132 123
-0.549352 0.625278 -0.630892 151 132 123
-0.545847 0.625271 -0.600003 151 136 121
-0.530531 0.628945 -0.611717 166 141 124
-0.443166 0.598404 -0.797248 124 106 92
-0.497854 0.171201 -0.582123 145 105 70
-0.623965 0.460468 -0.720470 92 70 49
-0.604602 0.286566 -0.667290 129 97 69
-0.616426 0.306984 -0.665931 148 110 76
-0.610975 0.289272 -0.668219 148 110 76
-0.575394 0.102761 -0.986216 159 141 131
-0.578353 0.133729 -0.979633 148 126 110
-0.660107 0.414467 -0.833928 89 65 39
-0.668893 0.423878 -0.857706 87 60 34
-0.672536 0.406661 -0.828693 87 59 33
-0.651556 0.393554 -0.827642 82 65 40
-0.565266 -0.000436 -0.816841 142 131 122
-0.571359 -0.019089 -0.805467 125 102 88
-0.562058 0.184684 -0.738830 106 81 61
-0.575841 0.190260 -0.746211 89 71 55
-0.584582 0.170828 -0.728856 89 71 55
-0.571987 0.178730 -0.736064 97 74 58
-0.669794 0.106689 -0.971057 204 165 119
-0.653082 0.629841 -0.631773 162 153 143
-0.633441 0.631223 -0.623065 161 150 138
-0.649760 0.628213 -0.598385 160 154 139
-0.643802 0.629528 -0.617989 162 151 140
-0.631760 0.630605 -0.604658 161 154 139
-0.769006 0.632423 -0.611478 164 154 142
-0.781417 0.633281 -0.639821 165 153 141
-0.604859 0.173557 -0.785739 121 95 65
-0.574383 0.170721 -0.773161 117 87 57
-0.585344 0.161424 -0.775443 106 82 59
-0.585759 0.177428 -0.772263 93 69 48
-0.585784 0.188406 -0.775370 96 76 60
-0.594329 0.174983 -0.776455 94 71 50
-0.557679 0.067203 -0.728310 89 74 59
-0.607195 0.427522 -0.753995 115 94 71
-0.617854 0.418346 -0.747168 107 86 64
-0.604707 0.410134 -0.737224 109 85 61
-0.627083 0.430564 -0.756805 110 89 68
-0.468734 0.616944 -0.623395 168 144 119
-0.481217 0.624598 -0.625993 190 164 143
-0.560892 0.032345 -0.777077 95 76 56
-0.580754 0.030780 -0.772954 125 87 55
-0.483239 0.617998 -0.611265 178 148 119
-0.574932 0.040713 -0.782571 105 77 51
