ply
format ascii 1.0
element vertex 1256
property float x
property float y
property float z
property uchar red
property uchar green
property uchar blue
end_header
-0.493003 0.508620 -0.371769 66 19 22
-0.095872 0.698774 -0.398222 63 27 19
-0.096077 0.697101 -0.377814 66 29 23
-0.112175 0.696310 -0.382814 63 25 22
-0.312505 0.355079 -0.834296 76 42 21
-0.326920 0.374987 -0.833849 73 39 18
-0.290127 0.397235 -0.829338 77 42 18
-0.310838 0.375713 -0.832622 76 42 17
-0.147385 0.694164 -0.463081 66 28 21
-0.120478 0.694818 -0.481598 41 14 9
-0.119956 0.692602 -0.467646 66 26 26
-0.391316 0.666107 -0.530212 64 16 14
-0.371297 0.645521 -0.502658 55 15 15
-0.384928 0.655106 -0.512587 62 18 15
-0.375370 0.646007 -0.501384 53 17 11
-0.379223 0.647396 -0.512362 60 18 14
-0.205685 0.557694 -0.820021 60 35 25
-0.173572 0.562976 -0.820652 58 32 18
-0.221121 0.671114 -0.777497 43 28 21
-0.229143 0.671062 -0.765546 44 30 22
-0.201733 0.671051 -0.776345 41 28 22
-0.194523 0.673727 -0.748745 46 22 19
-0.207103 0.670864 -0.763232 45 26 21
-0.206573 0.672977 -0.741448 46 22 18
-0.796222 0.502781 -0.370634 66 19 18
-0.796541 0.479348 -0.383083 87 22 20
-0.404917 0.417552 -0.830843 73 40 20
-0.408751 0.445393 -0.827227 72 40 21
-0.390490 0.441944 -0.830677 72 39 20
-0.403067 0.431273 -0.829383 73 39 19
-0.811097 0.541743 -0.395330 103 23 26
-0.815350 0.527807 -0.426618 101 28 23
-0.043836 0.669623 -0.764771 37 24 18
-0.042892 0.671076 -0.780860 36 25 19
-0.034128 0.673282 -0.777215 37 24 19
-0.061184 0.670068 -0.765361 40 21 19
-0.023592 0.678736 -0.752064 39 18 16
-0.043701 0.675080 -0.753364 40 20 19
-0.679407 0.373458 -0.828265 120 66 25
-0.699739 0.360908 -0.829785 126 70 28
-0.225070 0.697279 -0.426256 68 29 22
-0.237929 0.694761 -0.427920 68 30 20
-0.216439 0.691473 -0.399725 67 28 18
-0.390498 0.408229 -0.831116 73 41 21
-0.324470 0.473931 -0.825394 70 35 20
-0.299665 0.454763 -0.827723 70 36 20
-0.650152 0.695749 -0.545903 98 42 38
-0.645847 0.695489 -0.531250 90 32 25
-0.650547 0.697912 -0.529995 130 71 65
-0.279770 0.266710 -0.834832 80 44 21
-0.261964 0.230864 -0.835202 79 42 19
-0.294901 0.251561 -0.835710 80 45 18
-0.283182 0.231090 -0.834770 81 45 19
-0.190602 0.607612 -0.815817 62 38 21
-0.208737 0.600774 -0.817584 65 40 26
-0.224459 0.589383 -0.817970 61 38 23
-0.197160 0.597601 -0.819419 61 38 17
-0.204279 0.578097 -0.820090 65 37 22
-0.645909 0.381610 -0.826124 118 65 29
-0.659486 0.379446 -0.828458 114 64 25
-0.634266 0.361715 -0.826889 123 70 28
-0.490508 0.426044 -0.394920 58 14 14
-0.498236 0.428875 -0.370503 64 17 17
-0.493691 0.400450 -0.378543 62 17 17
-0.494042 0.439967 -0.382654 63 18 17
-0.487525 0.417265 -0.400409 58 16 13
-0.504164 0.568708 -0.802755 48 27 14
-0.512737 0.571775 -0.799809 57 32 18
-0.513205 0.578919 -0.808059 49 28 14
-0.520933 0.591357 -0.809140 59 33 19
-0.511054 0.557098 -0.787528 51 32 16
-0.454461 0.334684 -0.835869 77 45 19
-0.440558 0.352878 -0.834939 75 41 23
-0.460742 0.379983 -0.834385 78 43 21
-0.619706 0.706598 -0.526365 78 27 19
-0.606762 0.699840 -0.548615 104 46 38
-0.617558 0.700050 -0.545173 107 48 42
-0.592287 0.705837 -0.550610 80 24 19
-0.602447 0.704879 -0.544074 85 27 22
-0.607588 0.704183 -0.526565 80 26 24
-0.809418 0.458857 -0.450048 84 21 22
-0.406262 0.667289 -0.740835 61 19 18
-0.407300 0.681020 -0.707355 57 19 16
-0.414613 0.684887 -0.736295 59 23 20
-0.418530 0.686547 -0.753514 61 33 27
-0.401227 0.484259 -0.825297 73 39 20
-0.417613 0.491642 -0.823376 71 39 20
-0.391558 0.493503 -0.823645 71 40 19
-0.405673 0.686593 -0.612060 62 20 15
-0.357800 0.658800 -0.486160 52 21 17
-0.370692 0.647798 -0.484290 52 15 15
-0.370965 0.646315 -0.456916 52 17 15
-0.394352 0.551484 -0.823129 68 38 21
-0.152800 0.685441 -0.610535 45 16 14
-0.157840 0.688049 -0.594792 44 18 15
-0.165896 0.688697 -0.606592 44 19 16
-0.170768 0.684688 -0.618865 44 17 14
-0.184618 0.687701 -0.628787 46 18 15
-0.485021 0.472330 -0.421357 53 13 12
-0.482089 0.498037 -0.435928 53 13 12
-0.485650 0.491232 -0.417611 54 16 14
-0.322685 0.697255 -0.511394 64 26 19
-0.286474 0.697670 -0.502502 64 26 20
-0.296478 0.697694 -0.509729 64 26 20
-0.294031 0.695779 -0.524293 64 26 19
-0.185432 0.232400 -0.832463 78 45 22
-0.188355 0.212759 -0.832944 78 45 24
-0.341819 0.682918 -0.552539 60 24 20
-0.333916 0.692215 -0.528450 63 25 19
-0.347027 0.676958 -0.530087 60 24 21
-0.338048 0.689230 -0.506643 62 25 17
-0.359074 0.658044 -0.523897 55 24 18
-0.486961 0.705725 -0.726038 57 23 16
-0.462101 0.702481 -0.714565 60 21 18
-0.482216 0.706389 -0.731668 57 24 14
-0.490563 0.683377 -0.724810 56 22 15
-0.465432 0.703027 -0.734209 58 23 20
-0.473679 0.695183 -0.748067 64 41 34
-0.483503 0.699413 -0.740337 55 25 21
-0.487943 0.688924 -0.740358 65 49 36
-0.483108 0.545148 -0.467209 57 22 17
-0.484858 0.549065 -0.497454 59 24 18
-0.484109 0.489040 -0.453704 52 17 13
-0.484137 0.495975 -0.449421 54 18 15
-0.483978 0.478835 -0.433137 53 17 13
-0.486275 0.478594 -0.442416 53 16 13
-0.310754 0.697489 -0.468597 64 26 18
-0.286955 0.696670 -0.462934 65 27 19
-0.296925 0.697767 -0.476641 65 27 18
-0.404975 0.684158 -0.627182 60 17 15
-0.454687 0.704469 -0.615239 65 24 20
-0.456771 0.705141 -0.604528 65 25 19
-0.491548 0.580163 -0.665552 55 19 14
-0.494968 0.547754 -0.682447 49 29 22
-0.491510 0.571044 -0.683306 51 19 13
-0.493339 0.560611 -0.669068 52 20 13
-0.475000 0.624691 -0.795431 81 32 32
-0.482405 0.609502 -0.785325 63 18 15
-0.447795 0.633835 -0.790358 79 24 24
-0.453647 0.616227 -0.787549 79 26 26
-0.463172 0.619191 -0.792459 85 38 36
-0.477786 0.618764 -0.792997 83 34 36
-0.465438 0.639854 -0.800015 76 28 27
-0.456401 0.638356 -0.794287 81 30 30
-0.468884 0.704098 -0.372829 85 30 24
-0.584260 0.323641 -0.831986 129 77 23
-0.600982 0.329318 -0.829829 129 73 32
-0.083547 0.615407 -0.821779 48 28 13
-0.094964 0.614954 -0.820519 49 28 14
-0.098037 0.624108 -0.816227 50 27 15
-0.084510 0.630703 -0.817513 48 28 17
-0.790731 0.419943 -0.386010 91 22 18
-0.295892 0.421661 -0.829265 71 38 20
-0.815351 0.537816 -0.440870 96 24 21
-0.816004 0.536164 -0.449607 87 22 20
-0.816063 0.524071 -0.447125 86 22 19
-0.327487 0.692136 -0.387093 59 25 21
-0.306482 0.697350 -0.372519 58 24 18
-0.764333 0.718648 -0.453357 65 20 16
-0.780881 0.703642 -0.444023 137 69 62
-0.760266 0.696582 -0.438499 124 60 55
-0.775350 0.718640 -0.456039 104 41 34
-0.715877 0.700287 -0.475132 120 56 49
-0.721061 0.704547 -0.471813 139 75 68
-0.724501 0.715975 -0.470575 96 33 24
-0.707221 0.711238 -0.482131 89 29 24
-0.699794 0.707696 -0.482288 88 29 20
-0.719652 0.703613 -0.493150 90 27 22
-0.718775 0.701809 -0.483675 94 30 25
-0.700945 0.719995 -0.469535 113 49 40
-0.716135 0.709266 -0.470651 123 61 51
-0.818129 0.550398 -0.603765 66 17 15
-0.814618 0.528541 -0.584639 74 17 20
-0.380742 0.647428 -0.655035 55 18 14
-0.390303 0.658612 -0.662549 59 18 15
-0.370257 0.647046 -0.636853 53 19 17
-0.377255 0.643954 -0.633084 55 18 16
-0.392901 0.662033 -0.642429 59 18 15
-0.386090 0.650691 -0.640453 56 17 16
-0.378113 0.643267 -0.740995 46 28 16
-0.373511 0.650723 -0.731432 47 30 21
-0.381440 0.645175 -0.726853 55 20 18
-0.391489 0.646952 -0.730648 65 17 17
-0.079054 0.694842 -0.451761 41 14 8
-0.059592 0.693241 -0.459336 45 16 14
-0.058579 0.691696 -0.437904 50 14 10
-0.090988 0.691685 -0.437789 41 14 10
-0.017098 0.692435 -0.516216 41 17 15
-0.281630 0.698491 -0.491193 63 26 21
-0.256069 0.692912 -0.489400 63 26 18
-0.269904 0.696833 -0.494009 64 27 21
-0.259710 0.696134 -0.472085 66 27 21
-0.282656 0.698201 -0.474419 64 25 19
-0.196377 0.692662 -0.506773 67 29 20
-0.195577 0.688481 -0.548311 65 25 18
-0.203628 0.688220 -0.540260 68 28 19
-0.486111 0.413879 -0.414633 53 14 13
-0.486492 0.434825 -0.406901 54 13 12
-0.486613 0.423596 -0.416232 52 13 13
-0.483788 0.431042 -0.431314 50 15 13
-0.266333 0.691797 -0.440178 62 26 17
-0.256807 0.692526 -0.450439 65 28 20
-0.076680 0.562147 -0.822530 53 29 14
-0.058145 0.554286 -0.822066 54 29 16
-0.595734 0.702195 -0.557400 77 22 18
-0.616149 0.710589 -0.562394 76 28 19
-0.627139 0.702167 -0.568700 92 34 28
-0.605863 0.693819 -0.585957 81 28 20
-0.603167 0.696451 -0.577731 86 29 22
-0.596983 0.691411 -0.572777 95 40 33
-0.594946 0.707612 -0.564818 79 26 23
-0.604573 0.711680 -0.563478 75 29 18
-0.613995 0.712333 -0.571356 73 26 14
-0.492887 0.681285 -0.444478 63 24 19
-0.488945 0.688784 -0.448554 71 28 21
-0.491015 0.694400 -0.440162 71 28 17
-0.483694 0.695725 -0.455597 68 26 19
-0.485693 0.703777 -0.432171 75 28 21
-0.483640 0.699985 -0.442398 72 27 18
-0.466632 0.705320 -0.450557 73 28 20
-0.414528 0.697601 -0.576593 66 23 17
-0.404577 0.689492 -0.593539 64 23 15
-0.415712 0.699003 -0.601113 66 24 16
-0.402339 0.684818 -0.566401 62 21 16
-0.783880 0.397201 -0.361577 66 17 18
-0.494518 0.457621 -0.383234 62 18 17
-0.496511 0.464554 -0.375312 64 17 16
-0.494087 0.483503 -0.377331 65 19 15
-0.490278 0.394988 -0.388639 54 15 12
-0.490324 0.383464 -0.382553 56 15 13
-0.802103 0.690974 -0.441822 70 20 21
-0.817245 0.561786 -0.591669 72 17 17
-0.712771 0.703939 -0.564560 90 31 24
-0.705355 0.697578 -0.554699 86 27 22
-0.691435 0.707349 -0.567554 100 41 35
-0.706581 0.708394 -0.568080 90 31 24
-0.699731 0.702106 -0.564791 106 47 39
-0.702133 0.707750 -0.575762 95 35 30
-0.710918 0.705166 -0.580067 105 45 38
-0.191562 0.382294 -0.828261 72 39 23
-0.210241 0.388265 -0.829312 72 39 22
-0.198458 0.413855 -0.827682 68 40 24
-0.392210 0.681931 -0.410429 66 17 13
-0.375930 0.651866 -0.397060 65 16 15
-0.375465 0.651731 -0.417914 56 18 16
-0.296897 0.225622 -0.836614 82 47 23
-0.289846 0.210193 -0.837919 85 47 21
-0.317840 0.224686 -0.837174 85 47 24
-0.195465 0.679384 -0.664403 44 17 13
-0.206808 0.680592 -0.676695 46 18 15
-0.490637 0.595315 -0.702390 48 35 24
-0.489829 0.613464 -0.714572 47 34 24
-0.490992 0.604804 -0.717530 45 34 23
-0.491483 0.590071 -0.714889 43 32 23
-0.492188 0.607455 -0.686005 52 19 12
-0.499760 0.513860 -0.626708 47 14 12
-0.473211 0.552968 -0.785290 44 24 17
-0.470513 0.566116 -0.818041 50 30 16
-0.499643 0.559065 -0.800081 58 33 16
-0.489616 0.552803 -0.799406 56 31 14
-0.493810 0.547644 -0.787861 56 33 16
-0.473175 0.560335 -0.800048 52 29 17
-0.478958 0.557761 -0.814641 62 35 17
-0.492352 0.551662 -0.812490 62 36 15
-0.064910 0.694294 -0.400647 65 28 22
-0.070224 0.691613 -0.423877 38 13 9
-0.062754 0.692632 -0.419017 65 28 21
-0.082465 0.697947 -0.411743 66 28 22
-0.486301 0.677850 -0.586907 62 23 22
-0.486858 0.676475 -0.564475 62 22 21
-0.657300 0.687089 -0.652610 90 36 30
-0.426104 0.691342 -0.768142 63 33 24
-0.449193 0.695281 -0.770112 44 37 24
-0.434978 0.685782 -0.772067 56 32 21
-0.450269 0.695791 -0.788995 43 36 23
-0.170676 0.458430 -0.823709 61 33 19
-0.379481 0.338164 -0.834982 75 42 22
-0.400882 0.340199 -0.834605 78 43 21
-0.408865 0.318485 -0.835154 79 41 22
-0.443100 0.453944 -0.823208 78 42 21
-0.466532 0.444582 -0.825528 75 41 20
-0.459163 0.437120 -0.825728 74 41 18
-0.507322 0.370800 -0.832794 63 34 13
-0.524204 0.369230 -0.831344 69 38 16
-0.532185 0.351167 -0.831026 69 38 16
-0.506329 0.354597 -0.833371 64 33 14
-0.214915 0.673556 -0.751657 46 23 16
-0.207232 0.675014 -0.724004 47 19 17
-0.223241 0.678850 -0.721533 48 19 17
-0.196938 0.674442 -0.717788 46 19 16
-0.092691 0.695572 -0.419110 65 27 23
-0.104949 0.696740 -0.424374 65 28 20
-0.455184 0.527362 -0.822234 99 58 25
-0.454259 0.499788 -0.823451 102 61 25
-0.475009 0.521467 -0.825243 83 47 19
-0.475428 0.507512 -0.822909 94 53 20
-0.465876 0.513060 -0.827071 100 60 23
-0.609062 0.357934 -0.830699 124 71 32
-0.597664 0.385488 -0.829383 122 69 31
-0.616245 0.383919 -0.828119 121 69 32
-0.036649 0.692191 -0.536037 40 17 12
-0.325715 0.688639 -0.618936 64 25 16
-0.491230 0.595340 -0.630174 50 18 14
-0.491434 0.606496 -0.635466 29 10 10
-0.489529 0.584798 -0.621237 42 15 11
-0.571375 0.715500 -0.513419 92 35 31
-0.587328 0.707253 -0.512660 86 27 25
-0.589631 0.697220 -0.510089 90 36 31
-0.579380 0.700777 -0.513478 84 24 24
-0.577288 0.703442 -0.526710 78 25 22
-0.585328 0.699053 -0.516853 78 23 20
-0.362960 0.651449 -0.465839 48 17 12
-0.365953 0.648424 -0.453935 48 18 14
-0.350419 0.665535 -0.453150 50 21 15
-0.350845 0.539565 -0.823096 64 35 19
-0.336064 0.557125 -0.820408 65 36 22
-0.307334 0.540064 -0.822893 66 37 21
-0.339479 0.471200 -0.824512 69 36 20
-0.335885 0.427793 -0.830147 69 37 17
-0.355863 0.440548 -0.829835 70 37 19
-0.371299 0.645133 -0.585195 54 20 15
-0.364315 0.654190 -0.606472 52 19 15
-0.338000 0.685320 -0.710809 61 25 18
-0.345956 0.683148 -0.732158 61 25 17
-0.355487 0.669845 -0.688478 62 25 18
-0.339100 0.686262 -0.685802 64 25 17
-0.347245 0.679863 -0.694635 63 25 18
-0.365665 0.649136 -0.501550 51 17 16
-0.217681 0.252740 -0.831777 80 43 22
-0.169714 0.698962 -0.417372 65 28 20
-0.420263 0.699041 -0.556498 69 26 17
-0.405089 0.687384 -0.550781 67 23 17
-0.410826 0.692544 -0.549376 67 24 16
-0.813358 0.543239 -0.472736 77 16 16
-0.283600 0.676903 -0.767473 47 29 23
-0.271040 0.672730 -0.760561 47 27 21
-0.275889 0.678331 -0.744616 52 25 21
-0.287395 0.692732 -0.381338 59 25 21
-0.300833 0.694168 -0.392327 60 24 19
-0.132729 0.692773 -0.505903 49 17 16
-0.327689 0.695357 -0.529746 64 25 21
-0.326895 0.692848 -0.548877 65 25 22
-0.221262 0.477097 -0.823848 68 36 17
-0.243271 0.489540 -0.824991 69 39 18
-0.259281 0.479092 -0.826370 69 38 19
-0.625401 0.727818 -0.472462 81 23 21
-0.340582 0.446958 -0.829054 69 39 18
-0.312586 0.443230 -0.829695 69 38 19
-0.076070 0.698615 -0.387104 66 27 25
-0.057067 0.691961 -0.394577 68 29 26
-0.074447 0.689105 -0.362522 67 28 25
-0.066813 0.692775 -0.381558 67 30 27
-0.826578 0.655662 -0.469406 98 34 26
-0.823760 0.646996 -0.480128 94 31 23
-0.548307 0.678881 -0.574486 46 11 8
-0.549572 0.679981 -0.564972 49 14 9
-0.533024 0.676689 -0.561110 54 20 17
-0.546228 0.688518 -0.560174 49 14 10
-0.543545 0.673189 -0.560133 63 29 25
-0.552301 0.688060 -0.588582 69 20 15
-0.545557 0.698569 -0.553807 69 20 15
-0.539354 0.666772 -0.564004 55 20 15
-0.548588 0.678803 -0.584922 45 14 10
-0.082347 0.684422 -0.692813 41 17 12
-0.098455 0.680078 -0.691068 42 17 12
-0.563618 0.677308 -0.548260 78 26 19
-0.562827 0.681810 -0.540331 78 26 19
-0.568766 0.683945 -0.547667 76 23 18
-0.594544 0.701012 -0.530173 77 22 15
-0.574658 0.688924 -0.542937 76 25 19
-0.574730 0.702461 -0.536399 91 34 31
-0.568657 0.695687 -0.539613 102 44 38
-0.578398 0.699382 -0.541350 91 33 31
-0.555889 0.693585 -0.537779 95 40 36
-0.563988 0.685635 -0.556042 68 21 15
-0.577490 0.695767 -0.554295 73 25 18
-0.590309 0.705469 -0.539704 77 25 18
-0.632125 0.730909 -0.630020 81 28 23
-0.558018 0.721982 -0.511915 80 33 27
-0.579323 0.729076 -0.497954 80 23 18
-0.573247 0.711538 -0.503370 81 24 20
-0.571447 0.709497 -0.521155 66 21 18
-0.566797 0.714308 -0.501616 85 29 24
-0.558842 0.718238 -0.521550 78 27 22
-0.430652 0.701697 -0.382376 76 29 20
-0.660037 0.720491 -0.615113 112 59 52
-0.470832 0.705084 -0.564897 68 26 20
-0.458031 0.706948 -0.522400 69 25 19
-0.468098 0.704202 -0.521243 68 24 18
-0.460145 0.706718 -0.543000 67 27 20
-0.448864 0.695269 -0.717616 61 22 16
-0.449562 0.697865 -0.742291 61 22 18
-0.490713 0.582897 -0.655188 52 19 13
-0.492053 0.590600 -0.644443 54 19 15
-0.278983 0.600188 -0.820789 65 36 18
-0.289812 0.592938 -0.822857 65 35 20
-0.375000 0.299767 -0.835909 78 42 21
-0.082932 0.675124 -0.757393 42 20 18
-0.302580 0.487974 -0.825141 68 38 17
-0.342250 0.498904 -0.823391 66 36 21
-0.439093 0.531748 -0.818772 100 61 24
-0.424037 0.514574 -0.819866 79 46 19
-0.412073 0.532341 -0.820978 91 55 24
-0.422143 0.551755 -0.823622 113 71 28
-0.432185 0.541250 -0.822210 80 47 23
-0.352015 0.308535 -0.834225 72 40 25
-0.387680 0.317832 -0.835262 73 41 24
-0.668599 0.694445 -0.434734 92 46 41
-0.678156 0.695439 -0.434336 68 22 20
-0.488888 0.698673 -0.727412 56 22 15
-0.245873 0.691396 -0.395288 67 28 23
-0.816360 0.536886 -0.421027 99 29 26
-0.815759 0.545632 -0.451462 89 23 22
-0.491294 0.544999 -0.696707 44 32 23
-0.497258 0.523309 -0.695414 53 30 21
-0.508461 0.519544 -0.693237 44 16 10
-0.495864 0.529874 -0.706437 76 48 39
-0.509685 0.526985 -0.707966 43 14 10
-0.497811 0.527052 -0.681448 49 27 21
-0.291217 0.677882 -0.776419 45 33 28
-0.325148 0.677325 -0.768756 60 49 30
-0.315232 0.678460 -0.754988 54 35 25
-0.315628 0.679059 -0.767150 62 49 33
-0.137742 0.663922 -0.801879 44 36 29
-0.137142 0.669061 -0.781155 34 26 20
-0.280539 0.683523 -0.715915 51 20 16
-0.284899 0.690305 -0.696367 58 22 16
-0.495750 0.483329 -0.825427 86 47 15
-0.474008 0.473612 -0.824042 81 45 22
-0.482152 0.480902 -0.822893 99 56 24
-0.463525 0.493314 -0.825916 99 56 24
-0.816880 0.568804 -0.456541 89 22 21
-0.817361 0.563694 -0.439186 91 24 23
-0.817346 0.579965 -0.451231 87 22 21
-0.818360 0.584843 -0.441588 95 26 22
-0.500119 0.315063 -0.833781 66 35 17
-0.501690 0.332446 -0.832514 64 34 15
-0.455617 0.707414 -0.510130 68 26 17
-0.473644 0.704756 -0.515997 68 27 14
-0.165981 0.437544 -0.825508 64 32 18
-0.178996 0.433378 -0.825667 64 33 18
-0.513182 0.314105 -0.832156 76 41 19
-0.508193 0.287961 -0.833090 101 56 23
-0.403170 0.673741 -0.719506 58 18 17
-0.395616 0.661390 -0.721537 57 17 16
-0.071742 0.672931 -0.788892 34 26 22
-0.483580 0.595184 -0.778929 72 24 26
-0.461986 0.595691 -0.786281 59 18 13
-0.354205 0.673073 -0.719991 62 27 18
-0.326511 0.687271 -0.718962 64 26 19
-0.337899 0.687391 -0.725402 64 29 21
-0.361076 0.667503 -0.738637 63 35 25
-0.350913 0.680903 -0.756765 50 43 28
-0.333102 0.684097 -0.753422 56 44 29
-0.350411 0.678371 -0.743493 52 44 30
-0.476712 0.377031 -0.834551 75 41 17
-0.492119 0.379316 -0.835354 72 38 19
-0.727586 0.681745 -0.431002 40 13 11
-0.621517 0.720738 -0.517546 119 64 57
-0.653188 0.714303 -0.499037 85 28 23
-0.630723 0.714445 -0.511951 80 27 19
-0.637005 0.716282 -0.504867 87 28 26
-0.652466 0.713157 -0.504974 102 47 39
-0.650712 0.697677 -0.507121 107 53 45
-0.627886 0.700627 -0.516405 86 27 21
-0.634788 0.703234 -0.512303 82 26 19
-0.637856 0.701375 -0.517928 81 26 18
-0.625270 0.711130 -0.497394 84 26 23
-0.623454 0.713441 -0.509098 125 68 61
-0.644340 0.711522 -0.494440 84 29 23
-0.190521 0.509767 -0.823334 64 36 20
-0.198838 0.485759 -0.824507 67 36 17
-0.225995 0.690567 -0.579359 61 24 16
-0.225162 0.692517 -0.603536 62 25 17
-0.233715 0.688772 -0.559962 65 26 20
-0.802851 0.493985 -0.391017 84 17 17
-0.802623 0.509154 -0.379428 90 27 21
-0.438690 0.700003 -0.549315 68 26 23
-0.433339 0.696987 -0.523424 72 27 23
-0.450067 0.703118 -0.534579 68 27 23
-0.270129 0.647645 -0.809240 55 38 27
-0.258839 0.659630 -0.795887 40 30 24
-0.248778 0.652397 -0.808254 45 35 28
-0.266925 0.654942 -0.805195 46 36 29
-0.238662 0.659461 -0.803129 49 37 28
-0.668781 0.697472 -0.521615 83 28 25
-0.674242 0.697552 -0.520214 83 27 20
-0.682816 0.696682 -0.520062 84 28 21
-0.681930 0.705511 -0.512433 95 33 29
-0.017907 0.695454 -0.426867 49 16 15
-0.031890 0.698074 -0.403657 47 16 12
-0.038275 0.695267 -0.426651 54 16 14
-0.045508 0.695624 -0.422081 46 13 13
-0.053148 0.695083 -0.406546 39 13 11
-0.193109 0.691214 -0.373847 66 27 20
-0.207780 0.690702 -0.371219 65 28 20
-0.206979 0.690485 -0.385439 65 27 21
-0.379712 0.454728 -0.829829 71 39 20
-0.635467 0.709825 -0.485476 82 26 24
-0.632642 0.710663 -0.485797 81 30 24
-0.637825 0.724472 -0.479313 87 28 24
-0.646084 0.732310 -0.476745 92 31 26
-0.642256 0.723537 -0.469580 97 36 32
-0.617268 0.707961 -0.476064 117 52 46
-0.630967 0.711407 -0.478916 89 29 22
-0.627961 0.704314 -0.480782 90 30 24
-0.622194 0.719825 -0.474800 87 26 22
-0.617025 0.718232 -0.469275 84 25 20
-0.641244 0.707654 -0.482854 81 27 24
-0.646123 0.717183 -0.482406 72 24 19
-0.624141 0.724337 -0.459679 66 19 15
-0.633568 0.724781 -0.466131 83 26 25
-0.820116 0.701119 -0.382577 69 25 20
-0.806806 0.700240 -0.380028 67 27 19
-0.814443 0.700608 -0.365674 69 25 22
-0.231918 0.663637 -0.790630 39 29 23
-0.484602 0.500820 -0.467799 54 19 13
-0.441809 0.580269 -0.808701 83 61 39
-0.425747 0.587158 -0.805871 86 61 41
-0.440786 0.579735 -0.794180 75 61 54
-0.462154 0.558346 -0.787267 64 49 43
-0.441727 0.596552 -0.783314 61 19 20
-0.452934 0.591708 -0.782790 59 19 18
-0.455244 0.577266 -0.780938 48 23 17
-0.450746 0.570199 -0.783595 48 27 20
-0.444370 0.583499 -0.784854 68 46 41
-0.192624 0.659175 -0.804660 53 40 32
-0.197647 0.647298 -0.809334 54 40 33
-0.157684 0.647463 -0.809892 58 43 32
-0.182427 0.653102 -0.808723 57 44 34
-0.164198 0.670364 -0.781745 36 29 22
-0.199422 0.669298 -0.788467 37 29 19
-0.158917 0.667297 -0.797368 35 26 19
-0.142696 0.687278 -0.532743 50 19 16
-0.166301 0.689880 -0.530728 51 18 15
-0.132913 0.688132 -0.562797 46 19 15
-0.143848 0.685127 -0.556585 53 20 17
-0.156229 0.659984 -0.804783 44 34 25
-0.133725 0.650547 -0.810950 48 40 32
-0.426981 0.261702 -0.836366 82 45 23
-0.121583 0.695523 -0.437525 65 27 21
-0.142977 0.696244 -0.446948 66 27 22
-0.124589 0.693641 -0.449462 66 27 18
-0.490760 0.677583 -0.698969 55 20 16
-0.491780 0.652762 -0.723054 58 33 22
-0.491232 0.678281 -0.715994 56 23 15
-0.491428 0.665757 -0.718332 55 22 14
-0.492375 0.642956 -0.706088 56 22 14
-0.557771 0.703491 -0.615728 83 31 27
-0.814751 0.534580 -0.548640 68 17 15
-0.813668 0.536623 -0.527884 69 16 11
-0.809996 0.524822 -0.529859 74 18 14
-0.803495 0.513756 -0.548169 73 17 16
-0.805045 0.519455 -0.532713 73 17 15
-0.807933 0.520910 -0.540829 69 18 12
-0.810167 0.540218 -0.528013 86 24 21
-0.259480 0.467084 -0.826364 68 37 21
-0.291131 0.483434 -0.823851 69 39 18
-0.736248 0.697936 -0.433509 63 20 18
-0.765366 0.689131 -0.404799 72 28 26
-0.795738 0.690456 -0.429713 84 27 26
-0.781591 0.687637 -0.401485 69 25 23
-0.763721 0.690457 -0.413933 79 28 26
-0.789485 0.688424 -0.411838 78 23 22
-0.768045 0.691662 -0.393388 67 24 21
-0.496197 0.662061 -0.644325 30 11 9
-0.488630 0.677151 -0.642411 55 20 20
-0.493379 0.672045 -0.640506 29 10 9
-0.489357 0.669587 -0.632176 59 21 18
-0.491755 0.660585 -0.626696 28 11 9
-0.321889 0.696317 -0.491648 64 25 17
-0.330250 0.692944 -0.460699 62 26 18
-0.443743 0.699250 -0.518150 68 28 22
-0.439974 0.699438 -0.499812 71 28 19
-0.491875 0.615318 -0.642830 54 20 15
-0.491366 0.609958 -0.648051 53 21 18
-0.187680 0.674568 -0.738002 46 19 16
-0.103978 0.521563 -0.824287 53 29 15
-0.076368 0.506208 -0.822893 53 30 15
-0.102295 0.505528 -0.824285 55 28 16
-0.093294 0.540027 -0.823150 54 28 18
-0.063502 0.526980 -0.823136 54 29 15
-0.080719 0.534232 -0.822808 53 30 15
-0.764877 0.570279 -0.368014 97 32 33
-0.425063 0.609315 -0.781752 60 17 13
-0.437902 0.611093 -0.783386 66 18 16
-0.429577 0.587955 -0.790939 98 81 69
-0.426747 0.594963 -0.785213 58 28 23
-0.184900 0.698133 -0.405782 65 31 20
-0.192951 0.697854 -0.412773 69 29 21
-0.202409 0.698533 -0.417270 66 26 20
-0.213702 0.697800 -0.422910 68 29 22
-0.801686 0.437052 -0.452151 92 22 26
-0.799704 0.421025 -0.447324 100 25 28
-0.807088 0.439480 -0.442102 108 28 30
-0.805120 0.421199 -0.437881 107 27 26
-0.803684 0.450759 -0.452388 91 23 24
-0.543824 0.696285 -0.604856 46 14 11
-0.550799 0.708254 -0.603061 75 26 23
-0.552033 0.717619 -0.612932 80 30 27
-0.555124 0.704567 -0.624023 90 41 35
-0.534461 0.698632 -0.609844 51 19 14
-0.547169 0.703226 -0.615246 46 13 9
-0.796700 0.481015 -0.588070 63 18 15
-0.801855 0.502073 -0.569260 67 17 15
-0.804322 0.508915 -0.567033 72 16 17
-0.173170 0.675443 -0.723468 46 18 15
-0.490413 0.591950 -0.663719 55 20 12
-0.409295 0.696666 -0.445611 72 24 19
-0.396352 0.687386 -0.428341 69 21 16
-0.398320 0.691134 -0.401718 70 21 14
-0.483424 0.398491 -0.425174 52 14 13
-0.483167 0.393566 -0.416890 53 14 13
-0.483688 0.407314 -0.424245 53 13 13
-0.486636 0.401585 -0.409867 54 13 14
-0.484916 0.372735 -0.405675 54 13 13
-0.483018 0.377036 -0.422168 54 14 13
-0.092790 0.687138 -0.609869 40 17 15
-0.122533 0.688967 -0.588993 43 16 13
-0.395959 0.672744 -0.600643 60 16 15
-0.371907 0.648597 -0.615745 55 18 16
-0.379113 0.647578 -0.608601 56 16 14
-0.386534 0.650468 -0.623746 57 17 15
-0.384423 0.650800 -0.604273 58 18 15
-0.387792 0.654989 -0.607569 59 18 16
-0.655616 0.721211 -0.474640 133 75 63
-0.672267 0.720516 -0.476833 120 59 53
-0.688245 0.711807 -0.475571 104 43 36
-0.667604 0.735274 -0.489969 81 25 24
-0.676552 0.718697 -0.493992 84 28 24
-0.679016 0.724862 -0.468886 83 26 19
-0.651099 0.720622 -0.467647 80 25 20
-0.665356 0.726466 -0.469205 77 24 20
-0.653583 0.732183 -0.480009 82 30 21
-0.662727 0.724347 -0.478271 99 41 32
-0.686786 0.718676 -0.466484 88 27 18
-0.678150 0.712155 -0.478068 95 35 27
-0.676297 0.727091 -0.461028 68 23 17
-0.685889 0.716142 -0.489548 83 25 20
-0.398106 0.626057 -0.780786 58 39 19
-0.402255 0.613912 -0.802139 58 38 15
-0.395445 0.629045 -0.801292 67 42 20
-0.394787 0.614807 -0.811247 70 42 19
-0.387281 0.613897 -0.813920 69 42 18
-0.386558 0.632420 -0.811169 68 43 20
-0.029014 0.685937 -0.671960 42 17 14
-0.032621 0.685913 -0.705477 41 16 14
-0.042322 0.684013 -0.715595 40 17 15
-0.053010 0.681910 -0.718027 41 17 14
-0.048596 0.683015 -0.704991 40 17 14
-0.121648 0.690964 -0.528224 48 18 16
-0.244532 0.387678 -0.830565 74 42 21
-0.261339 0.377552 -0.832552 75 42 21
-0.274818 0.375985 -0.831738 76 42 20
-0.208311 0.190314 -0.834316 83 45 18
-0.211953 0.216077 -0.833659 82 45 22
-0.187651 0.175009 -0.833243 81 44 22
-0.555821 0.688638 -0.543825 82 29 22
-0.536739 0.693435 -0.557806 84 26 20
-0.557013 0.693202 -0.552183 68 19 15
-0.547803 0.690894 -0.544469 91 39 38
-0.544536 0.687628 -0.537147 94 38 35
-0.537745 0.694645 -0.541390 77 23 18
-0.549541 0.695974 -0.533222 79 26 21
-0.100627 0.589401 -0.822042 50 28 13
-0.111861 0.604325 -0.820993 49 29 19
-0.431920 0.699151 -0.685189 62 23 21
-0.442292 0.699767 -0.677078 63 23 16
-0.447153 0.701622 -0.688815 62 22 19
-0.432657 0.700794 -0.668390 64 24 21
-0.427892 0.697473 -0.663318 65 25 19
-0.453735 0.702867 -0.661880 62 24 18
-0.175994 0.627154 -0.814693 57 35 21
-0.210509 0.615051 -0.814170 60 36 20
-0.487874 0.358941 -0.835767 74 41 18
-0.477758 0.348912 -0.835467 76 42 20
-0.483744 0.327499 -0.834278 72 39 18
-0.627183 0.698538 -0.437609 65 22 22
-0.624031 0.713741 -0.450161 68 23 20
-0.632033 0.711574 -0.455197 68 23 19
-0.623912 0.705364 -0.447501 37 11 14
-0.390493 0.678854 -0.394252 70 20 16
-0.378787 0.655641 -0.386388 68 19 16
-0.387573 0.661468 -0.496040 62 18 14
-0.382881 0.657462 -0.469587 63 17 16
-0.375013 0.647975 -0.471689 54 17 13
-0.378754 0.650867 -0.470989 62 16 15
-0.052110 0.680862 -0.737063 41 16 14
-0.067999 0.675798 -0.725645 42 17 13
-0.083193 0.675246 -0.719407 44 16 13
-0.066288 0.676188 -0.737676 41 18 15
-0.003566 0.690020 -0.675701 42 17 13
-0.745029 0.711948 -0.477332 139 72 66
-0.744681 0.716215 -0.488241 93 31 26
-0.728809 0.700299 -0.486327 89 27 22
-0.726998 0.709249 -0.480140 141 76 70
-0.752411 0.721648 -0.479093 102 43 37
-0.739089 0.723305 -0.472138 102 37 33
-0.736412 0.709286 -0.478653 102 37 33
-0.743137 0.727601 -0.467554 85 26 20
-0.747316 0.734621 -0.472060 89 27 21
-0.722942 0.723655 -0.471529 97 34 25
-0.729992 0.724689 -0.467549 96 32 26
-0.528989 0.698586 -0.438725 54 21 18
-0.539370 0.702231 -0.434708 56 19 16
-0.522679 0.707412 -0.445348 55 19 17
-0.536972 0.703109 -0.446623 75 25 19
-0.555153 0.708036 -0.451592 55 20 15
-0.531613 0.694857 -0.447024 75 24 17
-0.524890 0.703108 -0.433263 54 18 18
-0.803895 0.460339 -0.465690 85 19 22
-0.236208 0.694030 -0.480018 68 28 21
-0.492365 0.591018 -0.681701 50 19 13
-0.321746 0.690694 -0.640343 65 27 21
-0.291133 0.692845 -0.648254 65 26 22
-0.312265 0.690755 -0.640533 64 26 18
-0.486601 0.404906 -0.830682 75 41 20
-0.443673 0.424292 -0.827309 75 42 21
-0.466657 0.404122 -0.832247 74 40 18
-0.470908 0.427147 -0.829184 75 40 19
-0.627073 0.697667 -0.418880 54 19 17
-0.632608 0.696789 -0.428381 57 18 17
-0.503884 0.517402 -0.683191 48 15 10
-0.197027 0.329614 -0.830481 72 41 20
-0.300160 0.521707 -0.824637 68 36 18
-0.294609 0.504928 -0.824058 65 37 23
-0.293194 0.541040 -0.820722 63 36 20
-0.285985 0.454311 -0.826678 68 39 23
-0.276540 0.472475 -0.825894 64 40 21
-0.611582 0.693251 -0.477082 81 28 23
-0.608445 0.697855 -0.483946 79 25 21
-0.622021 0.703227 -0.486918 82 27 23
-0.601553 0.716630 -0.465321 84 29 24
-0.596750 0.714117 -0.474870 111 53 44
-0.607115 0.709421 -0.477195 98 38 31
-0.609083 0.718311 -0.473640 107 48 40
-0.597640 0.707494 -0.484837 81 24 19
-0.457893 0.568139 -0.806685 75 46 21
-0.813301 0.579000 -0.411805 96 23 21
-0.817855 0.575223 -0.422256 94 23 22
-0.815560 0.552260 -0.416202 94 23 24
-0.817181 0.590226 -0.421007 96 24 22
-0.807688 0.558268 -0.394477 96 22 22
-0.503759 0.524378 -0.753472 43 15 12
-0.485664 0.544390 -0.785129 47 20 10
-0.483427 0.536961 -0.770014 50 17 13
-0.488126 0.536098 -0.773179 44 18 6
-0.504611 0.533323 -0.765630 42 15 9
-0.504566 0.543808 -0.778214 36 16 7
-0.491233 0.533083 -0.758961 55 18 13
-0.256077 0.685160 -0.694287 52 20 13
-0.244647 0.689230 -0.665878 56 24 17
-0.242149 0.685306 -0.678538 52 20 14
-0.489936 0.687890 -0.564389 59 22 18
-0.486310 0.687276 -0.579700 61 22 20
-0.482661 0.686442 -0.557235 66 25 21
-0.485054 0.684377 -0.570841 62 23 18
-0.479683 0.699363 -0.573631 63 24 21
-0.481087 0.702443 -0.583136 64 24 20
-0.788553 0.489357 -0.624770 71 25 23
-0.446622 0.701145 -0.463705 75 28 17
-0.404915 0.697964 -0.378286 76 28 25
-0.539481 0.694946 -0.385121 88 28 23
-0.527390 0.703246 -0.380808 86 31 25
-0.555056 0.702214 -0.376891 88 32 24
-0.291159 0.679312 -0.727603 57 31 25
-0.699298 0.708782 -0.500637 105 40 35
-0.706824 0.704491 -0.503295 131 64 61
-0.717067 0.706771 -0.503744 145 77 72
-0.704168 0.710437 -0.517125 90 26 22
-0.695191 0.709492 -0.519783 123 57 52
-0.712045 0.704038 -0.510954 147 81 77
-0.480008 0.537710 -0.414412 60 23 19
-0.441754 0.504473 -0.821374 101 60 25
-0.444382 0.517819 -0.820118 83 48 19
-0.087722 0.588790 -0.821741 46 28 13
-0.055983 0.599319 -0.821236 48 29 17
-0.052258 0.579627 -0.822070 52 29 16
-0.064492 0.578928 -0.822265 49 29 14
-0.641247 0.699534 -0.649130 88 37 38
-0.638268 0.715768 -0.638698 72 23 12
-0.631768 0.716420 -0.638988 71 19 13
-0.640584 0.724501 -0.633112 71 20 14
-0.092293 0.482980 -0.825078 54 27 15
-0.630004 0.723886 -0.631019 92 36 36
-0.631498 0.727132 -0.623356 83 29 27
-0.223856 0.420506 -0.828035 70 39 21
-0.234478 0.439464 -0.826829 65 38 22
-0.355731 0.664817 -0.649124 57 24 18
-0.365569 0.653988 -0.668186 52 23 17
-0.467989 0.325785 -0.835118 79 44 20
-0.475325 0.322167 -0.834262 75 41 20
-0.336453 0.686715 -0.559990 62 25 19
-0.330767 0.689054 -0.571954 63 25 17
-0.345493 0.678397 -0.566390 56 24 16
-0.350615 0.672939 -0.577646 58 24 16
-0.489943 0.573131 -0.388970 63 18 20
-0.063407 0.680691 -0.719394 43 16 14
-0.073537 0.678713 -0.706908 42 16 15
-0.065181 0.682911 -0.690988 42 16 15
-0.604607 0.705151 -0.369100 84 31 20
-0.610315 0.699885 -0.373025 96 33 26
-0.593140 0.694718 -0.377220 96 33 26
-0.603364 0.689869 -0.381082 125 57 55
-0.578739 0.690195 -0.385306 149 84 80
-0.613514 0.690856 -0.390781 160 95 92
-0.425919 0.358280 -0.834185 76 41 21
-0.391525 0.385451 -0.834053 76 41 24
-0.624564 0.722094 -0.618607 114 52 49
-0.633018 0.707699 -0.607723 88 29 25
-0.650455 0.707294 -0.616945 96 35 32
-0.651592 0.706337 -0.602806 81 24 20
-0.624671 0.713606 -0.606562 81 26 19
-0.642357 0.704382 -0.599339 80 25 22
-0.643150 0.714617 -0.622008 94 35 33
-0.501811 0.673349 -0.501513 88 33 32
-0.522142 0.691384 -0.515024 85 34 31
-0.520684 0.686716 -0.505490 75 25 22
-0.502004 0.685644 -0.500014 73 22 20
-0.136135 0.689039 -0.582024 44 18 14
-0.157962 0.686563 -0.573951 48 19 16
-0.561956 0.436750 -0.827184 92 50 23
-0.369904 0.431094 -0.831536 71 38 20
-0.371596 0.402442 -0.831154 71 38 21
-0.480891 0.322379 -0.424659 54 14 13
-0.484249 0.323081 -0.399011 57 15 13
-0.800407 0.396818 -0.419467 110 29 30
-0.792333 0.386115 -0.389421 105 27 26
-0.800286 0.414023 -0.410124 108 29 28
-0.523516 0.318998 -0.832244 131 76 31
-0.535038 0.311888 -0.831465 131 76 33
-0.535935 0.301545 -0.832646 137 76 34
-0.486419 0.539201 -0.576607 55 20 17
-0.496245 0.528666 -0.587449 52 17 15
-0.491927 0.514646 -0.556576 54 18 16
-0.498673 0.513812 -0.560635 49 13 12
-0.493354 0.525094 -0.578000 53 19 16
-0.491941 0.517922 -0.565470 52 17 14
-0.054845 0.676832 -0.747085 41 18 18
-0.061151 0.670866 -0.782908 37 23 18
-0.074900 0.672319 -0.771644 36 23 19
-0.643814 0.695721 -0.654826 39 12 7
-0.338649 0.682218 -0.397498 52 23 18
-0.341862 0.678671 -0.370641 50 21 18
-0.489616 0.547097 -0.508542 54 18 18
-0.488316 0.561004 -0.514217 57 19 19
-0.195143 0.693550 -0.493583 68 28 21
-0.431885 0.664748 -0.788298 110 58 56
-0.430321 0.627936 -0.783493 108 57 54
-0.099654 0.692896 -0.451257 41 15 11
-0.108890 0.695087 -0.438619 66 27 21
-0.115675 0.693078 -0.457095 67 28 24
-0.097319 0.694155 -0.467678 49 17 13
-0.109485 0.695824 -0.469414 43 15 11
-0.030230 0.689757 -0.612261 40 16 12
-0.015717 0.690771 -0.597290 39 16 12
-0.122324 0.697975 -0.390350 63 28 21
-0.138214 0.697969 -0.386136 65 28 24
-0.124218 0.696083 -0.373046 63 27 23
-0.660901 0.707896 -0.591515 74 27 22
-0.649164 0.702815 -0.593827 72 23 19
-0.657984 0.714495 -0.610234 77 26 23
-0.668573 0.706081 -0.602669 82 26 22
-0.667760 0.707659 -0.616024 95 40 37
-0.678171 0.710772 -0.602234 81 27 19
-0.210211 0.632343 -0.809610 59 37 26
-0.226148 0.629220 -0.812654 58 38 26
-0.206462 0.648166 -0.807358 49 37 29
-0.227977 0.657564 -0.803318 49 37 28
-0.230179 0.648110 -0.809245 55 38 28
-0.607558 0.710236 -0.496329 79 24 19
-0.617666 0.715925 -0.504909 84 27 21
-0.593673 0.707902 -0.502624 80 27 20
-0.609040 0.717105 -0.517491 75 28 22
-0.596595 0.700788 -0.520294 77 23 18
-0.582731 0.714710 -0.509451 83 30 21
-0.599471 0.709699 -0.512662 87 39 32
-0.603971 0.708994 -0.506240 98 48 40
-0.607905 0.708977 -0.519714 79 26 21
-0.074713 0.687532 -0.651955 42 17 14
-0.084663 0.684555 -0.669004 43 16 16
-0.056439 0.686413 -0.666501 43 16 16
-0.092139 0.685979 -0.657791 41 17 14
-0.078092 0.685854 -0.679065 43 15 16
-0.717886 0.734201 -0.468462 87 27 19
-0.714455 0.730312 -0.477120 99 36 27
-0.713763 0.722353 -0.470524 96 33 24
-0.698275 0.712498 -0.475069 98 36 30
-0.704500 0.734361 -0.467069 75 21 13
-0.714437 0.737840 -0.461725 75 21 13
-0.695085 0.724910 -0.459429 89 28 22
-0.691345 0.718363 -0.463629 89 27 20
-0.183578 0.584631 -0.820529 61 36 17
-0.479426 0.306242 -0.422844 53 14 12
-0.477532 0.280759 -0.420218 53 14 13
-0.477828 0.296069 -0.420398 54 14 13
-0.486309 0.272781 -0.384532 58 15 16
-0.461719 0.707674 -0.574160 67 25 18
-0.463121 0.709206 -0.588924 65 25 19
-0.309706 0.607454 -0.823506 63 36 16
-0.250341 0.689177 -0.570708 62 25 17
-0.264910 0.689805 -0.550630 62 25 19
-0.273958 0.687580 -0.567767 63 23 18
-0.083542 0.674974 -0.740275 42 17 14
-0.165728 0.483509 -0.823223 64 34 19
-0.475783 0.699998 -0.554983 69 27 19
-0.480307 0.695214 -0.544089 66 25 17
-0.465725 0.705111 -0.539985 68 25 19
-0.487334 0.682551 -0.554745 63 24 20
-0.475716 0.698716 -0.532318 67 26 18
-0.486521 0.676794 -0.534050 64 26 16
-0.484240 0.685641 -0.528743 65 25 17
-0.483678 0.687364 -0.542283 66 25 17
-0.358526 0.657168 -0.804133 82 54 24
-0.364865 0.657389 -0.791347 65 51 30
-0.390316 0.277941 -0.836392 79 45 23
-0.398427 0.259974 -0.836730 84 46 21
-0.399884 0.242297 -0.836439 83 45 23
-0.553854 0.416493 -0.826598 105 60 29
-0.565968 0.401249 -0.828060 106 61 23
-0.566096 0.429137 -0.825227 84 46 25
-0.565536 0.417249 -0.822447 97 56 22
-0.574855 0.412719 -0.823323 99 55 25
-0.148025 0.277275 -0.829857 64 37 21
-0.456198 0.699859 -0.631745 65 23 20
-0.474260 0.703391 -0.626378 61 24 18
-0.487181 0.685737 -0.662121 58 23 16
-0.475709 0.703622 -0.640781 61 24 15
-0.483011 0.689785 -0.627185 60 22 17
-0.801271 0.685247 -0.411577 102 36 32
-0.820866 0.691085 -0.420878 82 29 27
-0.825306 0.693277 -0.408143 67 26 22
-0.796897 0.687512 -0.402942 67 27 22
-0.815103 0.695413 -0.397195 68 25 22
-0.584765 0.716287 -0.503464 79 24 19
-0.612796 0.726822 -0.519384 104 48 44
-0.609318 0.719855 -0.510180 99 42 38
-0.617856 0.728543 -0.515118 85 28 22
-0.481507 0.292537 -0.402035 58 16 13
-0.343668 0.680650 -0.585625 59 23 17
-0.353207 0.668032 -0.602962 58 24 16
-0.334441 0.686142 -0.616894 63 25 18
-0.342357 0.680473 -0.617982 64 26 16
-0.106677 0.671125 -0.767431 36 23 18
-0.113564 0.672941 -0.749727 39 21 17
-0.099798 0.669570 -0.777407 36 24 17
-0.114646 0.668173 -0.774629 34 24 17
-0.485871 0.496046 -0.825213 95 56 17
-0.497911 0.503333 -0.829488 96 56 23
-0.508802 0.498978 -0.828520 95 56 18
-0.520309 0.498532 -0.824710 88 55 18
-0.512473 0.478290 -0.823960 89 54 14
-0.155045 0.680174 -0.676389 43 17 14
-0.192251 0.677831 -0.675113 44 17 13
-0.181268 0.680210 -0.659371 43 17 14
-0.172257 0.676354 -0.673677 45 17 14
-0.665643 0.702448 -0.572201 101 44 40
-0.682921 0.708709 -0.571295 92 32 28
-0.677813 0.699876 -0.558434 83 27 22
-0.661275 0.696968 -0.581986 76 27 23
-0.672484 0.696600 -0.588734 63 20 13
-0.677496 0.707466 -0.580306 88 29 23
-0.668625 0.694837 -0.580363 80 28 21
-0.473689 0.704139 -0.392597 79 31 20
-0.509736 0.442490 -0.825051 89 50 20
-0.524250 0.432165 -0.820405 75 42 15
-0.527912 0.438409 -0.824003 90 51 25
-0.508000 0.418660 -0.826647 99 55 24
-0.524924 0.426052 -0.824322 97 55 24
-0.536226 0.427814 -0.828114 95 55 19
-0.145777 0.385133 -0.827356 65 33 18
-0.258225 0.680432 -0.711125 50 21 15
-0.250352 0.681677 -0.703249 50 20 15
-0.232282 0.682514 -0.689898 49 21 15
-0.241165 0.679075 -0.704129 48 19 14
-0.307154 0.686637 -0.713674 65 28 17
-0.400509 0.603873 -0.814887 73 46 21
-0.593680 0.678652 -0.624063 58 17 18
-0.567691 0.692826 -0.602856 111 53 47
-0.587764 0.700806 -0.602298 74 23 21
-0.566104 0.699406 -0.584301 76 26 20
-0.579927 0.700433 -0.618191 77 23 17
-0.587380 0.704719 -0.619817 70 20 15
-0.581455 0.706839 -0.610923 115 56 52
-0.573020 0.700371 -0.617503 89 33 27
-0.810439 0.493752 -0.420930 104 26 28
-0.805658 0.469991 -0.413676 104 27 25
-0.133947 0.688730 -0.602810 44 17 14
-0.131333 0.685421 -0.625103 41 17 16
-0.700502 0.734483 -0.459109 83 34 29
-0.689511 0.718818 -0.455270 65 33 30
-0.727791 0.708800 -0.555621 86 26 24
-0.733750 0.711072 -0.532035 91 30 22
-0.734202 0.701760 -0.542119 99 36 33
-0.738867 0.708959 -0.538753 122 60 55
-0.659359 0.754652 -0.495010 82 52 49
-0.668052 0.746700 -0.495230 75 24 24
-0.660263 0.749083 -0.501782 45 15 16
-0.657588 0.740243 -0.500721 62 19 18
-0.492252 0.558773 -0.645482 53 19 11
-0.491667 0.544829 -0.643353 53 19 12
-0.491859 0.573320 -0.628813 50 18 13
-0.492644 0.568461 -0.641695 50 18 13
-0.488832 0.555681 -0.619923 55 20 14
-0.490944 0.564512 -0.631400 54 21 17
-0.656101 0.693686 -0.421576 50 20 15
-0.646520 0.692519 -0.409113 69 25 20
-0.650792 0.695195 -0.398139 63 25 21
-0.642580 0.693568 -0.417606 66 24 17
-0.652580 0.688870 -0.429973 57 19 15
-0.516743 0.391280 -0.829951 64 35 14
-0.511444 0.411757 -0.829042 69 36 14
-0.503611 0.393258 -0.831667 74 39 20
-0.311104 0.688300 -0.618992 65 25 22
-0.297353 0.687114 -0.603920 64 26 17
-0.316338 0.690047 -0.596628 64 26 19
-0.685084 0.707719 -0.595460 81 24 18
-0.678583 0.681410 -0.608068 85 36 35
-0.679642 0.683810 -0.601147 88 34 28
-0.670956 0.702708 -0.592534 69 22 17
-0.679290 0.707516 -0.588851 62 20 15
-0.671635 0.692141 -0.607241 102 46 43
-0.683246 0.700433 -0.618653 81 36 33
-0.671323 0.699121 -0.613137 89 42 40
-0.677303 0.704917 -0.610787 92 36 32
-0.671258 0.699626 -0.607784 69 20 15
-0.681036 0.702066 -0.609403 117 57 52
-0.678810 0.695317 -0.612712 96 47 45
-0.801958 0.403087 -0.437954 102 23 27
-0.490465 0.537987 -0.819609 82 46 18
-0.501756 0.547677 -0.819122 79 47 16
-0.497543 0.556392 -0.810439 66 39 18
-0.803258 0.393728 -0.428508 105 24 26
-0.493526 0.527878 -0.514150 52 16 14
-0.490293 0.533761 -0.509503 51 14 12
-0.483523 0.538130 -0.493528 56 17 18
-0.485939 0.573640 -0.405505 60 20 18
-0.093846 0.686719 -0.641278 42 16 15
-0.057166 0.688694 -0.635775 41 16 13
-0.070852 0.685768 -0.633789 36 18 12
-0.440529 0.663785 -0.792470 76 23 19
-0.169954 0.683965 -0.633672 44 17 13
-0.156786 0.681768 -0.639174 43 17 13
-0.174799 0.680553 -0.647450 44 17 12
-0.669831 0.723066 -0.494236 82 25 26
-0.654087 0.732909 -0.497973 81 26 26
-0.665460 0.732633 -0.497585 77 24 21
-0.660035 0.713145 -0.497129 83 29 25
-0.672199 0.717753 -0.505883 91 33 26
-0.677571 0.712504 -0.500597 82 26 17
-0.673146 0.716909 -0.515649 110 55 48
-0.657889 0.703830 -0.510917 96 44 37
-0.666426 0.713273 -0.501699 87 31 22
-0.649980 0.721181 -0.492403 81 26 26
-0.274492 0.321594 -0.832920 78 44 23
-0.253101 0.416490 -0.828439 73 40 21
-0.265826 0.403783 -0.828824 75 41 20
-0.308841 0.406022 -0.829766 72 40 18
-0.342734 0.416210 -0.830501 69 39 22
-0.325967 0.412320 -0.829838 72 38 20
-0.356258 0.402775 -0.831528 72 40 21
-0.528564 0.477849 -0.826069 51 31 16
-0.654395 0.699169 -0.373641 63 22 21
-0.646560 0.687440 -0.383334 71 28 22
-0.652150 0.690821 -0.378842 68 26 24
-0.633517 0.693350 -0.376869 138 71 65
-0.424572 0.443955 -0.825253 67 37 15
-0.428426 0.425953 -0.827626 68 37 21
-0.418175 0.633765 -0.777811 112 63 60
-0.414078 0.616525 -0.780256 74 29 25
-0.422545 0.650916 -0.780217 104 56 52
-0.210210 0.669129 -0.786255 37 28 18
-0.206173 0.661837 -0.796704 45 36 30
-0.219436 0.661049 -0.800165 41 32 23
-0.058422 0.690080 -0.558473 43 16 15
-0.134051 0.366717 -0.828253 63 33 15
-0.142228 0.324474 -0.830566 61 32 14
-0.171557 0.700376 -0.395960 65 28 18
-0.162291 0.697285 -0.374314 64 25 22
-0.176088 0.694412 -0.362536 64 26 20
-0.257640 0.691123 -0.418422 68 29 24
-0.225147 0.692502 -0.403557 66 28 18
-0.480901 0.548561 -0.459485 60 23 17
-0.481906 0.567587 -0.440804 61 23 15
-0.482619 0.565152 -0.453141 62 23 19
-0.482149 0.542162 -0.446169 63 23 18
-0.480202 0.551546 -0.430143 58 18 13
-0.692627 0.704376 -0.442019 102 49 44
-0.699808 0.721699 -0.454110 97 46 40
-0.711596 0.699493 -0.442156 100 49 45
-0.697642 0.696553 -0.436536 58 19 18
-0.707897 0.711457 -0.447740 83 23 15
-0.718561 0.720181 -0.458430 74 20 12
-0.717897 0.704719 -0.451881 79 26 18
-0.710400 0.687742 -0.434118 57 19 16
-0.714100 0.690447 -0.433289 67 21 20
-0.211391 0.692803 -0.613174 65 27 18
-0.210265 0.691951 -0.592875 65 27 21
-0.234678 0.363688 -0.831305 73 43 24
-0.272337 0.355106 -0.832559 75 42 18
-0.247431 0.339127 -0.832291 78 44 21
-0.249429 0.315359 -0.833104 77 43 21
-0.089974 0.686792 -0.627392 41 18 13
-0.072163 0.686912 -0.595834 40 16 13
-0.068238 0.685739 -0.611645 41 16 13
-0.176111 0.672769 -0.755537 44 20 17
-0.179163 0.665197 -0.795402 38 28 19
-0.181822 0.671727 -0.772353 40 28 20
-0.187719 0.670475 -0.761351 44 23 20
-0.214558 0.518627 -0.821554 66 37 21
-0.233642 0.517644 -0.823244 65 38 15
-0.207188 0.536948 -0.819897 61 33 19
-0.579948 0.429401 -0.821197 91 51 24
-0.585577 0.426047 -0.820503 87 49 22
-0.598691 0.434866 -0.823030 70 39 16
-0.607534 0.432816 -0.822184 89 50 20
-0.587344 0.413164 -0.817611 96 57 24
-0.616823 0.423435 -0.822634 96 54 24
-0.602472 0.419282 -0.821367 96 54 24
-0.715353 0.730482 -0.456005 135 77 68
-0.808393 0.528867 -0.524924 79 18 17
-0.803289 0.516816 -0.524188 101 40 35
-0.189550 0.691121 -0.598455 68 29 20
-0.204176 0.692247 -0.581239 68 29 20
-0.654785 0.365262 -0.828452 125 67 27
-0.488933 0.573432 -0.762895 62 24 12
-0.484946 0.578138 -0.771090 63 19 16
-0.474497 0.593546 -0.782848 80 31 33
-0.497995 0.541635 -0.740020 74 41 30
-0.494754 0.560623 -0.727461 75 61 48
-0.493294 0.564043 -0.737501 80 64 51
-0.491860 0.559757 -0.749565 68 32 23
-0.398602 0.665930 -0.706104 58 17 15
-0.374692 0.645776 -0.693642 50 18 16
-0.389631 0.652231 -0.688428 57 17 16
-0.381112 0.646259 -0.686686 53 18 16
-0.370840 0.648228 -0.699074 54 17 16
-0.388280 0.652790 -0.714084 55 17 16
-0.379818 0.647205 -0.709342 56 16 15
-0.584787 0.691121 -0.380578 114 43 37
-0.170232 0.691931 -0.510934 70 30 19
-0.558909 0.694400 -0.396395 125 52 42
-0.575647 0.694150 -0.394894 125 50 39
-0.571708 0.705841 -0.366025 88 31 23
-0.591749 0.705135 -0.370803 85 28 19
-0.573613 0.699756 -0.373576 104 37 30
-0.159004 0.692843 -0.520456 51 19 14
-0.566868 0.690582 -0.380554 109 34 33
-0.114686 0.564212 -0.821909 50 29 19
-0.120725 0.589077 -0.819892 52 29 16
-0.155321 0.577822 -0.819381 54 31 17
-0.200778 0.252744 -0.831282 73 40 22
-0.490103 0.685789 -0.709087 55 21 14
-0.472099 0.700308 -0.678913 57 22 18
-0.473326 0.704676 -0.723431 58 24 18
-0.484130 0.699336 -0.698950 58 22 17
-0.450193 0.696243 -0.708276 59 21 18
-0.479044 0.701427 -0.696798 58 23 17
-0.481841 0.706284 -0.714741 59 23 15
-0.488367 0.687115 -0.686132 57 22 18
-0.437041 0.698749 -0.752466 48 40 25
-0.450526 0.697932 -0.761611 49 38 23
-0.791297 0.572632 -0.398029 36 11 11
-0.795146 0.566238 -0.398299 35 10 11
-0.534118 0.420477 -0.827977 95 53 18
-0.543633 0.422130 -0.825443 89 49 17
-0.527400 0.405289 -0.829598 105 58 24
-0.548176 0.407919 -0.829417 106 61 23
-0.102949 0.453401 -0.824966 57 30 18
-0.131089 0.457776 -0.824429 57 31 17
-0.134922 0.497385 -0.822045 56 30 17
-0.090786 0.678649 -0.701236 42 16 13
-0.113953 0.674482 -0.703784 43 17 13
-0.111072 0.678213 -0.681604 42 16 14
-0.097684 0.674130 -0.707908 44 16 15
-0.359997 0.666807 -0.771618 42 38 25
-0.337664 0.678991 -0.775514 60 48 29
-0.338192 0.682032 -0.764052 51 42 26
-0.350590 0.669677 -0.770534 57 44 26
-0.357260 0.671773 -0.762861 42 37 26
-0.352470 0.651914 -0.814322 70 45 26
-0.359419 0.638651 -0.819448 72 46 22
-0.339366 0.620081 -0.824451 68 39 20
-0.481073 0.347449 -0.427432 54 14 12
-0.484113 0.367742 -0.410988 54 13 13
-0.482775 0.345931 -0.411285 54 13 14
-0.480577 0.337895 -0.425189 54 14 12
-0.483631 0.358181 -0.413154 54 13 13
-0.483045 0.352828 -0.423350 53 14 12
-0.147231 0.428350 -0.825104 61 33 19
-0.152079 0.407672 -0.827019 62 33 14
-0.222860 0.684871 -0.674937 47 17 15
-0.215604 0.686051 -0.657705 48 19 14
-0.133750 0.692398 -0.483173 67 27 18
-0.144072 0.690198 -0.491568 67 27 20
-0.167032 0.372217 -0.828369 65 38 23
-0.165777 0.387629 -0.827057 64 35 20
-0.411641 0.687033 -0.652896 59 19 16
-0.422549 0.696068 -0.679545 60 22 14
-0.320062 0.505988 -0.823960 69 36 18
-0.312530 0.516729 -0.824110 66 35 18
-0.807905 0.577581 -0.404491 99 25 24
-0.817495 0.595847 -0.428853 95 24 21
-0.106795 0.687989 -0.635967 43 17 15
-0.117611 0.687297 -0.611223 41 18 17
-0.112511 0.685046 -0.652793 45 16 15
-0.213346 0.687465 -0.550668 67 26 20
-0.234637 0.690145 -0.549162 65 28 19
-0.245276 0.694340 -0.531565 60 25 15
-0.360268 0.334419 -0.834682 75 41 16
-0.073417 0.688827 -0.584998 38 17 12
-0.080276 0.690219 -0.571394 43 16 14
-0.079629 0.692561 -0.545563 43 16 13
-0.219319 0.307437 -0.831954 79 43 21
-0.176542 0.281813 -0.831144 72 40 19
-0.198567 0.297094 -0.831824 74 41 20
-0.216263 0.283001 -0.833025 76 42 20
-0.815984 0.545843 -0.579439 74 16 17
-0.253270 0.694552 -0.617480 63 25 17
-0.275652 0.688026 -0.577654 63 25 14
-0.250446 0.691627 -0.597676 63 26 16
-0.283495 0.687226 -0.600990 63 26 18
-0.772768 0.738436 0.356689 103 41 38
-0.608585 0.719300 0.247038 145 118 111
-0.638592 0.725836 0.245413 113 76 73
-0.246972 0.703848 0.454300 211 200 193
-0.368986 0.278492 -0.045296 110 29 29
-0.605757 0.470492 -0.346762 69 24 20
-0.493083 0.307436 -0.369888 72 23 21
-0.501739 0.311049 -0.359428 73 26 20
-0.510848 0.299972 -0.352716 75 22 17
-0.685362 0.725791 0.120954 73 31 28
-0.654607 0.726898 0.126000 73 32 27
-0.479114 0.701389 0.291515 181 168 157
-0.438457 0.699979 0.298966 177 165 156
-0.475673 0.699749 0.268108 188 175 163
-0.460615 0.700167 0.297548 179 167 158
-0.013546 0.695864 0.154913 181 168 159
-0.032845 0.695285 0.154697 178 165 154
-0.630022 0.735896 0.493709 124 91 86
-0.626951 0.733185 0.471210 111 72 67
-0.213822 0.699215 -0.245867 60 27 20
-0.190698 0.705173 -0.243518 59 27 23
-0.196068 0.710224 -0.258613 60 27 20
-0.204817 0.705601 -0.271357 60 26 24
-0.830147 0.719896 0.043766 88 35 28
-0.810226 0.726586 0.017949 88 34 30
-0.821001 0.722787 0.034666 88 37 29
-0.832057 0.719936 0.055613 89 36 31
-0.009737 0.698666 0.404879 215 205 194
-0.882822 0.720550 0.063758 89 37 30
-0.852377 0.721778 0.064773 88 37 29
-0.865066 0.722110 0.065302 90 37 32
-0.639772 0.727477 0.275775 78 34 32
-0.633936 0.726606 0.291815 112 76 71
-0.769400 0.715878 -0.113222 85 32 29
