ply
format ascii 1.0
element vertex 1231
property float x
property float y
property float z
property uchar red
property uchar green
property uchar blue
end_header
0.770728 -0.512960 0.175705 122 109 86
0.755012 -0.515104 0.181205 120 109 84
0.759212 -0.514690 0.206715 121 107 83
0.648726 -0.474974 -0.121053 148 137 126
0.752907 -0.511931 0.297381 109 92 74
0.688962 -0.514360 -0.010792 134 117 95
0.687901 -0.516007 -0.003453 133 120 95
0.641464 -0.513607 -0.010673 133 117 97
0.703238 -0.507672 -0.017322 133 117 96
0.678766 -0.508321 -0.018010 132 116 97
0.714112 -0.451684 -0.123916 154 141 132
0.704038 -0.431518 -0.126296 153 139 132
0.733687 -0.410875 -0.126483 153 140 130
0.873923 -0.327701 -0.067882 150 139 127
0.896147 -0.312938 0.431955 47 43 34
0.897746 -0.321690 0.407955 55 47 37
0.846299 -0.478735 -0.038164 142 129 121
0.858903 -0.476054 -0.035073 129 114 90
0.845836 -0.620131 0.304797 53 47 35
0.837532 -0.616794 0.319103 50 45 32
0.842720 -0.626357 0.315679 51 44 30
0.830690 -0.616574 0.312539 95 80 60
0.828981 -0.614936 0.329040 51 45 35
0.887700 -0.498039 0.095864 126 109 86
0.892962 -0.486691 0.089454 123 109 85
0.746935 -0.515768 0.199705 121 110 85
0.750489 -0.591233 0.228444 118 103 80
0.742631 -0.587408 0.235994 120 104 79
0.751201 -0.582474 0.231506 120 105 82
0.697481 -0.215990 -0.132774 158 147 134
0.682606 -0.180193 -0.134347 160 146 135
0.713697 -0.201511 -0.131730 160 147 135
0.650968 -0.514763 0.293205 114 100 76
0.644990 -0.516263 0.279984 115 99 77
0.737746 -0.512775 0.336079 104 89 66
0.744201 -0.512641 0.327822 106 91 69
0.761569 -0.147406 -0.131577 161 147 139
0.834539 -0.479817 -0.092145 148 137 127
0.829787 -0.477314 -0.107487 151 138 128
0.827234 -0.473396 -0.112627 150 139 130
0.856577 -0.456832 -0.113179 151 138 131
0.848497 -0.462292 -0.115103 153 138 132
0.854013 -0.473661 -0.099171 149 137 125
0.853799 -0.471026 -0.107346 149 138 128
0.752361 -0.505652 0.046193 110 97 86
0.791993 -0.118934 -0.130550 161 151 139
0.812474 -0.441369 -0.121398 154 141 134
0.841466 -0.439032 -0.119958 154 142 132
0.900975 -0.372600 0.016455 134 118 97
0.901178 -0.366598 0.035580 135 120 99
0.892538 -0.409753 -0.014559 130 115 92
0.831552 -0.316856 -0.125579 155 143 133
0.816755 -0.359663 -0.124423 157 142 132
0.798632 -0.320912 -0.125423 155 144 134
0.846932 -0.508889 0.283411 108 94 71
0.834485 -0.508052 0.269658 109 94 72
0.854861 -0.508205 0.298205 102 89 66
0.890977 -0.496604 0.339339 98 83 62
0.889087 -0.501469 0.355104 95 80 58
0.900655 -0.218600 0.267955 145 127 105
0.902509 -0.198216 0.288446 145 127 105
0.900852 -0.214603 0.291455 143 125 103
0.648784 -0.516270 0.264830 118 103 79
0.715004 -0.512070 0.424073 93 81 61
0.703488 -0.510554 0.413504 93 80 60
0.902353 -0.299421 0.166330 138 121 104
0.900645 -0.330696 0.306830 126 113 88
0.901177 -0.330272 0.330711 125 110 88
0.900882 -0.297217 0.310604 130 114 92
0.614153 -0.497764 -0.028636 131 116 97
0.781650 -0.639629 0.337204 103 87 67
0.805693 -0.610040 0.350076 94 80 62
0.809070 -0.623536 0.347999 94 80 62
0.812221 -0.617495 0.343317 91 75 57
0.799086 -0.618722 0.357927 87 76 54
0.803136 -0.613897 0.360908 93 80 60
0.804564 -0.631454 0.363466 87 75 56
0.785307 -0.637802 0.331357 103 87 69
0.790760 -0.610853 0.339584 104 89 66
0.794337 -0.618637 0.335076 102 88 64
0.787383 -0.635511 0.362437 89 76 57
0.807703 -0.634397 0.346776 88 75 58
0.806090 -0.629384 0.356055 86 74 56
0.797048 -0.625510 0.339089 97 83 60
0.809673 -0.613973 0.335856 95 81 59
0.790284 -0.637639 0.352437 97 82 63
0.790504 -0.628392 0.340399 98 84 62
0.804963 -0.625985 0.337763 97 84 61
0.816827 -0.615201 0.337755 91 79 53
0.801050 -0.611093 0.334378 101 87 62
0.896720 -0.310738 -0.016345 140 124 103
0.901379 -0.320068 -0.007851 139 123 103
0.896979 -0.323961 -0.016584 138 123 104
0.901809 -0.122508 0.348393 156 140 114
0.796880 -0.479158 -0.104647 151 138 128
0.789662 -0.467628 -0.116284 149 138 129
0.767450 -0.476360 -0.111764 150 137 128
0.876377 -0.208169 -0.042867 152 139 129
0.876087 -0.230659 -0.038146 152 140 130
0.685148 -0.411850 -0.128404 153 141 130
0.676246 -0.515395 0.256455 118 103 83
0.693238 -0.516164 0.265955 117 101 81
0.863115 -0.597198 0.311475 51 45 36
0.857119 -0.592327 0.305225 52 46 32
0.846810 -0.603410 0.335669 52 43 34
0.854591 -0.600384 0.332934 51 43 32
0.853562 -0.605334 0.324013 78 65 48
0.846988 -0.610300 0.325654 78 65 48
0.854276 -0.587234 0.316659 52 44 33
0.858822 -0.595751 0.324777 52 44 34
0.863307 -0.584206 0.320489 77 66 49
0.862050 -0.599164 0.308757 51 46 33
0.860442 -0.579854 0.330237 77 64 48
0.797854 -0.356167 -0.124880 155 143 134
0.902481 -0.209428 0.216711 141 126 101
0.901799 -0.226018 0.228279 140 123 104
0.875185 -0.241617 -0.106796 157 145 133
0.872030 -0.215225 -0.115885 157 144 134
0.872956 -0.242603 -0.115269 157 144 134
0.869520 -0.282183 -0.117134 156 143 133
0.636783 -0.514922 0.012211 134 119 96
0.644325 -0.514734 0.036830 133 118 98
0.758343 -0.318174 -0.127390 154 141 129
0.906609 -0.143512 -0.011321 144 127 105
0.906522 -0.163744 -0.004510 145 128 108
0.907560 -0.144719 0.006246 146 128 107
0.903145 -0.157071 -0.016584 148 132 109
0.758079 -0.480688 -0.063150 151 138 126
0.770612 -0.480138 -0.083894 150 136 127
0.768611 -0.478376 -0.055465 148 135 124
0.807258 -0.509160 -0.004943 132 118 94
0.807437 -0.485709 -0.028511 132 119 92
0.795326 -0.511180 -0.004157 131 118 93
0.809274 -0.502396 -0.014833 132 118 93
0.647775 -0.482532 -0.054953 148 136 125
0.633407 -0.484070 -0.079881 148 134 126
0.896558 -0.461595 0.208819 115 103 83
0.872949 -0.414530 -0.072545 145 132 124
0.872766 -0.414322 -0.047248 144 131 122
0.802905 -0.511968 0.181455 120 105 79
0.779814 -0.510622 0.135113 125 110 86
0.757228 -0.513676 0.136339 128 113 87
0.846855 -0.510149 0.231165 119 104 82
0.828359 -0.511131 0.228455 114 100 80
0.822954 -0.512223 0.198087 118 105 81
0.793929 -0.511314 0.385455 95 80 57
0.861274 -0.509565 0.086455 125 112 86
0.871856 -0.507834 0.092916 126 110 90
0.734996 -0.513690 0.130098 127 112 92
0.772114 -0.638540 0.273992 114 98 78
0.758314 -0.622169 0.291856 111 95 72
0.753910 -0.622515 0.282550 111 95 73
0.754385 -0.624484 0.266349 114 97 77
0.761009 -0.635433 0.273307 113 96 77
0.783841 -0.605965 0.276248 110 94 70
0.767515 -0.622595 0.300393 111 93 71
0.779297 -0.610599 0.296914 111 94 70
0.778800 -0.636141 0.298043 104 89 66
0.776144 -0.639483 0.283228 111 96 74
0.779996 -0.634046 0.285001 112 96 74
0.762648 -0.626506 0.281016 113 98 76
0.772105 -0.627220 0.297122 113 96 75
0.770958 -0.636443 0.291743 111 95 71
0.783932 -0.605319 0.286867 110 95 71
0.704191 -0.514282 0.020013 135 119 97
0.666444 -0.515672 0.020455 133 118 98
0.810265 -0.150799 -0.129734 169 154 146
0.871562 -0.310575 -0.112935 155 142 131
0.874567 -0.313919 -0.096287 152 140 129
0.747195 -0.192229 -0.131067 160 147 137
0.729890 -0.153184 -0.132475 159 147 135
0.717548 -0.511252 0.369705 102 87 65
0.692300 -0.511026 0.383129 97 82 60
0.710142 -0.510445 0.377880 98 83 62
0.755318 -0.347496 -0.127531 155 142 133
0.731121 -0.369525 -0.127772 155 142 134
0.897347 -0.379009 0.403540 100 87 64
0.904125 -0.262257 0.078205 140 123 103
0.906754 -0.123786 0.104955 142 127 106
0.905949 -0.152512 0.106056 144 127 104
0.800975 -0.642000 0.352422 90 76 58
0.794007 -0.644366 0.363430 89 75 59
0.874172 -0.335420 -0.095668 150 137 128
0.873032 -0.347189 -0.074689 148 138 125
0.865572 -0.111782 -0.125065 161 150 137
0.710764 -0.340298 -0.129401 155 141 131
0.693166 -0.344887 -0.129913 155 141 133
0.690325 -0.478138 -0.115230 148 136 126
0.880889 -0.504622 0.340193 100 85 63
0.902512 -0.332221 0.073455 137 118 99
0.902908 -0.320842 0.050455 137 120 102
0.901740 -0.361062 0.065736 135 118 97
0.784137 -0.621188 0.366537 94 81 60
0.761090 -0.619312 0.336245 100 85 64
0.771354 -0.608767 0.334354 104 91 64
0.768040 -0.631115 0.343654 100 85 64
0.766703 -0.614994 0.332123 104 90 67
0.778710 -0.621717 0.342142 98 85 62
0.777854 -0.626875 0.339976 93 79 59
0.780114 -0.614421 0.342591 102 87 65
0.778676 -0.614402 0.351588 100 85 64
0.777803 -0.622999 0.351426 101 85 66
0.769753 -0.627836 0.327966 103 86 63
0.773265 -0.636205 0.349404 98 84 63
0.906247 -0.127635 0.131330 143 128 105
0.779587 -0.614349 0.360878 97 82 63
0.807474 -0.573378 0.345848 100 84 63
0.790489 -0.569510 0.323886 102 88 65
0.790354 -0.571608 0.343847 100 86 62
0.800169 -0.571848 0.332673 101 86 63
0.796620 -0.570672 0.358386 98 83 62
0.784071 -0.567455 0.333535 102 89 65
0.787322 -0.481703 -0.034853 132 118 97
0.772291 -0.489945 -0.027048 131 115 92
0.784902 -0.487672 -0.027307 132 116 96
0.786003 -0.504430 -0.013953 133 117 97
0.755022 -0.484127 -0.036775 135 121 102
0.900515 -0.388613 0.037080 133 116 96
0.900140 -0.411482 0.030299 133 116 94
0.768757 -0.181136 -0.130446 163 148 137
0.792184 -0.185817 -0.130317 162 148 140
0.770682 -0.507962 0.102780 126 111 90
0.795073 -0.509530 0.123455 127 112 90
0.763741 -0.510079 0.118989 126 112 89
0.815935 -0.512109 0.179455 121 106 83
0.722917 -0.267297 -0.130379 155 142 130
0.701317 -0.307297 -0.130079 154 142 131
0.893619 -0.486505 0.116780 120 108 82
0.879575 -0.137022 -0.042074 153 141 128
0.839087 -0.349997 -0.124249 154 143 134
0.691103 -0.166749 -0.133585 161 149 136
0.901912 -0.293854 0.255060 132 114 97
0.901127 -0.315970 0.257170 130 115 93
0.899931 -0.329290 0.247375 128 114 92
0.878977 -0.253425 -0.033800 145 131 115
0.876041 -0.261002 -0.043167 153 141 130
0.884028 -0.262502 -0.028755 147 132 114
0.820644 -0.585596 0.285855 104 90 68
0.828825 -0.595717 0.285867 95 83 68
0.832905 -0.598293 0.296224 81 71 54
0.816334 -0.580342 0.298416 95 82 62
0.822005 -0.596472 0.287098 97 82 60
0.733962 -0.508541 0.100455 130 116 99
0.655118 -0.426978 -0.128490 153 140 130
0.633048 -0.465243 -0.124545 151 138 127
0.640699 -0.454055 -0.126257 152 138 130
0.633029 -0.427246 -0.129030 153 138 129
0.680658 -0.470216 -0.121225 149 137 127
0.852853 -0.510407 0.068997 129 113 92
0.823454 -0.509984 0.073362 128 114 91
0.900277 -0.407956 0.067689 133 115 96
0.900792 -0.391143 0.057205 132 114 97
0.789956 -0.455204 -0.119598 151 138 131
0.899168 -0.245781 0.320420 133 118 99
0.900326 -0.262584 0.318519 134 118 95
0.897787 -0.239927 0.332862 138 121 96
0.750621 -0.598885 0.298459 107 94 70
0.747240 -0.605288 0.310515 108 93 72
0.746116 -0.579365 0.316520 109 95 71
0.751734 -0.577660 0.323777 109 93 73
0.744941 -0.511902 0.368469 101 83 63
0.740330 -0.509703 0.380744 95 83 62
0.728805 -0.508898 0.390334 97 84 60
0.731502 -0.512749 0.352206 101 85 64
0.904640 -0.226437 0.088705 140 127 103
0.879846 -0.402793 -0.026935 132 116 93
0.882351 -0.370864 -0.026632 136 118 102
0.875404 -0.375856 -0.036255 134 118 101
0.900271 -0.361135 0.115955 136 119 97
0.873896 -0.311567 -0.105595 153 142 132
0.874773 -0.254739 -0.106680 156 143 133
0.849691 -0.510172 0.192205 117 103 82
0.882893 -0.502462 0.192824 115 101 77
0.902275 -0.332304 -0.003762 137 122 100
0.845093 -0.511240 0.031455 131 116 93
0.857211 -0.510214 0.028455 132 115 94
0.832400 -0.511128 0.039448 132 117 93
0.798907 -0.578791 0.333952 103 89 61
0.797770 -0.608746 0.353686 93 82 59
0.811354 -0.587830 0.362361 94 80 60
0.808129 -0.581492 0.362073 95 80 61
0.781601 -0.603983 0.339631 103 88 65
0.787149 -0.603996 0.344244 103 88 67
0.805201 -0.580262 0.344406 100 84 65
0.795390 -0.607877 0.350736 101 87 65
0.805720 -0.594783 0.362040 99 84 60
0.802083 -0.589925 0.356749 101 83 61
0.811776 -0.602134 0.349858 97 80 60
0.784909 -0.577758 0.339885 103 88 65
0.790830 -0.597194 0.337621 103 88 66
0.790750 -0.579739 0.343579 100 86 64
0.796704 -0.588434 0.345197 99 87 62
0.795689 -0.597252 0.342672 97 86 61
0.803444 -0.602734 0.344088 97 83 64
0.820487 -0.608851 0.344631 97 80 63
0.798990 -0.588701 0.362340 96 82 60
0.791009 -0.583214 0.333399 101 88 64
0.790558 -0.599568 0.331146 104 89 65
0.798900 -0.587191 0.330542 101 87 65
0.794645 -0.607268 0.332750 96 83 62
0.899838 -0.356713 0.233455 125 110 88
0.899097 -0.384185 0.255721 122 109 83
0.899800 -0.367743 0.247580 125 110 85
0.901727 -0.350340 0.091705 135 121 98
0.904983 -0.160762 0.153455 143 127 105
0.897333 -0.438456 0.091979 129 114 92
0.743897 -0.571208 0.332361 108 92 70
0.796753 -0.599772 0.367943 92 77 58
0.795323 -0.581365 0.362466 96 81 62
0.789317 -0.587394 0.367668 95 80 60
0.781571 -0.583602 0.368332 94 77 60
0.800858 -0.581202 0.373289 95 80 61
0.804953 -0.581027 0.370044 96 81 62
0.807810 -0.605350 0.369030 95 79 61
0.788050 -0.610390 0.371759 87 72 56
0.748317 -0.607487 0.297868 105 89 69
0.903774 -0.248839 0.209455 137 122 99
0.903740 -0.260924 0.220054 138 120 102
0.900942 -0.330982 0.160393 131 119 97
0.898878 -0.400020 0.119455 127 113 89
0.900204 -0.394392 0.143536 128 113 92
0.883797 -0.502172 0.091219 122 109 84
0.887041 -0.497259 0.133341 122 109 84
0.881917 -0.503975 0.119885 121 107 84
0.879504 -0.504512 0.142414 121 108 85
0.866236 -0.510064 0.113870 125 110 84
0.834512 -0.511857 0.381455 91 76 53
0.793101 -0.613655 0.359613 97 80 63
0.792043 -0.631215 0.367679 94 78 61
0.799717 -0.626230 0.365603 75 64 46
0.800682 -0.641323 0.365338 73 64 45
0.805455 -0.631835 0.370245 87 73 54
0.796053 -0.607462 0.366378 94 78 58
0.808570 -0.616541 0.371119 86 71 55
0.807626 -0.625228 0.377613 85 71 55
0.681154 -0.379751 -0.129334 154 142 128
0.811442 -0.634719 0.358793 89 76 50
0.827076 -0.615477 0.354339 75 62 52
0.818182 -0.635553 0.353252 77 65 50
0.828113 -0.621018 0.364682 72 65 46
0.826238 -0.623450 0.338200 77 64 46
0.836238 -0.614816 0.330196 52 44 31
0.839231 -0.625134 0.331813 52 44 31
0.831226 -0.620725 0.336927 50 44 32
0.835617 -0.632056 0.343451 49 44 31
0.840484 -0.628177 0.341506 49 44 31
0.836276 -0.617749 0.348882 75 62 48
0.828884 -0.612241 0.356004 75 62 48
0.822711 -0.612660 0.337382 76 66 47
0.764797 -0.513187 0.332860 104 89 65
0.762043 -0.512648 0.344599 102 87 66
0.785110 -0.512298 0.357673 98 83 65
0.770871 -0.511476 0.355839 101 86 63
0.749218 -0.608097 0.255389 116 100 77
0.858248 -0.121788 -0.127887 168 155 146
0.896555 -0.451998 0.227455 116 102 81
0.896460 -0.464385 0.241070 111 98 75
0.894747 -0.476297 0.232999 111 97 74
0.892052 -0.492514 0.248660 111 97 74
0.908084 -0.143402 0.021077 144 127 108
0.907599 -0.126862 0.037955 144 129 107
0.907236 -0.160939 0.027455 144 126 106
0.690965 -0.311009 -0.130053 154 141 131
0.902450 -0.298899 0.274181 131 116 95
0.902247 -0.288788 0.294721 131 116 97
0.772814 -0.304836 -0.126844 156 143 135
0.765175 -0.265679 -0.128515 158 143 135
0.859964 -0.483236 -0.026414 131 115 88
0.806844 -0.480110 -0.095374 147 135 126
0.792626 -0.474431 -0.111654 150 137 128
0.711764 -0.248556 -0.131377 156 143 133
0.869834 -0.363209 -0.112758 153 140 130
0.872471 -0.347438 -0.107161 152 139 128
0.658242 -0.515541 0.219268 120 106 81
0.668289 -0.514540 0.199955 122 107 81
0.684478 -0.515933 0.228955 120 108 81
0.907240 -0.159936 0.063455 145 128 107
0.905893 -0.146790 0.085955 144 127 107
0.906944 -0.132830 0.062455 145 127 109
0.902855 -0.332373 0.032955 136 123 100
0.901304 -0.225094 0.253746 144 126 104
0.902541 -0.195145 0.236580 144 127 105
0.745644 -0.572728 0.288685 113 99 74
0.735003 -0.601425 0.262557 116 100 75
0.740349 -0.576219 0.272780 115 100 77
0.753844 -0.592591 0.292520 112 99 72
0.744625 -0.576546 0.291673 112 99 72
0.755248 -0.575253 0.298166 113 96 77
0.742865 -0.581033 0.283349 111 99 76
0.747211 -0.571867 0.280363 115 98 75
0.746680 -0.597872 0.284661 114 97 75
0.740354 -0.604293 0.291779 113 96 74
0.754538 -0.589021 0.282683 112 97 73
0.738198 -0.590706 0.276031 114 97 77
0.740841 -0.603651 0.281915 112 95 73
0.903630 -0.265549 0.180098 139 124 98
0.903388 -0.267465 0.149580 139 124 99
0.901614 -0.314973 0.232455 130 117 95
0.902074 -0.291938 0.189455 134 118 95
0.811019 -0.510844 0.076955 129 114 89
0.807018 -0.510690 0.097455 129 113 88
0.832990 -0.510418 0.090126 127 114 89
0.625164 -0.514540 0.225420 120 105 83
0.660602 -0.516201 0.243778 121 105 83
0.898879 -0.397903 0.351490 107 92 73
0.897890 -0.418947 0.365893 103 88 63
0.683932 -0.459159 -0.124069 149 137 128
0.675574 -0.447458 -0.126020 153 139 131
0.677791 -0.322309 -0.130717 155 142 133
0.698963 -0.383249 -0.128939 155 141 131
0.892736 -0.490334 0.270130 105 92 66
0.803052 -0.510112 0.319455 104 91 65
0.829447 -0.510363 0.296580 105 91 65
0.647576 -0.513217 0.331480 109 94 70
0.649693 -0.513997 0.318146 111 94 70
0.896066 -0.233285 0.429455 130 113 90
0.896302 -0.255121 0.406455 128 112 89
0.895760 -0.263103 0.429705 122 105 82
0.897488 -0.230339 0.398266 129 113 91
0.707682 -0.515179 -0.007761 133 119 99
0.891122 -0.492688 0.192082 114 101 76
0.875257 -0.508803 0.006101 130 114 93
0.889466 -0.498080 0.000600 128 113 90
0.883287 -0.494825 -0.008669 130 113 89
0.868229 -0.497248 -0.014913 128 112 86
0.874854 -0.505090 -0.004635 130 116 91
0.642886 -0.271728 -0.133165 157 145 134
0.905358 -0.148253 0.145330 144 128 107
0.906156 -0.130960 0.163580 146 128 106
0.904254 -0.171738 0.176455 144 127 104
0.897198 -0.429277 0.294403 112 96 76
0.898269 -0.452213 0.286915 111 97 74
0.897978 -0.434209 0.278780 114 101 74
0.773473 -0.584403 0.243340 120 105 79
0.777835 -0.588606 0.226818 118 102 82
0.778361 -0.599054 0.232460 118 103 77
0.775335 -0.599085 0.220396 118 105 79
0.771015 -0.580135 0.220933 120 104 86
0.770480 -0.602205 0.221909 120 104 79
0.769164 -0.588044 0.211582 122 105 80
0.755036 -0.573622 0.232842 120 105 79
0.757208 -0.579852 0.217960 120 105 79
0.762825 -0.578779 0.222131 120 106 79
0.761415 -0.583502 0.208145 122 106 82
0.761346 -0.589114 0.216328 121 105 81
0.850672 -0.418976 -0.120564 154 138 132
0.855780 -0.437165 -0.117266 154 138 131
0.621217 -0.513611 0.409455 97 84 61
0.900791 -0.343998 0.179455 133 116 93
0.899402 -0.365705 0.343830 119 104 81
0.899782 -0.131981 0.406001 160 143 118
0.898840 -0.169306 0.420705 157 139 117
0.899346 -0.159817 0.405955 160 142 119
0.737750 -0.605044 0.270792 115 98 74
0.747213 -0.617748 0.275258 114 98 73
0.741288 -0.612430 0.293393 110 94 71
0.740556 -0.609196 0.283316 110 94 72
0.856482 -0.265420 -0.124079 156 144 131
0.905657 -0.245128 0.027134 143 128 106
0.829636 -0.595077 0.331308 78 66 50
0.825293 -0.591681 0.301018 79 70 50
0.816965 -0.590328 0.309783 91 80 61
0.823214 -0.587606 0.308455 78 69 52
0.831040 -0.586512 0.308756 78 69 51
0.832523 -0.602832 0.308311 78 68 50
0.832219 -0.610267 0.316143 52 46 30
0.851805 -0.594181 0.306606 79 68 50
0.824983 -0.609202 0.321715 91 80 58
0.835383 -0.585351 0.325899 92 79 59
0.829546 -0.590211 0.317256 78 67 52
0.828516 -0.606886 0.302555 78 70 50
0.824058 -0.596956 0.316212 76 67 49
0.844739 -0.592951 0.300056 79 71 51
0.841562 -0.605516 0.318098 77 67 47
0.840949 -0.581701 0.304090 92 82 58
0.837978 -0.608164 0.308216 80 70 51
0.691710 -0.514394 0.107179 127 114 91
0.663003 -0.514785 0.123955 128 114 91
0.798065 -0.509818 0.101801 128 111 92
0.787227 -0.507252 0.071455 126 111 92
0.773936 -0.506329 0.090756 129 114 98
0.759180 -0.506753 0.095455 125 112 98
0.656446 -0.397366 -0.129952 154 141 131
0.866214 -0.580304 0.325730 75 64 47
0.858649 -0.588550 0.335907 88 75 56
0.852401 -0.588590 0.345316 87 73 56
0.745021 -0.615902 0.314543 104 89 67
0.766885 -0.638390 0.311011 104 89 67
0.782546 -0.618636 0.314423 108 92 68
0.778901 -0.635898 0.315276 108 91 73
0.754532 -0.621152 0.320422 101 87 68
0.765335 -0.615058 0.319816 105 90 72
0.767687 -0.627664 0.323860 94 83 61
0.757521 -0.626456 0.306612 104 88 66
0.759385 -0.620875 0.298144 105 89 68
0.766756 -0.635662 0.318003 104 91 68
0.784175 -0.612924 0.319353 107 92 71
0.777914 -0.639846 0.332679 103 85 64
0.776358 -0.630696 0.322342 105 89 69
0.770377 -0.636304 0.303080 106 90 65
0.778116 -0.630040 0.303200 109 93 71
0.775231 -0.618776 0.324846 105 91 65
0.862628 -0.578580 0.346420 87 75 60
0.712507 -0.483483 -0.099401 149 136 129
0.709818 -0.480696 -0.111633 150 138 126
0.728114 -0.481826 -0.089423 149 136 127
0.683477 -0.481701 -0.079637 148 137 129
0.735158 -0.509029 0.408878 94 81 59
0.718533 -0.510991 0.410255 93 80 61
0.739907 -0.511607 0.428233 94 80 62
0.904846 -0.186993 0.161066 142 127 105
0.903724 -0.176586 0.204955 143 125 108
0.902584 -0.205713 0.203455 142 125 105
0.902228 -0.279748 0.208279 136 121 98
0.903135 -0.281214 0.230689 133 118 95
0.869463 -0.507478 0.323705 94 82 61
0.867248 -0.508879 0.348847 96 84 61
0.900877 -0.196472 0.354444 147 127 109
0.899989 -0.216787 0.329183 143 125 103
0.898599 -0.237110 0.356847 139 122 99
0.900067 -0.216126 0.352929 146 127 107
0.820961 -0.512803 0.010532 132 118 93
0.794746 -0.510517 0.019792 131 116 93
0.809266 -0.511524 0.019097 132 117 93
0.690315 -0.515069 0.211455 124 110 84
0.727550 -0.515936 0.178018 124 110 86
0.703458 -0.515757 0.184018 124 110 84
0.738699 -0.506383 -0.014725 128 113 93
0.762184 -0.503040 -0.016441 126 112 90
0.900086 -0.395457 -0.000084 132 116 93
0.898317 -0.400927 -0.006613 133 117 95
0.904315 -0.243745 0.142300 141 125 104
0.903930 -0.211836 0.155455 140 124 103
0.903323 -0.250488 0.242903 140 123 101
0.654795 -0.351894 -0.130878 154 141 129
0.807214 -0.172182 -0.129423 163 151 144
0.868490 -0.454426 -0.079402 147 135 125
0.865152 -0.460681 -0.097375 148 137 126
0.745442 -0.481015 -0.047486 144 131 119
0.757007 -0.481268 -0.044406 148 135 124
0.744951 -0.490570 -0.027272 133 117 98
0.896082 -0.476160 0.059018 125 112 88
0.896992 -0.457048 0.083455 127 112 91
0.893631 -0.485736 0.044509 124 111 88
0.903775 -0.131953 0.243955 149 131 111
0.904453 -0.213882 0.108144 139 124 107
0.905376 -0.214155 0.131360 140 125 104
0.902304 -0.157542 0.303455 152 134 111
0.638307 -0.513127 0.395455 97 84 61
0.663995 -0.511742 0.400955 96 83 63
0.632529 -0.512791 0.431937 94 83 59
0.828002 -0.615259 0.365212 71 62 44
0.823841 -0.631354 0.374707 47 41 30
0.828859 -0.620502 0.369486 70 61 42
0.822363 -0.613562 0.365320 86 74 55
0.820970 -0.618277 0.365318 85 73 52
0.750972 -0.509807 -0.008099 127 114 96
0.732086 -0.512227 -0.004505 133 118 101
0.728822 -0.512562 0.006931 134 119 107
0.903871 -0.161929 0.195455 144 128 107
0.847704 -0.513226 0.403220 89 72 53
0.850983 -0.512865 0.423455 81 71 48
0.823508 -0.511255 0.404999 89 74 52
0.771198 -0.511799 0.269967 113 98 73
0.898494 -0.460655 0.007588 131 114 95
0.899787 -0.424166 0.043455 131 114 94
0.901656 -0.330007 0.277059 127 111 93
0.650395 -0.512489 0.420455 94 82 58
0.689564 -0.511867 0.413455 94 81 62
0.628224 -0.513118 0.345642 105 91 65
0.689831 -0.274388 -0.131529 157 144 134
0.689002 -0.232229 -0.132510 157 144 131
0.898675 -0.445770 0.030580 129 113 91
0.898579 -0.428585 0.070455 127 113 90
0.875253 -0.266756 -0.093545 155 140 134
0.874120 -0.290239 -0.078295 152 140 131
0.873421 -0.299714 -0.061545 154 141 130
0.875351 -0.275791 -0.060545 153 140 130
0.635913 -0.514875 0.184018 123 112 86
0.655838 -0.514600 0.143515 127 114 90
0.623901 -0.514559 0.166237 124 111 88
0.632903 -0.514885 0.140580 126 113 87
0.648722 -0.514622 0.160955 127 112 87
0.853872 -0.223439 -0.125624 158 146 134
0.866696 -0.231283 -0.121285 158 145 135
0.887147 -0.497408 0.210303 112 98 75
0.862968 -0.508859 0.222482 115 102 78
0.869983 -0.507247 0.191955 113 102 80
0.876834 -0.505047 0.220415 111 97 77
0.906641 -0.192489 0.043955 143 128 104
0.905713 -0.218983 0.034643 143 127 105
0.905454 -0.212710 0.073705 143 128 103
0.905555 -0.232520 0.058607 142 128 105
0.906100 -0.210377 0.052830 142 127 105
0.847170 -0.509283 0.322268 101 85 65
0.846283 -0.511773 0.349564 99 84 62
0.821801 -0.510138 0.323399 101 87 66
0.897426 -0.423599 0.388060 100 86 62
0.898904 -0.392305 0.379594 103 87 68
0.762077 -0.514833 0.156222 125 111 87
0.715131 -0.515204 0.161955 126 110 89
0.704273 -0.482420 -0.064325 148 137 128
0.708867 -0.483269 -0.048545 146 135 124
0.869867 -0.463519 -0.032867 132 119 103
0.871803 -0.475187 -0.025155 127 114 89
0.868735 -0.456548 -0.049866 143 128 113
0.872755 -0.271356 -0.112591 156 142 136
0.764723 -0.512791 0.218455 121 104 78
0.777011 -0.512076 0.218242 120 106 83
0.898188 -0.402976 0.205455 123 110 81
0.835557 -0.481244 -0.074255 147 136 126
0.852761 -0.476308 -0.075274 148 137 128
0.858472 -0.472252 -0.079664 149 138 130
0.844308 -0.477811 -0.051951 150 136 126
0.822826 -0.479178 -0.054070 145 133 124
0.803740 -0.510924 0.164205 123 109 82
0.775611 -0.506147 0.047179 126 115 100
0.770050 -0.505650 0.072205 127 115 99
0.804112 -0.510305 0.044771 128 114 93
0.900002 -0.297697 0.348084 90 77 59
0.902018 -0.156516 0.277455 150 132 111
0.902828 -0.128996 0.286705 150 133 110
0.897987 -0.441077 0.148080 122 107 85
0.898700 -0.413172 0.156018 121 109 85
0.897358 -0.436513 0.160955 123 108 86
0.865549 -0.507829 0.141592 121 108 83
0.856573 -0.509620 0.164955 122 108 80
0.878313 -0.503836 0.164355 119 107 83
0.886442 -0.497798 0.161184 117 103 79
0.871416 -0.440217 -0.047335 138 126 114
0.871202 -0.452468 -0.036742 141 127 113
0.879220 -0.459678 -0.024294 126 112 93
0.873132 -0.439549 -0.036500 133 120 104
0.879954 -0.429928 -0.025709 126 111 87
0.903005 -0.307252 0.070449 139 122 102
0.903426 -0.280059 0.071658 139 122 101
0.804996 -0.510898 0.337455 104 88 65
0.715240 -0.514868 0.315775 111 94 76
0.699569 -0.514105 0.316991 107 94 68
0.711521 -0.513964 0.328537 108 94 69
0.874792 -0.227097 -0.054545 154 143 133
0.874750 -0.240887 -0.070045 156 142 134
0.874296 -0.336234 -0.046613 146 133 119
0.876044 -0.339134 -0.038755 143 131 116
0.880848 -0.354325 -0.030463 138 121 104
0.904316 -0.257371 0.188604 136 122 100
0.895366 -0.479991 0.288955 107 91 68
0.897937 -0.460132 0.278455 109 96 72
0.674786 -0.275236 -0.131235 156 143 133
0.675369 -0.243190 -0.132548 157 144 133
0.622215 -0.482332 -0.110630 151 136 126
0.896429 -0.468288 0.167455 120 106 85
0.895918 -0.464988 0.198205 117 105 82
0.892615 -0.484364 0.211374 115 103 80
0.742625 -0.593160 0.243752 117 102 81
0.743996 -0.576104 0.249084 118 103 77
0.750047 -0.584390 0.246334 119 105 78
0.744490 -0.576300 0.267093 117 101 79
0.744471 -0.585214 0.254704 117 102 79
0.743655 -0.590203 0.267971 117 101 77
0.734616 -0.594054 0.252202 118 102 82
0.900393 -0.363526 0.136705 128 113 93
0.906356 -0.170065 0.083518 144 126 103
0.905179 -0.184187 0.116539 144 126 103
0.807522 -0.480051 -0.043254 133 118 103
0.820763 -0.487304 -0.026372 132 116 94
0.799435 -0.572415 0.365270 95 83 62
0.759020 -0.588800 0.331810 107 90 72
0.763388 -0.600604 0.336251 106 91 67
0.760003 -0.590517 0.348405 103 88 68
0.772476 -0.610391 0.348436 101 87 67
0.782511 -0.606962 0.350527 103 86 67
0.778693 -0.602766 0.358249 100 84 63
0.784578 -0.576691 0.360310 100 86 64
0.781303 -0.594577 0.357947 101 85 64
0.763408 -0.601505 0.347408 104 88 67
0.759470 -0.589441 0.341032 105 89 69
0.763556 -0.584669 0.360520 97 85 63
0.757984 -0.577898 0.357213 101 85 67
0.758805 -0.572708 0.370427 100 86 64
0.746520 -0.508931 0.113339 122 110 91
0.735968 -0.506544 0.083194 123 112 96
0.898850 -0.385974 0.276455 116 101 78
0.898272 -0.408186 0.287830 114 100 75
0.898991 -0.403826 0.253603 117 103 81
0.897177 -0.455810 0.304455 105 93 69
0.896361 -0.465587 0.321886 106 90 68
0.897756 -0.475953 0.331771 102 88 68
0.895744 -0.476139 0.313024 102 87 67
0.900952 -0.344932 0.211193 126 112 88
0.898740 -0.375935 0.227455 125 110 86
0.898948 -0.388992 0.199830 124 110 87
0.781027 -0.642512 0.303465 104 88 68
0.898554 -0.422063 0.137455 125 111 86
0.897512 -0.460600 0.143455 123 111 86
0.898884 -0.350290 0.310920 119 105 84
0.899208 -0.373965 0.319455 119 103 84
0.841494 -0.512398 0.012018 129 115 92
0.869897 -0.509169 0.053313 128 115 91
0.891292 -0.496300 0.009900 130 114 90
0.878793 -0.507351 0.025102 127 115 86
0.888523 -0.495167 0.044010 129 112 89
0.880438 -0.503734 0.038428 128 113 91
0.838051 -0.509417 0.251055 112 98 76
0.857823 -0.508805 0.264955 110 95 73
0.744737 -0.473298 -0.117034 150 138 122
0.750937 -0.458697 -0.121210 149 139 125
0.743770 -0.438090 -0.124133 149 139 127
0.628201 -0.512164 0.381772 101 87 66
0.898621 -0.368739 0.378793 89 76 59
0.899064 -0.320058 0.383955 65 54 41
0.897508 -0.354773 0.408455 80 67 51
0.873723 -0.306092 -0.046730 145 133 118
0.880785 -0.282083 -0.031459 141 127 111
0.881597 -0.325954 -0.029967 138 123 105
0.879077 -0.302611 -0.031708 138 123 103
0.799188 -0.569620 0.323612 104 90 67
0.811804 -0.568499 0.315567 105 88 67
0.803502 -0.577145 0.309954 107 91 70
0.805726 -0.570732 0.325918 100 88 64
0.791502 -0.575565 0.310581 104 92 65
0.805343 -0.565153 0.313004 106 92 70
0.800674 -0.578270 0.302547 105 90 68
0.801381 -0.569625 0.302583 104 89 66
0.812411 -0.575960 0.307552 104 89 66
0.808467 -0.569323 0.300121 106 90 68
0.806362 -0.575621 0.333072 102 91 60
0.861416 -0.414946 -0.116793 151 139 130
0.836325 -0.410004 -0.122677 154 143 133
0.838458 -0.511302 0.169576 120 107 79
0.834587 -0.512273 0.202944 120 106 82
0.902981 -0.320060 0.000508 138 124 101
0.898619 -0.209823 0.373095 137 120 96
0.897750 -0.222554 0.370866 141 124 99
0.897550 -0.294327 0.399202 52 46 36
0.810859 -0.607617 0.322125 98 85 63
0.805515 -0.615386 0.330805 98 85 62
0.785759 -0.635385 0.321287 102 87 65
0.788058 -0.628648 0.310963 103 86 65
0.785444 -0.608122 0.305424 110 91 75
0.782131 -0.618525 0.301420 108 90 72
0.781937 -0.608679 0.324691 105 88 62
0.789458 -0.618470 0.326275 103 88 60
0.788257 -0.626450 0.330348 102 89 60
0.782182 -0.625448 0.323640 106 87 66
0.791626 -0.612183 0.329273 108 88 72
0.794700 -0.614351 0.306938 106 93 68
0.784627 -0.604928 0.323532 107 89 66
0.903837 -0.209071 0.176455 143 125 103
0.903818 -0.238284 0.177955 139 124 101
0.851354 -0.329404 -0.123776 153 140 131
0.858543 -0.363390 -0.121173 152 139 131
0.848835 -0.383664 -0.122067 153 139 132
0.866300 -0.360161 -0.117730 154 140 131
0.864000 -0.388643 -0.116898 151 139 130
0.816789 -0.511697 0.351476 97 82 59
0.818021 -0.511238 0.376357 98 83 61
0.802538 -0.512097 0.367077 97 83 57
0.897497 -0.417345 0.308025 114 97 74
0.898284 -0.398676 0.323343 114 97 76
0.897583 -0.412457 0.343955 110 93 75
0.897046 -0.437261 0.318145 109 92 74
0.897494 -0.431105 0.251812 116 100 78
0.897504 -0.450569 0.251580 117 102 79
0.905090 -0.256064 0.095455 141 126 102
0.745961 -0.579033 0.341824 106 90 70
0.745098 -0.577504 0.332754 107 92 70
0.744517 -0.573175 0.347480 103 89 64
0.744797 -0.582753 0.348645 104 88 66
0.701703 -0.485086 -0.040545 141 126 111
0.702298 -0.493898 -0.028082 133 116 95
0.715903 -0.487072 -0.034385 133 120 103
0.787471 -0.511597 0.279013 114 100 73
0.899490 -0.356886 -0.006732 137 121 99
0.900865 -0.352147 0.000512 137 122 100
0.772843 -0.566999 0.329174 106 92 72
0.768937 -0.569412 0.302524 113 93 76
0.781408 -0.573363 0.302717 112 95 69
0.772528 -0.566525 0.313450 109 94 70
0.759292 -0.570277 0.310412 106 92 72
0.782135 -0.565115 0.318782 108 92 69
0.900936 -0.349342 0.272056 126 111 89
0.895897 -0.243790 -0.018550 142 126 103
0.903635 -0.246912 -0.003330 143 128 104
0.901990 -0.243184 -0.010422 143 127 106
0.900468 -0.210026 0.311917 144 126 103
0.900771 -0.221987 0.313678 143 126 102
0.885795 -0.196441 -0.028518 153 138 119
0.880971 -0.222273 -0.030660 149 134 117
0.681103 -0.514226 0.092455 129 116 91
0.873294 -0.391737 -0.060545 146 136 124
0.873057 -0.369584 -0.050755 147 137 125
0.899928 -0.343768 0.336115 117 104 83
0.900256 -0.314972 0.341283 122 106 87
0.899164 -0.348760 0.378955 118 102 81
0.899424 -0.336868 0.354455 114 102 78
0.895646 -0.351192 -0.016620 136 121 97
0.894975 -0.373256 -0.015087 133 117 94
0.691992 -0.481849 -0.104750 149 137 127
0.674707 -0.482374 -0.106298 147 135 128
0.837080 -0.154843 -0.129749 166 153 144
0.843153 -0.181225 -0.129097 162 149 138
0.904229 -0.270585 -0.003796 141 125 105
0.902870 -0.299353 -0.002876 140 125 104
0.901368 -0.275300 -0.011583 142 126 103
0.896575 -0.271626 -0.018137 141 127 100
0.639825 -0.515628 0.120353 130 113 92
0.644824 -0.515113 0.107139 129 116 91
0.674253 -0.515227 0.109455 129 116 92
0.868106 -0.326168 -0.116524 155 142 131
0.860193 -0.322450 -0.121366 155 142 129
0.864371 -0.296931 -0.120701 153 141 129
0.775258 -0.581476 0.262041 115 99 77
0.776959 -0.590266 0.248331 117 102 80
0.774256 -0.615641 0.233235 116 104 79
0.906146 -0.195711 0.020830 144 128 106
0.905486 -0.216279 -0.003361 145 128 110
0.901420 -0.204266 -0.015609 146 127 110
0.681446 -0.514980 0.318840 109 95 72
0.870497 -0.509045 0.239324 111 97 71
0.881935 -0.503430 0.247584 107 92 72
0.729623 -0.121207 -0.133240 163 149 140
0.896637 -0.433598 0.341039 103 91 67
0.889701 -0.462354 -0.014040 127 112 88
0.757876 -0.512747 0.264520 116 102 80
0.771848 -0.510783 0.251717 116 101 79
0.760609 -0.511488 0.240407 116 102 80
0.794133 -0.510911 0.250648 115 101 77
0.769010 -0.511218 0.379876 97 83 56
0.902199 -0.299972 0.139455 138 123 103
0.899858 -0.375210 0.363338 109 95 76
0.897772 -0.450798 0.364721 100 85 68
0.897112 -0.439306 0.375259 99 84 62
0.731383 -0.383145 -0.127796 155 142 132
0.678588 -0.511127 0.391455 98 83 63
0.700279 -0.512656 0.366679 102 87 65
0.659432 -0.510295 0.379507 98 84 63
0.837561 -0.509810 0.110315 127 110 87
0.845827 -0.510773 0.122639 123 108 86
0.827831 -0.510705 0.129455 124 110 88
0.901474 -0.316969 0.119955 135 119 97
0.901255 -0.300274 0.117268 137 122 103
0.902012 -0.315004 0.136955 134 119 98
0.739433 -0.513350 0.300528 111 95 71
0.736857 -0.514240 0.315946 109 94 70
0.757983 -0.512792 0.312917 110 93 70
0.837093 -0.202692 -0.128164 163 151 139
0.818066 -0.217367 -0.128980 163 151 139
0.897291 -0.249585 0.376918 130 113 89
0.801434 -0.243894 -0.128165 156 145 135
0.829415 -0.259575 -0.127113 157 144 133
0.667671 -0.513234 0.347822 106 90 67
0.677043 -0.513089 0.362038 104 89 67
0.678951 -0.514296 0.333075 107 92 66
0.875616 -0.257756 -0.066545 154 142 131
0.901121 -0.128685 0.392019 161 142 120
0.898449 -0.171282 0.401455 155 139 116
0.901380 -0.144343 0.357579 153 137 113
0.840017 -0.510237 0.150440 123 107 87
0.864298 -0.160657 -0.125444 161 149 140
0.861191 -0.208507 -0.124181 158 145 136
0.868497 -0.196160 -0.121058 160 147 139
0.871256 -0.174402 -0.120920 159 148 138
0.850815 -0.152925 -0.128565 161 148 139
0.856339 -0.184527 -0.126897 160 147 137
0.816427 -0.641894 0.373731 85 72 54
0.809956 -0.652498 0.373669 73 62 47
0.845418 -0.265749 -0.126112 159 146 137
0.837573 -0.234989 -0.127564 159 148 134
0.906402 -0.171907 0.032205 143 126 104
0.823811 -0.479919 -0.037144 140 124 112
0.896562 -0.465252 0.094220 123 110 87
0.808815 -0.583082 0.309387 101 87 66
0.815796 -0.584166 0.305001 100 86 63
0.813725 -0.601876 0.301186 94 81 61
0.789944 -0.590164 0.330427 106 89 67
0.796806 -0.606899 0.324538 105 89 65
0.799835 -0.588670 0.320177 101 89 66
0.800211 -0.596346 0.331243 101 88 64
0.802783 -0.601791 0.326133 100 88 64
0.787639 -0.602061 0.300270 111 93 71
0.791845 -0.585660 0.297790 107 91 68
0.812302 -0.598542 0.319853 99 85 63
0.804967 -0.608014 0.318387 99 85 64
0.785055 -0.599757 0.311525 108 92 71
0.792264 -0.584691 0.324273 104 91 66
0.791219 -0.599974 0.319813 107 91 69
0.785341 -0.596573 0.305275 107 91 75
0.797258 -0.600768 0.305653 107 92 68
0.796619 -0.602791 0.317998 105 92 64
0.792039 -0.584527 0.308508 108 93 67
0.788483 -0.595610 0.315533 109 91 70
0.791894 -0.593371 0.323317 107 91 71
0.808701 -0.580207 0.322472 103 89 66
0.795816 -0.596429 0.322339 103 88 65
0.792920 -0.592539 0.312905 106 90 71
0.791378 -0.605854 0.311758 107 92 66
0.801863 -0.577736 0.311153 102 88 68
0.816053 -0.608811 0.313415 101 86 66
0.897310 -0.273006 0.379455 85 73 59
0.898142 -0.299653 0.375455 66 55 41
0.840390 -0.293988 -0.126212 154 144 133
0.796913 -0.282220 -0.127010 157 145 136
0.899766 -0.364885 0.164551 129 115 93
0.899680 -0.385602 0.167080 127 113 92
0.805912 -0.511082 0.283820 111 97 75
0.824665 -0.509510 0.266546 111 97 74
0.817374 -0.511398 0.285324 110 97 72
0.810804 -0.510382 0.299955 109 95 75
0.772046 -0.510685 0.293318 111 95 73
0.898839 -0.434165 0.004110 131 115 94
0.897766 -0.441810 -0.001075 130 115 93
0.650040 -0.516265 0.001999 134 118 97
0.638023 -0.508914 -0.018374 132 117 95
0.897174 -0.333682 0.411455 61 51 41
0.900245 -0.236075 0.265815 139 121 102
0.899830 -0.233582 0.279955 138 123 101
0.899816 -0.247424 0.298477 135 119 99
0.902019 -0.265058 0.300569 135 119 97
0.642903 -0.482435 -0.105818 150 136 126
0.651317 -0.484666 -0.083426 148 136 127
0.663854 -0.480411 -0.115521 149 137 127
0.893248 -0.486352 0.150908 115 104 78
0.897947 -0.464182 0.342056 101 86 66
0.899625 -0.473673 0.354183 100 84 66
0.897342 -0.485035 0.342966 100 85 66
0.897451 -0.446576 0.332356 103 89 63
0.893035 -0.435369 -0.012878 127 113 88
0.794820 -0.421923 -0.123192 152 142 131
0.787327 -0.442263 -0.121590 153 141 129
0.892076 -0.489681 0.068955 124 110 86
0.872731 -0.376468 -0.081066 149 137 125
0.869745 -0.389893 -0.110420 151 138 126
0.868862 -0.410796 -0.111369 150 137 127
0.871647 -0.414921 -0.101911 151 137 128
0.719184 -0.332497 -0.128790 155 141 132
0.888895 -0.477192 -0.011841 127 112 90
0.895915 -0.472161 -0.004397 130 114 92
0.900230 -0.186794 0.338825 148 131 110
0.902159 -0.314031 0.209118 133 118 94
0.901512 -0.322332 0.182585 133 118 94
0.743896 -0.515590 0.264295 114 98 75
0.742560 -0.514156 0.288301 114 97 76
0.901059 -0.159951 0.335955 152 135 112
0.901858 -0.143463 0.334455 154 136 115
0.782509 -0.478682 -0.048913 146 135 124
0.832204 -0.510901 0.059018 130 115 92
0.769958 -0.588756 0.370771 99 83 63
0.777212 -0.574299 0.369368 99 82 66
0.784546 -0.598095 0.371977 97 82 63
0.781700 -0.607019 0.373338 96 81 63
0.750002 -0.578165 0.371908 101 85 66
0.779707 -0.596738 0.365671 98 83 63
0.757903 -0.579007 0.376484 97 81 63
0.768016 -0.576961 0.371307 99 83 62
0.878486 -0.207645 -0.035288 150 137 120
0.878171 -0.177133 -0.038510 147 133 119
0.900226 -0.176101 0.355380 152 135 113
0.898502 -0.180380 0.375853 153 136 113
0.864645 -0.465110 -0.075596 149 136 127
0.860120 -0.471100 -0.052927 146 133 121
0.900677 -0.332129 0.212691 127 113 88
0.842026 -0.511694 -0.005331 132 116 89
0.826090 -0.510373 -0.005521 131 117 94
0.844865 -0.485135 -0.027170 132 116 91
0.840622 -0.505486 -0.013499 132 117 91
0.854966 -0.508575 -0.010095 130 116 91
0.875613 -0.203088 -0.061545 156 142 132
0.770107 -0.573806 0.228984 119 106 79
0.766070 -0.570676 0.226815 119 106 80
0.651176 -0.513910 0.346406 106 92 72
0.654855 -0.512218 0.361863 104 88 70
0.819602 -0.510514 0.392857 90 76 60
0.902188 -0.291649 0.045317 140 125 105
0.874480 -0.225568 -0.084920 158 144 135
0.874197 -0.220820 -0.106675 158 145 136
0.905849 -0.188376 0.147697 143 126 104
0.906555 -0.178189 0.064955 143 128 105
0.906890 -0.193493 0.084007 143 127 106
0.768730 -0.120990 -0.131958 161 150 140
0.901377 -0.302857 0.095498 137 123 101
0.693030 -0.515373 0.284427 112 98 77
0.675570 -0.515604 0.281307 114 97 77
0.676155 -0.515183 0.293716 114 97 78
0.681777 -0.513808 0.303914 113 96 78
0.904542 -0.244485 0.108205 139 125 104
0.904376 -0.257011 0.125580 139 123 102
0.903194 -0.273719 0.123455 137 123 102
0.723363 -0.515758 0.247705 117 102 81
0.781872 -0.601296 0.291688 111 95 73
0.766774 -0.593472 0.300586 112 96 75
0.777477 -0.571541 0.278599 112 96 77
0.780869 -0.590859 0.276316 113 97 78
0.778405 -0.590663 0.293750 112 94 74
0.775252 -0.593698 0.291638 111 95 74
0.784359 -0.581525 0.272035 113 97 76
0.784116 -0.510937 0.232925 119 103 79
0.680710 -0.516175 0.156757 124 110 89
0.699053 -0.515564 0.161768 127 112 91
0.682771 -0.515192 0.138199 128 113 86
0.779851 -0.363164 -0.125805 156 143 133
0.770286 -0.373600 -0.125957 157 144 133
0.727824 -0.511054 0.019433 134 120 109
0.736019 -0.506415 0.041291 132 120 108
0.743673 -0.506937 0.024816 133 119 108
0.847671 -0.511276 0.366954 93 80 54
0.874335 -0.509312 0.363756 88 76 52
0.854651 -0.512050 0.388075 89 74 54
0.767432 -0.574108 0.360878 100 87 63
0.782485 -0.568235 0.352512 104 89 68
0.758202 -0.570994 0.335736 105 91 68
0.779626 -0.570371 0.360215 100 86 66
0.764419 -0.568775 0.351328 104 87 67
0.755969 -0.571620 0.347632 103 90 68
0.700897 -0.513231 0.066316 130 117 95
0.716834 -0.511207 0.072259 130 116 98
0.721686 -0.509523 0.043294 129 117 105
0.665823 -0.221215 -0.133027 160 147 138
0.656894 -0.484177 -0.043047 140 127 113
0.650041 -0.490309 -0.032195 131 117 94
0.677107 -0.496192 -0.027213 131 115 97
0.897972 -0.413616 0.234080 119 104 82
0.873336 -0.389526 -0.045364 142 127 113
0.874458 -0.413023 -0.034735 130 115 98
0.757164 -0.510253 0.001720 129 116 99
0.871754 -0.370018 -0.102841 151 139 127
0.774287 -0.236816 -0.128799 159 146 135
0.898647 -0.424076 0.167455 122 108 86
0.897571 -0.428439 0.195893 122 107 85
0.897133 -0.440097 0.215802 118 106 81
0.859952 -0.512854 0.400092 84 71 54
0.810473 -0.513095 0.202614 120 104 81
0.821914 -0.511582 0.241639 116 101 81
0.796162 -0.512116 0.212419 119 102 82
0.809715 -0.511473 0.225705 118 103 78
0.673097 -0.517453 0.525875 88 75 55
0.655989 -0.517831 0.531356 88 75 56
0.679783 -0.515457 0.552921 96 83 65
0.630477 -0.519003 0.538145 89 76 58
0.658126 -0.517003 0.520093 87 75 54
0.650122 -0.516175 0.557576 104 92 75
0.895953 -0.291057 0.429708 63 58 52
0.716949 -0.167096 0.643205 194 176 165
0.752697 -0.165338 0.640955 195 174 163
0.780482 -0.509453 0.423889 90 75 57
0.897595 -0.204119 0.420034 137 121 99
0.895539 -0.283082 0.447595 88 81 73
0.827304 -0.508059 0.452223 82 73 48
0.674036 -0.169679 0.634390 160 144 134
0.670831 -0.169038 0.620693 163 147 136
0.736052 -0.511142 0.560544 84 71 48
0.899381 -0.150290 0.430455 161 144 124
0.898168 -0.164550 0.447225 161 144 120
0.683455 -0.168894 0.648330 173 156 143
0.697043 -0.169274 0.631018 181 166 151
0.707300 -0.514525 0.487678 90 75 58
0.674577 -0.511119 0.431455 92 80 60
0.672741 -0.511088 0.448129 95 81 59
0.702412 -0.511496 0.430906 93 80 60
0.704274 -0.512830 0.461805 91 80 60
0.895909 -0.258280 0.450381 103 89 67
0.734787 -0.510804 0.539455 86 73 50
0.704566 -0.515055 0.527474 87 73 52
0.701913 -0.514303 0.544660 91 76 59
0.621512 -0.510459 0.571512 99 85 68
0.731752 -0.169179 0.568584 189 170 157
0.728945 -0.176121 0.563352 178 162 150
0.766777 -0.199803 0.564063 103 88 71
0.775240 -0.190666 0.563909 173 157 143
0.771486 -0.218005 0.570632 108 94 79
0.743221 -0.211363 0.566641 116 102 86
0.763590 -0.209570 0.567771 116 102 86
0.721308 -0.508460 0.569742 91 81 61
0.703474 -0.513474 0.559048 82 73 53
0.703210 -0.506586 0.574655 91 81 65
0.715737 -0.508415 0.576431 91 81 62
0.692371 -0.503285 0.582824 88 80 61
0.807051 -0.511218 0.424799 85 77 50
0.808172 -0.508434 0.458622 86 73 52
0.807390 -0.511314 0.444594 87 74 55
0.824419 -0.511162 0.436498 87 72 57
0.729019 -0.214885 0.567506 105 91 78
0.728585 -0.188530 0.560871 167 150 137
0.738170 -0.201213 0.562698 98 85 69
0.811067 -0.505140 0.492917 80 68 48
0.801149 -0.504700 0.515504 83 69 47
0.796713 -0.508721 0.479610 85 71 50
0.744361 -0.167000 0.606080 189 171 162
0.709243 -0.167937 0.622455 194 174 162
0.654306 -0.514511 0.457664 92 81 53
0.767260 -0.508857 0.562272 81 69 47
0.760219 -0.505140 0.572663 89 78 60
0.753760 -0.505676 0.579653 92 80 63
0.735983 -0.510345 0.515072 89 74 54
0.739876 -0.504922 0.572045 86 73 53
0.750309 -0.500483 0.588320 96 85 65
0.733865 -0.505653 0.576202 93 81 63
0.897727 -0.208339 0.438455 132 116 91
0.641586 -0.513826 0.453259 94 79 59
0.648784 -0.512068 0.434225 94 81 56
0.801270 -0.172578 0.571665 188 171 158
0.774107 -0.167437 0.577382 189 171 158
0.753909 -0.182262 0.562675 181 165 151
0.750824 -0.171734 0.567428 187 170 158
0.753796 -0.169233 0.571008 189 171 158
0.774110 -0.164104 0.635455 193 176 161
0.729749 -0.510460 0.445430 88 79 56
0.753535 -0.511122 0.434161 90 78 54
0.750551 -0.510749 0.463014 91 76 57
0.671154 -0.218860 0.566488 105 94 78
0.655774 -0.217628 0.563211 135 127 113
0.896124 -0.248963 0.431705 126 108 85
0.735776 -0.166059 0.665768 195 176 165
0.766454 -0.510510 0.467094 89 76 57
0.711363 -0.501680 0.590263 73 66 48
0.721255 -0.499178 0.588325 85 77 58
0.671283 -0.511637 0.585394 95 83 67
0.683838 -0.516231 0.591679 95 81 67
0.697614 -0.503621 0.590933 73 65 49
0.666313 -0.513011 0.465778 93 78 58
0.686176 -0.514086 0.468437 90 78 55
0.660789 -0.166931 0.640330 156 140 129
0.697502 -0.176956 0.562609 163 148 135
0.689010 -0.215939 0.565378 101 87 73
0.718483 -0.199646 0.562116 143 129 115
0.706493 -0.212950 0.563078 108 96 79
0.659996 -0.175253 0.563420 155 140 126
0.687597 -0.208835 0.561578 116 102 85
0.647365 -0.180010 0.559694 157 142 129
0.676077 -0.182649 0.559243 151 137 123
0.672548 -0.202205 0.558410 100 87 69
0.692842 -0.193178 0.558962 131 117 103
0.658270 -0.193636 0.557065 101 88 70
0.718718 -0.513300 0.506222 88 76 51
0.897986 -0.176261 0.431455 157 139 115
0.897751 -0.190160 0.452455 149 131 108
0.897141 -0.332457 0.429487 48 41 33
0.759746 -0.166581 0.593205 191 173 161
0.765022 -0.165546 0.619611 191 173 160
0.776959 -0.166138 0.589455 190 173 159
0.741434 -0.511156 0.528131 86 72 50
0.719731 -0.166802 0.661455 196 178 168
0.673438 -0.168709 0.665955 197 178 167
0.654744 -0.167865 0.605932 154 139 127
0.719427 -0.169408 0.594811 174 158 144
0.655344 -0.513843 0.472349 91 77 57
0.630429 -0.514070 0.478830 89 77 59
0.661056 -0.515155 0.509866 88 76 57
0.692245 -0.166528 0.702455 197 179 168
0.675523 -0.167712 0.707455 196 179 166
0.660732 -0.168127 0.691745 195 180 167
0.676085 -0.166948 0.721455 197 180 171
0.754914 -0.509975 0.539455 81 69 48
0.781686 -0.507558 0.535580 85 71 50
0.759057 -0.508410 0.519154 84 70 51
0.707610 -0.169677 0.571458 177 161 145
0.725577 -0.168987 0.581455 186 171 154
0.712287 -0.165791 0.698955 197 179 169
0.696674 -0.171127 0.567501 165 149 138
0.690108 -0.170384 0.583080 166 150 139
0.681653 -0.174499 0.563174 162 147 134
0.668525 -0.172576 0.569346 160 144 133
0.675005 -0.514777 0.511065 90 76 60
0.705915 -0.513347 0.518063 89 77 55
0.691130 -0.514273 0.484705 88 76 56
0.645791 -0.508043 0.587511 93 81 67
0.631331 -0.517963 0.557298 111 96 80
0.666358 -0.506202 0.570679 89 77 60
0.646043 -0.511048 0.578939 98 84 67
0.647957 -0.507908 0.570210 91 79 63
0.775369 -0.164417 0.600148 192 172 162
0.810805 -0.508012 0.466200 86 72 53
0.731394 -0.512491 0.471455 90 76 58
0.758157 -0.510853 0.495025 88 76 56
0.760851 -0.511095 0.480127 90 77 53
0.705998 -0.499440 0.583899 96 83 67
0.681335 -0.507370 0.577130 96 83 64
0.685054 -0.508205 0.568553 89 78 60
0.675624 -0.513655 0.560414 101 90 73
0.660196 -0.515139 0.551221 99 86 67
0.683249 -0.508736 0.585623 99 85 70
0.818359 -0.182697 0.568646 187 169 157
0.809508 -0.169788 0.575527 189 171 156
0.807856 -0.166510 0.582207 188 172 159
0.784159 -0.177929 0.566836 185 167 153
0.800423 -0.190844 0.565980 182 164 149
0.667027 -0.169280 0.604279 161 145 133
0.694466 -0.169182 0.607455 163 148 135
0.819587 -0.209786 0.570522 107 92 73
0.821664 -0.202022 0.567357 114 99 81
0.813876 -0.213861 0.574330 124 109 93
0.764376 -0.511575 0.454698 92 75 54
0.733163 -0.499740 0.583808 84 75 57
0.770210 -0.509659 0.439590 88 77 51
0.784882 -0.510800 0.451422 88 77 51
0.795933 -0.199879 0.566683 146 130 112
0.789369 -0.211905 0.573348 119 105 89
0.791351 -0.505832 0.511455 84 70 49
0.778646 -0.508774 0.484623 84 71 51
0.689645 -0.166714 0.684455 195 179 165
0.612558 -0.179078 -0.032368 0 0 255
0.557903 -0.300213 -0.130758 0 0 255
0.503607 -0.138461 -0.125348 0 0 255
0.500632 -0.240047 -0.032758 0 0 255
0.655225 -0.298097 -0.032758 0 0 255
0.662916 -0.227368 -0.129688 0 0 255
0.557673 -0.322113 -0.032758 0 0 255
0.510967 -0.141783 -0.026758 0 0 255
0.571083 -0.206425 -0.117653 0 0 255
0.683109 -0.218750 -0.034758 0 0 255
0.581384 -0.249108 -0.043278 0 0 255
0.563672 -0.146941 -0.076758 0 0 255
0.624995 -0.284971 -0.125337 0 0 255
0.519798 -0.245764 -0.128758 0 0 255
0.623344 -0.170832 -0.130758 0 0 255
0.547290 -0.195204 -0.033302 0 0 255
0.561133 -0.142987 -0.134758 0 0 255
0.603401 -0.245200 -0.093618 0 0 255
0.631013 -0.232520 -0.038758 0 0 255
0.516079 -0.290255 -0.034758 0 0 255
0.602899 -0.296188 -0.034758 0 0 255
0.573186 -0.146556 -0.026758 0 0 255
0.513375 -0.147735 -0.076758 0 0 255
0.565689 -0.252803 -0.121722 0 0 255
0.660908 -0.177812 -0.032758 0 0 255
0.618810 -0.214305 -0.121297 0 0 255
0.677789 -0.261664 -0.032758 0 0 255
0.529993 -0.202597 -0.128758 0 0 255
0.539837 -0.255574 -0.037350 0 0 255
0.586424 -0.210969 -0.029996 0 0 255
0.541504 -0.158400 -0.046758 0 0 255
