ply
format ascii 1.0
element vertex 1219
property float x
property float y
property float z
property uchar red
property uchar green
property uchar blue
end_header
-0.293047 -0.128689 0.125095 255 125 0
-0.247719 -0.077886 0.125095 255 125 0
-0.303108 -0.155103 0.089095 255 125 0
-0.349892 -0.039995 0.203095 255 125 0
-0.414664 -0.034730 -0.018905 255 125 0
-0.285896 -0.076155 0.128102 255 125 0
-0.393736 -0.088762 0.075095 255 125 0
-0.373523 -0.019399 0.126090 255 125 0
-0.227210 -0.085595 -0.018905 255 125 0
-0.404613 -0.121487 -0.000905 255 125 0
-0.292703 -0.144698 0.073095 255 125 0
-0.229626 -0.094754 -0.034905 255 125 0
-0.331286 -0.054768 0.175095 255 125 0
-0.223183 -0.068312 -0.000905 255 125 0
-0.415726 -0.090106 0.081095 255 125 0
-0.350256 -0.092113 0.135095 255 125 0
-0.355085 -0.038308 0.163095 255 125 0
-0.410119 -0.093771 -0.034905 255 125 0
-0.315418 -0.069946 0.245095 255 125 0
-0.391605 -0.094642 0.097095 255 125 0
-0.227979 -0.105796 0.049095 255 125 0
-0.218049 -0.070001 0.053095 255 125 0
-0.329475 -0.064794 0.197095 255 125 0
-0.229800 -0.043243 0.081095 255 125 0
-0.357068 0.006393 0.089095 255 125 0
-0.383262 -0.024001 0.175753 255 125 0
-0.389857 -0.064480 0.063095 255 125 0
-0.389577 0.013731 0.041095 255 125 0
-0.324339 -0.070072 0.227095 255 125 0
-0.422024 -0.078211 0.025095 255 125 0
-0.337549 0.014861 0.120117 255 125 0
-0.358637 -0.131758 0.081095 255 125 0
-0.250738 -0.094041 0.124758 255 125 0
-0.269114 -0.121215 0.104235 255 125 0
-0.423477 -0.054458 0.031095 255 125 0
-0.344247 -0.137711 0.067095 255 125 0
-0.297827 -0.044875 0.181095 255 125 0
-0.387272 -0.022243 0.077095 255 125 0
-0.354518 -0.133592 0.075095 255 125 0
-0.376709 -0.017590 0.065095 255 125 0
-0.363095 -0.157019 0.003095 255 125 0
-0.309891 -0.011439 0.171095 255 125 0
-0.380782 0.016226 -0.004905 255 125 0
-0.393328 -0.088737 0.060259 255 125 0
-0.304338 -0.102224 0.157095 255 125 0
-0.247387 -0.050556 0.111095 255 125 0
-0.258680 -0.062468 0.123579 255 125 0
-0.221554 -0.090254 -0.010905 255 125 0
-0.409719 -0.115593 0.041095 255 125 0
-0.397634 -0.054936 0.103095 255 125 0
-0.396521 -0.003770 -0.030905 255 125 0
-0.361144 -0.090776 0.120260 255 125 0
-0.270957 -0.123838 0.123095 255 125 0
-0.316076 -0.139648 0.103095 255 125 0
-0.230043 -0.104798 -0.037619 255 125 0
-0.226423 -0.102574 0.041095 255 125 0
-0.346779 -0.129070 0.159095 255 125 0
-0.392549 -0.035938 0.115095 255 125 0
-0.396299 -0.046840 0.083095 255 125 0
-0.383707 0.016046 0.064585 255 125 0
-0.396914 -0.068918 0.105095 255 125 0
-0.365305 -0.022743 0.125095 255 125 0
-0.371219 -0.122622 0.097095 255 125 0
-0.248498 -0.097912 0.064892 255 125 0
-0.370727 0.016840 0.059095 255 125 0
-0.297709 -0.046821 0.234009 255 125 0
-0.392266 -0.040582 0.060359 255 125 0
-0.226149 -0.102943 0.005095 255 125 0
-0.276459 -0.127675 0.099095 255 125 0
-0.332506 -0.133106 0.060196 255 125 0
-0.298929 -0.026858 0.170140 255 125 0
-0.288719 -0.161045 -0.014905 255 125 0
-0.293406 -0.051642 0.197095 255 125 0
-0.219669 -0.077839 -0.010905 255 125 0
-0.267497 -0.082126 0.153095 255 125 0
-0.396991 -0.028848 0.064770 255 125 0
-0.368796 -0.033136 0.125095 255 125 0
-0.290106 -0.002275 0.157095 255 125 0
-0.237022 -0.121738 -0.016905 255 125 0
-0.268852 -0.059976 0.125095 255 125 0
-0.286299 -0.020074 0.121095 255 125 0
-0.361056 -0.157732 -0.018905 255 125 0
-0.322309 -0.070497 0.175095 255 125 0
-0.218015 -0.067995 0.027095 255 125 0
-0.318063 -0.139905 0.067095 255 125 0
-0.259392 -0.083593 0.161095 255 125 0
-0.402327 -0.007134 0.064552 255 125 0
-0.318081 -0.058086 0.211095 255 125 0
-0.271232 -0.119340 0.060287 255 125 0
-0.343821 -0.025596 0.167095 255 125 0
-0.292963 0.006629 0.121095 255 125 0
-0.334252 -0.047052 0.215095 255 125 0
-0.312506 -0.165262 -0.014905 255 125 0
-0.257704 -0.078438 0.120143 255 125 0
-0.292833 0.004502 0.147095 255 125 0
-0.292629 -0.162628 0.021095 255 125 0
-0.283040 -0.083995 0.167095 255 125 0
-0.298285 -0.135673 0.073095 255 125 0
-0.234847 -0.059006 0.058098 255 125 0
-0.327134 -0.057143 0.253095 255 125 0
-0.399021 0.004337 -0.030905 255 125 0
-0.248500 -0.089897 0.073095 255 125 0
-0.408488 -0.117716 -0.018905 255 125 0
-0.312636 -0.059757 0.215095 255 125 0
-0.220284 -0.044089 -0.024905 255 125 0
-0.370960 -0.061320 0.124022 255 125 0
-0.258080 -0.092487 0.133095 255 125 0
-0.324013 -0.092512 0.191095 255 125 0
-0.221831 -0.044184 -0.012905 255 125 0
-0.244734 -0.059611 0.087095 255 125 0
-0.422746 -0.072502 0.047095 255 125 0
-0.308630 -0.097583 0.175048 255 125 0
-0.260081 -0.137846 0.021095 255 125 0
-0.244381 -0.041555 0.109095 255 125 0
-0.383102 -0.110152 0.109095 255 125 0
-0.394378 -0.122865 0.047095 255 125 0
-0.265566 -0.080923 0.168443 255 125 0
-0.405574 -0.103512 -0.030905 255 125 0
-0.223187 -0.066308 0.015095 255 125 0
-0.336681 -0.130371 0.077095 255 125 0
-0.250589 -0.129229 -0.032905 255 125 0
-0.350588 -0.034025 0.173950 255 125 0
-0.359531 -0.149907 0.027095 255 125 0
-0.362864 0.002891 0.117095 255 125 0
-0.254629 -0.088269 0.167095 255 125 0
-0.423793 -0.066556 0.025095 255 125 0
-0.314008 -0.107930 0.120191 255 125 0
-0.389984 -0.098551 0.069095 255 125 0
-0.328536 -0.165247 0.051095 255 125 0
-0.419946 -0.036264 0.035095 255 125 0
-0.237375 -0.083206 0.064955 255 125 0
-0.311052 0.008468 0.125095 255 125 0
-0.247967 -0.073835 0.060237 255 125 0
-0.350781 -0.161913 0.035095 255 125 0
-0.217603 -0.065966 0.063095 255 125 0
-0.416437 -0.058090 -0.010905 255 125 0
-0.388954 -0.127501 0.059095 255 125 0
-0.266646 -0.096032 0.131095 255 125 0
-0.420922 -0.084413 -0.008905 255 125 0
-0.332556 -0.165058 0.021095 255 125 0
-0.413702 -0.021856 0.063095 255 125 0
-0.404939 -0.095458 0.101702 255 125 0
-0.419938 -0.092368 0.019095 255 125 0
-0.304328 -0.102390 0.169095 255 125 0
-0.321585 -0.082345 0.175227 255 125 0
-0.379409 -0.021460 0.155095 255 125 0
-0.336127 -0.139425 0.101095 255 125 0
-0.243162 -0.119627 0.064347 255 125 0
-0.336187 -0.040167 0.201095 255 125 0
-0.347212 -0.121983 0.174608 255 125 0
-0.218935 -0.052022 0.051095 255 125 0
-0.352809 -0.048188 0.139095 255 125 0
-0.397468 -0.004833 0.029095 255 125 0
-0.398875 -0.129151 0.039095 255 125 0
-0.352437 -0.152359 -0.026905 255 125 0
-0.303660 -0.113309 0.124125 255 125 0
-0.328055 -0.140358 0.117095 255 125 0
-0.297517 -0.000723 0.137095 255 125 0
-0.244856 -0.124686 -0.038905 255 125 0
-0.239591 -0.046959 0.089095 255 125 0
-0.298521 -0.164591 0.007095 255 125 0
-0.244889 -0.058631 0.059095 255 125 0
-0.389873 -0.064480 0.071095 255 125 0
-0.362970 -0.060831 0.151095 255 125 0
-0.402454 -0.103321 0.064424 255 125 0
-0.289156 -0.088377 0.174688 255 125 0
-0.220435 -0.076158 0.059095 255 125 0
-0.350774 -0.030030 0.167095 255 125 0
-0.369337 0.024940 0.009095 255 125 0
-0.401600 -0.117295 0.064547 255 125 0
-0.396964 -0.088958 0.113095 255 125 0
-0.341541 0.014617 0.064466 255 125 0
-0.284395 -0.086081 0.145095 255 125 0
-0.252045 -0.138204 0.063877 255 125 0
-0.325285 -0.054587 0.271095 255 125 0
-0.377408 -0.021422 0.181095 255 125 0
-0.296164 -0.104835 0.124269 255 125 0
-0.233749 -0.076972 0.064404 255 125 0
-0.371333 -0.153515 0.050604 255 125 0
-0.371311 -0.009244 0.061095 255 125 0
-0.232379 -0.033847 0.097095 255 125 0
-0.314405 -0.055858 0.267095 255 125 0
-0.344274 -0.137267 0.121095 255 125 0
-0.238908 -0.123665 0.001095 255 125 0
-0.324518 -0.165425 -0.008905 255 125 0
-0.301071 -0.090120 0.161095 255 125 0
-0.391820 -0.080630 0.125159 255 125 0
-0.254674 -0.095220 0.145095 255 125 0
-0.357114 -0.156652 0.064426 255 125 0
-0.332584 -0.164595 0.009095 255 125 0
-0.332600 -0.164331 0.043095 255 125 0
-0.386882 -0.106377 0.073095 255 125 0
-0.299038 -0.156132 -0.028905 255 125 0
-0.290067 -0.056373 0.187095 255 125 0
-0.371656 -0.115463 0.123869 255 125 0
-0.420867 -0.064372 0.064014 255 125 0
-0.312239 -0.104091 0.149095 255 125 0
-0.420572 -0.088399 0.031095 255 125 0
-0.397710 -0.070971 0.071095 255 125 0
-0.231185 -0.114887 -0.028905 255 125 0
-0.314212 -0.104604 0.127095 255 125 0
-0.323320 -0.053967 0.193095 255 125 0
-0.362566 -0.034758 0.120215 255 125 0
-0.293931 -0.062621 0.175095 255 125 0
-0.328830 0.003372 0.124724 255 125 0
-0.383268 -0.122185 0.064362 255 125 0
-0.338096 -0.091370 0.127095 255 125 0
-0.348807 -0.080002 0.121095 255 125 0
-0.305860 -0.093406 0.127095 255 125 0
-0.312454 -0.057742 0.249095 255 125 0
-0.270738 -0.029142 0.124787 255 125 0
-0.356773 -0.042419 0.137095 255 125 0
-0.338932 -0.119473 0.135095 255 125 0
-0.358041 -0.044500 0.125095 255 125 0
-0.345014 -0.157917 0.064015 255 125 0
-0.365644 -0.148247 -0.014905 255 125 0
-0.322462 -0.088410 0.203095 255 125 0
-0.355995 -0.122521 0.157095 255 125 0
-0.382614 -0.100104 0.124272 255 125 0
-0.398123 -0.058974 0.089095 255 125 0
-0.258400 -0.132581 0.064915 255 125 0
-0.362895 0.003386 0.071095 255 125 0
-0.313197 -0.153967 0.064246 255 125 0
-0.328673 -0.097487 0.199095 255 125 0
-0.388517 -0.036346 0.125042 255 125 0
-0.387262 -0.089636 0.103095 255 125 0
-0.413656 -0.083969 0.113610 255 125 0
-0.266630 -0.129077 0.064879 255 125 0
-0.395483 -0.020742 0.064528 255 125 0
-0.305998 -0.055343 0.209095 255 125 0
-0.230795 -0.112859 0.007095 255 125 0
-0.407721 -0.101639 -0.010905 255 125 0
-0.222922 -0.070299 0.005095 255 125 0
-0.296554 -0.163983 -0.006905 255 125 0
-0.287892 -0.076277 0.174277 255 125 0
-0.400993 -0.111247 -0.024905 255 125 0
-0.339684 -0.048499 0.183095 255 125 0
-0.385830 -0.034177 0.107095 255 125 0
-0.322991 -0.157622 -0.006905 255 125 0
-0.320851 -0.094323 0.170126 255 125 0
-0.248762 -0.043828 0.071095 255 125 0
-0.293172 -0.153763 -0.020905 255 125 0
-0.341877 -0.143698 0.064319 255 125 0
-0.279217 -0.119829 0.124641 255 125 0
-0.317998 -0.140978 0.091095 255 125 0
-0.333097 -0.156207 -0.010905 255 125 0
-0.224319 -0.080403 0.039095 255 125 0
-0.312543 -0.131885 0.124428 255 125 0
-0.249328 -0.067907 0.065095 255 125 0
-0.277440 -0.148899 0.011095 255 125 0
-0.288625 -0.064299 0.170255 255 125 0
-0.383713 -0.082137 0.124325 255 125 0
-0.398009 -0.062975 0.081095 255 125 0
-0.304491 -0.132483 0.087095 255 125 0
-0.293042 -0.155873 0.031095 255 125 0
-0.414390 -0.071992 -0.039903 255 125 0
-0.250592 -0.129195 -0.014905 255 125 0
-0.314576 -0.065886 0.170238 255 125 0
-0.265954 -0.140113 -0.012905 255 125 0
-0.348677 -0.098028 0.120161 255 125 0
-0.321346 -0.053480 0.241095 255 125 0
-0.413166 -0.075925 0.005095 255 125 0
-0.412662 -0.085912 0.051095 255 125 0
-0.339874 -0.045393 0.170224 255 125 0
-0.319352 -0.053308 0.183095 255 125 0
-0.389817 -0.066481 0.111095 255 125 0
-0.354070 -0.060287 0.131095 255 125 0
-0.374867 0.002561 0.058118 255 125 0
-0.382614 -0.100104 0.058175 255 125 0
-0.399283 0.001067 -0.006905 255 125 0
-0.320789 -0.095340 0.157095 255 125 0
-0.307855 -0.077497 0.170134 255 125 0
-0.315309 -0.053908 0.170162 255 125 0
-0.421703 -0.042383 0.011095 255 125 0
-0.262184 -0.070697 0.120123 255 125 0
-0.386234 -0.008153 0.058098 255 125 0
-0.308477 -0.165603 -0.004905 255 125 0
-0.272490 -0.033256 0.120266 255 125 0
-0.367254 -0.089146 0.120300 255 125 0
-0.365057 -0.125078 0.058133 255 125 0
-0.342560 -0.001475 0.120195 255 125 0
-0.310481 -0.132836 0.111095 255 125 0
-0.413295 -0.041868 0.033095 255 125 0
-0.390010 -0.062485 0.119095 255 125 0
-0.356498 -0.068450 0.120231 255 125 0
-0.338675 -0.130519 0.103095 255 125 0
-0.353013 -0.125421 0.063095 255 125 0
-0.385421 -0.038159 0.095095 255 125 0
-0.413007 -0.045858 -0.012905 255 125 0
-0.256275 -0.036272 0.120344 255 125 0
-0.347652 0.016248 0.058097 255 125 0
-0.328976 -0.158054 0.029095 255 125 0
-0.265243 -0.118973 0.058133 255 125 0
-0.349088 -0.076012 0.169095 255 125 0
-0.315559 -0.148100 0.058105 255 125 0
-0.290888 -0.125582 0.075095 255 125 0
-0.414702 -0.051973 0.025095 255 125 0
-0.235989 -0.073102 0.058109 255 125 0
-0.413191 -0.075925 -0.034905 255 125 0
-0.351083 -0.124224 0.120212 255 125 0
-0.413153 -0.043864 0.021095 255 125 0
-0.305027 -0.156504 0.045095 255 125 0
-0.396476 -0.042843 0.109095 255 125 0
-0.287733 -0.144394 0.064516 255 125 0
-0.410167 -0.027651 0.001095 255 125 0
-0.300540 -0.164317 0.055095 255 125 0
-0.296754 -0.062439 0.213095 255 125 0
-0.403281 -0.107379 -0.004905 255 125 0
-0.413398 -0.071930 -0.016905 255 125 0
-0.324521 -0.132618 0.124381 255 125 0
-0.256074 -0.072327 0.120123 255 125 0
-0.387164 -0.042273 0.085095 255 125 0
-0.391496 -0.118680 0.058188 255 125 0
-0.236643 -0.095183 0.058113 255 125 0
-0.390247 -0.058493 0.107095 255 125 0
-0.290700 -0.030363 0.170225 255 125 0
-0.387816 -0.130478 -0.016905 255 125 0
-0.343384 -0.151806 0.058127 255 125 0
-0.365784 -0.014917 0.120213 255 125 0
-0.363622 0.015270 0.058110 255 125 0
-0.404340 -0.005254 0.017095 255 125 0
-0.369357 0.024939 0.017095 255 125 0
-0.333196 -0.089066 0.229973 255 125 0
-0.235695 -0.121174 0.043095 255 125 0
-0.355502 -0.118483 0.167095 255 125 0
-0.365769 -0.146190 0.021095 255 125 0
-0.343342 -0.119743 0.181728 255 125 0
-0.287303 -0.151428 0.037095 255 125 0
-0.359531 -0.149911 0.015095 255 125 0
-0.324686 -0.162684 -0.037749 255 125 0
-0.392077 -0.126731 -0.030905 255 125 0
-0.245158 -0.131771 0.053095 255 125 0
-0.260225 -0.004453 0.065099 255 125 0
-0.394774 0.000416 0.023095 255 125 0
-0.377617 -0.149054 -0.014905 255 125 0
-0.406361 -0.006681 -0.006905 255 125 0
-0.346285 -0.137148 0.107095 255 125 0
-0.338670 -0.032326 0.215095 255 125 0
-0.402930 -0.125391 0.047095 255 125 0
-0.340405 -0.069470 0.174731 255 125 0
-0.269698 -0.144422 0.029095 255 125 0
-0.338918 -0.083406 0.175095 255 125 0
-0.255746 -0.092344 0.095095 255 125 0
-0.400660 -0.067144 0.060317 255 125 0
-0.238074 -0.039011 0.125095 255 125 0
-0.241740 -0.044601 0.099095 255 125 0
-0.243629 -0.067558 0.077095 255 125 0
-0.298735 -0.161096 0.064481 255 125 0
-0.384924 0.013967 -0.024905 255 125 0
-0.340176 -0.138736 0.115095 255 125 0
-0.370148 -0.107356 0.124618 255 125 0
-0.367700 -0.049099 0.124531 255 125 0
-0.293679 -0.112699 0.120262 255 125 0
-0.229522 -0.094748 0.013095 255 125 0
-0.360550 -0.050665 0.135095 255 125 0
-0.416998 -0.029339 0.061095 255 125 0
-0.384763 -0.106247 0.091095 255 125 0
-0.312332 -0.053726 0.275095 255 125 0
-0.359086 0.009537 0.065095 255 125 0
-0.300853 -0.060942 0.219095 255 125 0
-0.374105 -0.005408 0.097095 255 125 0
-0.278686 -0.095751 0.120217 255 125 0
-0.324148 -0.040423 0.170282 255 125 0
-0.400761 -0.085184 0.097095 255 125 0
-0.419280 -0.090324 0.064022 255 125 0
-0.337964 -0.109399 0.171095 255 125 0
-0.224636 -0.062161 0.065095 255 125 0
-0.228328 -0.034563 0.060228 255 125 0
-0.271672 0.018891 0.058115 255 125 0
-0.217914 -0.063982 -0.008905 255 125 0
-0.390770 -0.100603 0.103095 255 125 0
-0.314408 -0.068630 0.225095 255 125 0
-0.377051 -0.149857 0.003095 255 125 0
-0.414146 -0.021883 0.023095 255 125 0
-0.394773 0.000414 0.035095 255 125 0
-0.290446 -0.082444 0.133095 255 125 0
-0.224329 -0.082408 -0.008905 255 125 0
-0.298506 -0.099297 0.169095 255 125 0
-0.354488 -0.038272 0.149095 255 125 0
-0.335278 -0.153313 0.064204 255 125 0
-0.222244 -0.035745 0.005095 255 125 0
-0.220016 -0.082145 0.047095 255 125 0
-0.352062 0.005959 0.113095 255 125 0
-0.358234 -0.122658 0.087095 255 125 0
-0.269989 -0.093216 0.159095 255 125 0
-0.274693 -0.095507 0.125007 255 125 0
-0.356577 -0.132664 0.069095 255 125 0
-0.219838 -0.048070 0.007095 255 125 0
-0.391499 -0.094636 0.075095 255 125 0
-0.376961 -0.149852 0.015095 255 125 0
-0.228346 -0.108703 0.003095 255 125 0
-0.400885 -0.083187 0.077095 255 125 0
-0.380478 -0.021828 0.115095 255 125 0
-0.398671 -0.132430 -0.032905 255 125 0
-0.249776 -0.077005 0.109095 255 125 0
-0.395424 -0.119990 0.053095 255 125 0
-0.259616 -0.145449 0.051095 255 125 0
-0.354379 0.027943 0.095095 255 125 0
-0.290694 -0.140568 0.087095 255 125 0
-0.414714 -0.033940 0.064636 255 125 0
-0.314404 -0.068709 0.233095 255 125 0
-0.367722 -0.114263 0.083095 255 125 0
-0.389220 -0.044404 0.111095 255 125 0
-0.286946 -0.157259 -0.038905 255 125 0
-0.416586 -0.056096 0.001095 255 125 0
-0.267808 -0.077052 0.124874 255 125 0
-0.326647 -0.097854 0.145095 255 125 0
-0.415317 -0.024067 0.053095 255 125 0
-0.217762 -0.061968 0.033095 255 125 0
-0.356713 -0.042415 0.157095 255 125 0
-0.421975 -0.079017 0.047095 255 125 0
-0.344678 -0.163409 -0.018905 255 125 0
-0.403193 -0.011194 -0.002905 255 125 0
-0.369897 -0.013166 0.124559 255 125 0
-0.241134 -0.005290 0.059095 255 125 0
-0.268701 -0.143229 0.007095 255 125 0
-0.422635 -0.076503 0.013095 255 125 0
-0.292336 -0.134657 0.060260 255 125 0
-0.230776 -0.092821 0.064465 255 125 0
-0.344649 -0.163906 0.036562 255 125 0
-0.334882 -0.094262 0.169095 255 125 0
-0.310887 -0.158965 0.011095 255 125 0
-0.376240 -0.138790 -0.030905 255 125 0
-0.377574 -0.116984 0.087095 255 125 0
-0.299216 -0.054928 0.231717 255 125 0
-0.242202 -0.117565 0.005095 255 125 0
-0.245575 -0.133800 0.017095 255 125 0
-0.283305 -0.151267 0.015095 255 125 0
-0.238895 -0.123867 0.027095 255 125 0
-0.412259 -0.015756 0.013095 255 125 0
-0.402026 -0.110320 0.047095 255 125 0
-0.345010 -0.013647 0.121095 255 125 0
-0.392229 -0.106704 0.064136 255 125 0
-0.231665 -0.045520 0.105095 255 125 0
-0.419080 -0.093591 0.051095 255 125 0
-0.285975 -0.042096 0.174899 255 125 0
-0.275402 -0.116681 0.111095 255 125 0
-0.351333 -0.072142 0.129095 255 125 0
-0.388827 -0.129571 0.003095 255 125 0
-0.410773 -0.013662 0.019095 255 125 0
-0.383701 -0.016808 0.105095 255 125 0
-0.281967 -0.122000 0.095095 255 125 0
-0.351019 -0.125267 0.107095 255 125 0
-0.359533 -0.149865 0.001095 255 125 0
-0.424610 -0.068685 -0.034905 255 125 0
-0.312888 -0.159014 0.037095 255 125 0
-0.372022 -0.109474 0.060109 255 125 0
-0.389962 -0.062483 0.083095 255 125 0
-0.343482 -0.084700 0.129095 255 125 0
-0.253515 -0.130279 0.039095 255 125 0
-0.358614 -0.148729 0.041095 255 125 0
-0.355118 -0.156530 -0.039874 255 125 0
-0.368839 -0.145347 0.033095 255 125 0
-0.374122 -0.140671 0.025095 255 125 0
-0.371013 -0.143476 0.057095 255 125 0
-0.378560 -0.100872 0.119095 255 125 0
-0.384709 -0.033100 0.115095 255 125 0
-0.350350 -0.136202 0.058108 255 125 0
-0.332342 -0.103040 0.172851 255 125 0
-0.356196 -0.122533 0.071095 255 125 0
-0.377586 -0.018501 0.085095 255 125 0
-0.349577 0.014965 0.083095 255 125 0
-0.294238 -0.086684 0.141095 255 125 0
-0.374916 -0.127685 0.058114 255 125 0
-0.325248 -0.022457 0.174823 255 125 0
-0.378559 -0.100874 0.107095 255 125 0
-0.381479 -0.112056 0.077095 255 125 0
-0.413920 -0.046905 0.059095 255 125 0
-0.259456 -0.082552 0.150087 255 125 0
-0.405368 -0.039379 0.059095 255 125 0
-0.258644 -0.128589 0.058159 255 125 0
-0.248866 -0.091878 0.083095 255 125 0
-0.387356 -0.022577 0.085095 255 125 0
-0.386988 -0.142450 0.029095 255 125 0
-0.335888 -0.143332 0.058162 255 125 0
-0.383548 -0.052072 0.120194 255 125 0
-0.341601 -0.033476 0.233095 255 125 0
-0.301952 -0.141256 0.058109 255 125 0
-0.238632 -0.111335 -0.012905 255 125 0
-0.269783 -0.110263 0.103095 255 125 0
-0.413544 -0.069935 -0.028905 255 125 0
-0.404592 -0.019295 0.021095 255 125 0
-0.313084 -0.139933 0.087095 255 125 0
-0.415185 -0.058983 -0.034905 255 125 0
-0.408034 -0.077613 0.086461 255 125 0
-0.248845 -0.124997 -0.004905 255 125 0
-0.326029 -0.140726 0.109739 255 125 0
-0.241672 -0.078466 0.059095 255 125 0
-0.408132 -0.027526 0.023095 255 125 0
-0.411354 -0.088850 0.021095 255 125 0
-0.252369 -0.100153 0.104906 255 125 0
-0.285955 -0.075174 0.161095 255 125 0
-0.261106 -0.136754 -0.034905 255 125 0
-0.389637 -0.083552 0.095095 255 125 0
-0.336724 -0.162414 -0.038905 255 125 0
-0.251530 -0.081094 0.099095 255 125 0
-0.249163 -0.037840 0.089095 255 125 0
-0.364030 0.001219 0.097095 255 125 0
-0.255192 -0.106336 0.103095 255 125 0
-0.374199 -0.106642 0.119095 255 125 0
-0.389149 0.006731 0.019095 255 125 0
-0.405652 -0.018290 -0.010905 255 125 0
-0.358336 -0.120660 0.065095 255 125 0
-0.314382 -0.053852 0.239095 255 125 0
-0.277440 -0.148894 -0.010905 255 125 0
-0.300474 0.031156 0.064740 255 125 0
-0.400416 -0.071137 0.121239 255 125 0
-0.239537 -0.113393 0.038087 255 125 0
-0.295780 -0.045589 0.171095 255 125 0
-0.380800 -0.096999 0.069095 255 125 0
-0.314446 -0.166298 -0.028905 255 125 0
-0.299073 -0.090039 0.149095 255 125 0
-0.281378 -0.150016 -0.021878 255 125 0
-0.298899 -0.158409 0.097095 255 125 0
-0.333424 -0.044999 0.209095 255 125 0
-0.297889 -0.011104 0.173095 255 125 0
-0.291640 -0.080514 0.170215 255 125 0
-0.222015 -0.072248 -0.037664 255 125 0
-0.292026 -0.139732 0.111095 255 125 0
-0.290329 -0.134714 0.123095 255 125 0
-0.298375 -0.035922 0.171095 255 125 0
-0.335695 -0.081204 0.219095 255 125 0
-0.379292 0.018320 0.059095 255 125 0
-0.327108 -0.066653 0.187095 255 125 0
-0.393862 0.001399 -0.024905 255 125 0
-0.319096 -0.057502 0.283095 255 125 0
-0.394976 -0.076815 0.073095 255 125 0
-0.287968 -0.056244 0.175095 255 125 0
-0.233044 -0.102978 0.043095 255 125 0
-0.312958 -0.059589 0.203095 255 125 0
-0.246354 -0.034691 0.107095 255 125 0
-0.357253 -0.121625 0.099095 255 125 0
-0.392902 0.002579 -0.012905 255 125 0
-0.347896 0.020240 0.113988 255 125 0
-0.249432 -0.049880 0.120190 255 125 0
-0.378232 -0.138979 0.005095 255 125 0
-0.219431 -0.076097 0.031095 255 125 0
-0.315552 -0.132069 0.119095 255 125 0
-0.353545 -0.051204 0.121095 255 125 0
-0.281408 -0.158034 0.021095 255 125 0
-0.383688 -0.017027 0.095095 255 125 0
-0.248392 -0.066875 0.117095 255 125 0
-0.241861 -0.127562 -0.024905 255 125 0
-0.286305 -0.102228 0.124801 255 125 0
-0.330532 -0.084896 0.209095 255 125 0
-0.258314 -0.068456 0.124766 255 125 0
-0.250897 -0.025925 0.058127 255 125 0
-0.242583 -0.129092 -0.012905 255 125 0
-0.225333 -0.083534 0.015095 255 125 0
-0.341626 -0.049507 0.217436 255 125 0
-0.369458 -0.151397 -0.037642 255 125 0
-0.384590 -0.133321 -0.034905 255 125 0
-0.326995 -0.059409 0.279095 255 125 0
-0.399784 -0.114230 0.031095 255 125 0
-0.367368 0.027064 0.059095 255 125 0
-0.389147 -0.028369 0.097095 255 125 0
-0.248655 -0.073877 0.115095 255 125 0
-0.390194 -0.139977 -0.026905 255 125 0
-0.352685 -0.065261 0.125095 255 125 0
-0.231374 -0.115798 0.045095 255 125 0
-0.369293 -0.154106 0.037095 255 125 0
-0.220023 -0.078136 -0.018905 255 125 0
-0.367520 -0.084806 0.125095 255 125 0
-0.380164 -0.013793 0.089095 255 125 0
-0.281842 -0.158060 0.007095 255 125 0
-0.419553 -0.036240 0.013095 255 125 0
-0.408187 -0.117698 0.059095 255 125 0
-0.339055 -0.124314 0.147095 255 125 0
-0.245500 -0.079695 0.065095 255 125 0
-0.223007 -0.068301 0.037095 255 125 0
-0.269659 -0.112310 0.089095 255 125 0
-0.294624 -0.097266 0.157095 255 125 0
-0.255798 -0.092348 0.117095 255 125 0
-0.422788 -0.048460 -0.010905 255 125 0
-0.407724 -0.101639 -0.022905 255 125 0
-0.419616 -0.036244 -0.008905 255 125 0
-0.339212 -0.088984 0.199095 255 125 0
-0.218922 -0.076066 -0.002905 255 125 0
-0.298032 -0.008770 0.160627 255 125 0
-0.320967 0.005857 0.120201 255 125 0
-0.417362 -0.056143 0.064369 255 125 0
-0.395194 -0.036754 0.099095 255 125 0
-0.580458 -0.272504 0.026536 255 255 0
-0.588892 -0.363944 -0.036905 255 255 0
-0.577797 -0.316016 0.103095 255 255 0
-0.525387 -0.321132 -0.008905 255 255 0
-0.638435 -0.307419 -0.014905 255 255 0
-0.599848 -0.348604 0.037095 255 255 0
-0.549581 -0.318704 0.050580 255 255 0
-0.599800 -0.267675 -0.026905 255 255 0
-0.556784 -0.364730 0.007095 255 255 0
-0.611913 -0.302480 0.063095 255 255 0
-0.544218 -0.275326 -0.006905 255 255 0
-0.624351 -0.353334 -0.004905 255 255 0
-0.553814 -0.332990 -0.048905 255 255 0
-0.613217 -0.326605 -0.049785 255 255 0
-0.621525 -0.289042 0.021748 255 255 0
-0.572668 -0.286054 0.069095 255 255 0
-0.575980 -0.345723 0.073095 255 255 0
-0.629309 -0.325585 0.019835 255 255 0
-0.537958 -0.299960 0.021095 255 255 0
-0.592451 -0.371273 -0.000905 255 255 0
-0.538491 -0.336206 0.021095 255 255 0
-0.540636 -0.301144 -0.038905 255 255 0
-0.539524 -0.352086 -0.020905 255 255 0
-0.619284 -0.292912 -0.039534 255 255 0
-0.565716 -0.349747 0.036913 255 255 0
-0.607507 -0.336273 0.067095 255 255 0
-0.604865 -0.266591 0.005095 255 255 0
-0.560132 -0.291297 0.041095 255 255 0
-0.557444 -0.321189 0.080201 255 255 0
-0.607109 -0.312205 0.035095 255 255 0
-0.631560 -0.333737 -0.026905 255 255 0
-0.626002 -0.281372 -0.008905 255 255 0
-0.564626 -0.367714 -0.020905 255 255 0
-0.592845 -0.299310 0.084361 255 255 0
-0.597685 -0.285689 0.045095 255 255 0
-0.554166 -0.276484 0.019095 255 255 0
-0.613626 -0.352678 -0.034340 255 255 0
-0.580435 -0.258476 -0.010905 255 255 0
-0.583498 -0.353848 0.017095 255 255 0
-0.533066 -0.327714 -0.032905 255 255 0
-0.609486 -0.360439 0.015095 255 255 0
-0.530944 -0.295799 -0.014905 255 255 0
-0.591013 -0.329253 0.085102 255 255 0
-0.566526 -0.353804 -0.042905 255 255 0
-0.635942 -0.332002 -0.002905 255 255 0
-0.554639 -0.301513 0.067095 255 255 0
-0.625437 -0.307314 0.005095 255 255 0
-0.582356 -0.339767 0.051095 255 255 0
-0.559488 -0.339348 0.057095 255 255 0
-0.532117 -0.342129 -0.000905 255 255 0
-0.557918 -0.329233 0.031095 255 255 0
-0.628045 -0.313485 -0.036120 255 255 0
-0.610487 -0.338459 0.020123 255 255 0
-0.569018 -0.262993 0.009095 255 255 0
-0.599810 -0.283706 0.022121 255 255 0
-0.606782 -0.366285 -0.018088 255 255 0
-0.570520 -0.303955 0.084619 255 255 0
-0.608666 -0.318311 0.079095 255 255 0
-0.612563 -0.330572 0.045095 255 255 0
-0.543915 -0.280287 -0.027868 255 255 0
-0.536501 -0.317904 0.009095 255 255 0
-0.593581 -0.287276 0.067095 255 255 0
-0.557910 -0.346319 0.017095 255 255 0
-0.553151 -0.308904 0.033095 255 255 0
-0.572299 -0.373137 -0.002905 255 255 0
-0.577910 -0.281416 0.045095 255 255 0
-0.584391 -0.372013 -0.018905 255 255 0
-0.538040 -0.291950 0.003095 255 255 0
-0.628210 -0.343551 0.012055 255 255 0
-0.598894 -0.349773 -0.046905 255 255 0
-0.618175 -0.278300 -0.026905 255 255 0
-0.549683 -0.349782 -0.002905 255 255 0
-0.624325 -0.307246 0.027095 255 255 0
-0.548349 -0.348685 -0.036905 255 255 0
-0.529545 -0.311468 -0.024905 255 255 0
-0.611569 -0.268395 -0.012905 255 255 0
-0.604648 -0.320069 0.059095 255 255 0
-0.587115 -0.261949 0.007095 255 255 0
-0.575532 -0.320292 0.078149 255 255 0
-0.626280 -0.295343 -0.022905 255 255 0
-0.614379 -0.307594 -0.048905 255 255 0
-0.611178 -0.294420 0.036873 255 255 0
-0.614917 -0.282626 0.005095 255 255 0
-0.591956 -0.346595 0.065095 255 255 0
-0.582110 -0.343785 0.033095 255 255 0
-0.537618 -0.334003 -0.016905 255 255 0
-0.568254 -0.361925 0.021095 255 255 0
-0.605274 -0.358178 -0.001890 255 255 0
-0.631453 -0.290525 0.005095 255 255 0
-0.539598 -0.318095 0.027095 255 255 0
-0.527111 -0.305308 0.001095 255 255 0
-0.601589 -0.303852 0.049095 255 255 0
-0.560236 -0.323363 0.063095 255 255 0
-0.543470 -0.320334 -0.043874 255 255 0
-0.620549 -0.337762 -0.038905 255 255 0
-0.541638 -0.350279 0.011799 255 255 0
-0.619981 -0.347055 -0.019914 255 255 0
-0.613583 -0.320615 0.022105 255 255 0
-0.553163 -0.292875 0.026120 255 255 0
-0.580520 -0.369766 0.011095 255 255 0
-0.598691 -0.334770 0.053095 255 255 0
-0.597175 -0.261266 -0.008905 255 255 0
-0.550865 -0.363211 -0.012905 255 255 0
-0.629491 -0.322607 -0.014905 255 255 0
-0.566615 -0.335039 0.081095 255 255 0
-0.554628 -0.268920 0.003848 255 255 0
-0.565996 -0.279634 0.029702 255 255 0
-0.552561 -0.302735 0.051095 255 255 0
-0.592868 -0.315341 0.077095 255 255 0
-0.637816 -0.316086 -0.000905 255 255 0
-0.562400 -0.291436 0.057095 255 255 0
-0.597221 -0.358792 0.025095 255 255 0
-0.566630 -0.334799 0.043095 255 255 0
-0.594704 -0.268912 0.019095 255 255 0
-0.614605 -0.312663 0.049095 255 255 0
-0.624442 -0.323284 0.005095 255 255 0
-0.613929 -0.347714 0.007095 255 255 0
-0.556324 -0.355184 -0.024905 255 255 0
-0.606288 -0.276087 -0.037866 255 255 0
-0.603778 -0.334041 0.033095 255 255 0
-0.627025 -0.297392 -0.007903 255 255 0
-0.574489 -0.366314 -0.032905 255 255 0
-0.597724 -0.301611 0.069095 255 255 0
-0.587776 -0.283895 0.033095 255 255 0
-0.579259 -0.292113 0.081095 255 255 0
-0.542097 -0.286187 0.017095 255 255 0
-0.540740 -0.332190 0.006110 255 255 0
-0.586714 -0.334030 0.071095 255 255 0
-0.550143 -0.342276 0.029095 255 255 0
-0.610689 -0.302405 0.024107 255 255 0
-0.570745 -0.333030 0.067095 255 255 0
-0.593235 -0.358456 0.007095 255 255 0
-0.571885 -0.347145 0.059095 255 255 0
-0.610403 -0.274335 0.016204 255 255 0
-0.571153 -0.359126 0.007095 255 255 0
-0.618567 -0.330939 0.031095 255 255 0
-0.603806 -0.291964 0.057095 255 255 0
-0.563968 -0.361663 -0.006905 255 255 0
-0.632211 -0.341792 -0.012905 255 255 0
-0.584284 -0.316820 0.089095 255 255 0
-0.623553 -0.339259 -0.000905 255 255 0
-0.564104 -0.310569 0.073095 255 255 0
-0.596086 -0.344599 0.023095 255 255 0
-0.601213 -0.359047 -0.030905 255 255 0
-0.544611 -0.334430 -0.037983 255 255 0
-0.570820 -0.348056 0.023095 255 255 0
-0.552733 -0.332691 0.045095 255 255 0
-0.563079 -0.294575 0.077095 255 255 0
-0.593938 -0.363496 -0.012905 255 255 0
-0.537897 -0.293945 -0.026905 255 255 0
-0.550704 -0.314766 0.069095 255 255 0
-0.583664 -0.285623 0.057095 255 255 0
-0.583497 -0.353868 -0.044905 255 255 0
-0.633901 -0.311839 0.015095 255 255 0
-0.527519 -0.329378 0.003095 255 255 0
-0.582376 -0.306684 0.078212 255 255 0
-0.598511 -0.337727 0.077571 255 255 0
-0.599243 -0.325749 0.070162 255 255 0
-0.593359 -0.347430 0.049095 255 255 0
-0.609755 -0.350437 0.026403 255 255 0
-0.579322 -0.356591 0.029750 255 255 0
-0.536896 -0.283865 -0.016905 255 255 0
-0.579883 -0.336587 0.083095 255 255 0
-0.549029 -0.327719 0.021095 255 255 0
-0.532167 -0.308564 -0.010905 255 255 0
-0.556711 -0.333166 0.071528 255 255 0
-0.604456 -0.306031 0.082318 255 255 0
-0.580891 -0.363701 -0.006905 255 255 0
-0.635786 -0.317966 -0.025697 255 255 0
-0.567394 -0.271704 0.019095 255 255 0
-0.536138 -0.341927 -0.028807 255 255 0
-0.629287 -0.299535 0.017095 255 255 0
-0.610244 -0.342452 -0.045785 255 255 0
-0.619396 -0.316963 0.035095 255 255 0
-0.547340 -0.322575 0.038197 255 255 0
-0.619163 -0.294908 0.010109 255 255 0
-0.545385 -0.278373 0.007095 255 255 0
-0.598347 -0.291631 0.033095 255 255 0
-0.617717 -0.358939 -0.014905 255 255 0
-0.528355 -0.325421 -0.020905 255 255 0
-0.590317 -0.261084 -0.020905 255 255 0
-0.577704 -0.350287 0.045095 255 255 0
-0.604607 -0.320066 0.045095 255 255 0
-0.619926 -0.333026 0.013095 255 255 0
-0.636742 -0.302339 -0.000905 255 255 0
-0.622400 -0.325162 -0.036905 255 255 0
-0.613475 -0.314598 0.067095 255 255 0
-0.555151 -0.358665 0.019095 255 255 0
-0.537901 -0.313093 -0.034905 255 255 0
-0.558028 -0.344390 -0.044905 255 255 0
-0.622343 -0.341189 0.023878 255 255 0
-0.530228 -0.307502 0.014385 255 255 0
-0.617187 -0.359979 0.003095 255 255 0
-0.547196 -0.308540 0.021095 255 255 0
-0.633273 -0.305790 -0.026905 255 255 0
-0.527725 -0.333398 -0.008905 255 255 0
-0.621934 -0.315115 0.014162 255 255 0
-0.566385 -0.338790 0.031095 255 255 0
-0.606307 -0.341296 0.045095 255 255 0
-0.562986 -0.361603 -0.033154 255 255 0
-0.556999 -0.311144 0.059095 255 255 0
-0.590790 -0.365672 0.017095 255 255 0
-0.602733 -0.366970 0.007095 255 255 0
-0.548294 -0.339721 0.013095 255 255 0
-0.611910 -0.282442 0.025712 255 255 0
-0.531945 -0.327644 0.015095 255 255 0
-0.634268 -0.329896 0.009095 255 255 0
-0.537564 -0.351370 -0.006905 255 255 0
-0.614613 -0.271020 -0.000905 255 255 0
-0.578768 -0.267367 0.015095 255 255 0
-0.594594 -0.369004 -0.024905 255 255 0
-0.565959 -0.345755 0.048522 255 255 0
-0.611164 -0.330486 0.057095 255 255 0
-0.594455 -0.338515 0.041095 255 255 0
-0.609450 -0.355429 -0.022905 255 255 0
-0.560128 -0.325361 0.051095 255 255 0
-0.603827 -0.349088 0.015095 255 255 0
-0.550801 -0.298741 0.038962 255 255 0
-0.629371 -0.309559 -0.006905 255 255 0
-0.602608 -0.369004 -0.006905 255 255 0
-0.616905 -0.304789 0.037095 255 255 0
-0.555546 -0.352200 0.007095 255 255 0
-0.566688 -0.315743 0.085095 255 255 0
-0.545142 -0.358508 0.003514 255 255 0
-0.535362 -0.321843 -0.001894 255 255 0
-0.578321 -0.307461 0.095095 255 255 0
-0.616087 -0.279675 -0.014905 255 255 0
-0.580355 -0.339709 0.063095 255 255 0
-0.620062 -0.317004 -0.044905 255 255 0
-0.549559 -0.351818 -0.014905 255 255 0
-0.525659 -0.316678 0.003095 255 255 0
-0.626782 -0.301385 -0.036868 255 255 0
-0.624094 -0.345331 -0.030905 255 255 0
-0.617664 -0.352173 0.017095 255 255 0
-0.601012 -0.313836 0.069095 255 255 0
-0.589544 -0.353281 0.035095 255 255 0
-0.541365 -0.338239 -0.006905 255 255 0
-0.556871 -0.313139 0.043095 255 255 0
-0.564156 -0.342484 0.067095 255 255 0
-0.589097 -0.295073 0.074207 255 255 0
-0.557608 -0.351255 0.027484 255 255 0
-0.534243 -0.340136 0.011095 255 255 0
-0.625047 -0.283245 0.011095 255 255 0
-0.611276 -0.325585 0.069095 255 255 0
-0.573817 -0.372283 -0.014905 255 255 0
-0.532031 -0.343554 -0.012905 255 255 0
-0.611544 -0.288431 0.016140 255 255 0
-0.558175 -0.341992 0.041095 255 255 0
-0.625858 -0.333388 -0.016905 255 255 0
-0.603113 -0.327990 0.080865 255 255 0
-0.623748 -0.287174 -0.030905 255 255 0
-0.551576 -0.318827 0.028124 255 255 0
-0.537265 -0.283888 -0.004905 255 255 0
-0.583791 -0.349059 0.057095 255 255 0
-0.551454 -0.328837 0.059095 255 255 0
-0.547694 -0.349551 0.021095 255 255 0
-0.568494 -0.369829 0.007095 255 255 0
-0.625884 -0.283297 -0.019727 255 255 0
-0.575978 -0.280245 0.034234 255 255 0
-0.608404 -0.324306 0.031095 255 255 0
-0.590139 -0.278033 0.023095 255 255 0
-0.606434 -0.292126 0.025095 255 255 0
-0.570500 -0.337047 0.055095 255 255 0
-0.613526 -0.340649 0.031095 255 255 0
-0.605310 -0.292057 0.067921 255 255 0
-0.586151 -0.343230 0.077095 255 255 0
-0.578835 -0.364577 0.020570 255 255 0
-0.568931 -0.313877 0.097095 255 255 0
-0.603370 -0.307968 0.059095 255 255 0
-0.609602 -0.272282 -0.022905 255 255 0
-0.546983 -0.344595 -0.026905 255 255 0
-0.538642 -0.300990 0.009095 255 255 0
-0.545840 -0.332501 0.031095 255 255 0
-0.619685 -0.304959 0.017095 255 255 0
-0.567302 -0.323796 0.072099 255 255 0
-0.584872 -0.364136 -0.026905 255 255 0
-0.532147 -0.317638 0.019095 255 255 0
-0.603704 -0.301978 0.035095 255 255 0
-0.593398 -0.290269 0.055095 255 255 0
-0.622671 -0.289112 -0.000905 255 255 0
-0.544568 -0.302367 0.029422 255 255 0
-0.533762 -0.303711 -0.030905 255 255 0
-0.583611 -0.286467 0.071095 255 255 0
-0.558463 -0.337281 0.024110 255 255 0
-0.594639 -0.335487 0.064129 255 255 0
-0.574842 -0.364331 -0.021912 255 255 0
-0.629257 -0.311556 -0.018905 255 255 0
-0.610445 -0.306397 0.073159 255 255 0
-0.600162 -0.343477 0.059095 255 255 0
-0.618193 -0.296852 0.029095 255 255 0
-0.597969 -0.281051 0.033095 255 255 0
-0.606386 -0.294127 0.047095 255 255 0
-0.599854 -0.315768 0.084985 255 255 0
-0.533659 -0.297693 -0.004905 255 255 0
-0.565471 -0.353740 0.014114 255 255 0
-0.545087 -0.342475 0.003095 255 255 0
-0.583071 -0.360827 0.006102 255 255 0
-0.570020 -0.325966 0.085095 255 255 0
-0.613848 -0.283513 -0.034905 255 255 0
-0.611786 -0.302472 0.051095 255 255 0
-0.634665 -0.297860 -0.016905 255 255 0
-0.599136 -0.294728 0.077095 255 255 0
-0.553229 -0.365013 -0.002905 255 255 0
-0.613563 -0.353699 -0.006905 255 255 0
-0.623607 -0.353288 0.007816 255 255 0
-0.582347 -0.372677 0.001095 255 255 0
-0.602015 -0.329927 0.043095 255 255 0
-0.558285 -0.323245 0.041095 255 255 0
-0.625804 -0.317355 0.025388 255 255 0
-0.611954 -0.364598 -0.006905 255 255 0
-0.575165 -0.359055 -0.040905 255 255 0
-0.604722 -0.268933 -0.004905 255 255 0
-0.638791 -0.318150 -0.010905 255 255 0
-0.557190 -0.355237 -0.038905 255 255 0
-0.555771 -0.283005 0.027095 255 255 0
-0.590096 -0.309160 0.085095 255 255 0
-0.627435 -0.323466 -0.027944 255 255 0
-0.566117 -0.293667 0.067095 255 255 0
-0.586327 -0.373112 -0.008905 255 255 0
-0.542438 -0.320271 0.017095 255 255 0
-0.636540 -0.330034 -0.014905 255 255 0
-0.574245 -0.341323 0.041095 255 255 0
-0.587746 -0.284396 0.047095 255 255 0
-0.581154 -0.326647 0.085501 255 255 0
-0.587238 -0.259942 -0.002905 255 255 0
-0.628718 -0.319537 -0.004905 255 255 0
-0.626083 -0.329395 -0.002905 255 255 0
-0.593600 -0.352493 0.017095 255 255 0
-0.557599 -0.303165 0.077095 255 255 0
-0.534937 -0.311797 0.001095 255 255 0
-0.597283 -0.357783 -0.040905 255 255 0
-0.600856 -0.266613 -0.016905 255 255 0
-0.595706 -0.269428 0.009095 255 255 0
-0.546950 -0.354611 -0.028905 255 255 0
-0.635883 -0.319976 0.009095 255 255 0
-0.613881 -0.322638 0.051095 255 255 0
-0.602403 -0.274074 0.023095 255 255 0
-0.634543 -0.303863 0.009095 255 255 0
-0.576855 -0.331410 0.075095 255 255 0
-0.542939 -0.344347 -0.014905 255 255 0
-0.630732 -0.289604 -0.012905 255 255 0
-0.569347 -0.355873 0.029095 255 255 0
-0.587085 -0.360726 0.025095 255 255 0
-0.551824 -0.324853 0.069095 255 255 0
-0.576020 -0.312307 0.085237 255 255 0
-0.540087 -0.310108 0.014121 255 255 0
-0.532502 -0.317660 -0.014905 255 255 0
-0.623275 -0.279130 0.001095 255 255 0
-0.596065 -0.361623 -0.002905 255 255 0
-0.620367 -0.307978 -0.040905 255 255 0
-0.534526 -0.302751 -0.020905 255 255 0
-0.599100 -0.360841 -0.020905 255 255 0
-0.559176 -0.358382 -0.014905 255 255 0
-0.544183 -0.312363 0.035095 255 255 0
-0.585856 -0.348057 0.025095 255 255 0
-0.614983 -0.297732 -0.046905 255 255 0
-0.605641 -0.352189 -0.039993 255 255 0
-0.578321 -0.260350 0.003095 255 255 0
-0.632487 -0.339155 0.003095 255 255 0
-0.558559 -0.270181 0.013095 255 255 0
-0.534242 -0.319770 -0.026905 255 255 0
-0.547053 -0.294505 0.018157 255 255 0
-0.544839 -0.358489 -0.006905 255 255 0
-0.601056 -0.328871 0.061095 255 255 0
-0.562525 -0.369151 -0.000905 255 255 0
-0.564447 -0.370482 -0.010905 255 255 0
-0.622155 -0.344262 -0.010905 255 255 0
-0.617564 -0.280784 0.017095 255 255 0
-0.603459 -0.355094 0.007095 255 255 0
-0.537547 -0.350029 0.003095 255 255 0
-0.532634 -0.333697 -0.025273 255 255 0
-0.536139 -0.309868 0.023095 255 255 0
-0.548445 -0.308616 0.043095 255 255 0
-0.594989 -0.264250 0.001095 255 255 0
-0.592478 -0.305299 0.076138 255 255 0
-0.590403 -0.339235 0.056108 255 255 0
-0.560967 -0.296345 0.049095 255 255 0
-0.587387 -0.323020 0.078153 255 255 0
-0.628248 -0.335538 0.017095 255 255 0
-0.557302 -0.356263 -0.002905 255 255 0
-0.594274 -0.341475 0.032124 255 255 0
-0.559648 -0.301286 0.059095 255 255 0
-0.530712 -0.297513 0.005095 255 255 0
-0.599522 -0.341796 0.069095 255 255 0
-0.564877 -0.330682 0.059095 255 255 0
-0.624975 -0.298166 0.003095 255 255 0
-0.608349 -0.275152 0.007095 255 255 0
-0.630069 -0.345903 -0.002905 255 255 0
-0.613828 -0.316623 -0.051855 255 255 0
-0.535102 -0.293333 0.013095 255 255 0
-0.549214 -0.324693 -0.049781 255 255 0
-0.536807 -0.330982 -0.002905 255 255 0
-0.598118 -0.295625 0.043095 255 255 0
-0.604199 -0.360117 -0.010905 255 255 0
-0.548365 -0.356701 0.013095 255 255 0
-0.572105 -0.294033 0.075095 255 255 0
-0.612137 -0.311492 0.025095 255 255 0
-0.537114 -0.325956 0.022956 255 255 0
-0.628291 -0.343557 -0.022905 255 255 0
-0.605677 -0.286068 0.032732 255 255 0
-0.549495 -0.320086 0.061095 255 255 0
-0.542021 -0.311255 -0.042905 255 255 0
-0.605157 -0.312085 0.051095 255 255 0
-0.534025 -0.325768 -0.010905 255 255 0
-0.615048 -0.296660 0.018151 255 255 0
-0.572905 -0.363241 -0.000905 255 255 0
-0.618488 -0.273191 -0.008905 255 255 0
-0.600970 -0.363017 0.017095 255 255 0
-0.578927 -0.300462 0.085095 255 255 0
-0.562119 -0.287412 0.033095 255 255 0
-0.551515 -0.336856 0.037095 255 255 0
-0.616194 -0.324783 0.039095 255 255 0
-0.583865 -0.347848 0.069095 255 255 0
-0.585307 -0.340927 0.041095 255 255 0
-0.558644 -0.311244 0.081095 255 255 0
-0.618284 -0.354966 -0.024905 255 255 0
-0.613032 -0.329611 0.021095 255 255 0
-0.557537 -0.303161 0.043095 255 255 0
-0.550271 -0.340170 -0.042905 255 255 0
-0.592636 -0.369428 0.009095 255 255 0
-0.585570 -0.312891 0.097095 255 255 0
-0.540618 -0.334186 -0.029921 255 255 0
-0.539355 -0.322087 -0.035974 255 255 0
-0.568223 -0.341515 0.075095 255 255 0
-0.619029 -0.346997 -0.000905 255 255 0
-0.613167 -0.310571 0.059095 255 255 0
-0.547259 -0.358637 -0.020905 255 255 0
-0.602695 -0.269307 0.015095 255 255 0
-0.554858 -0.363445 -0.020905 255 255 0
-0.606495 -0.338216 0.055693 255 255 0
-0.550647 -0.284707 0.015095 255 255 0
-0.597154 -0.294382 0.063095 255 255 0
-0.633564 -0.293785 -0.002905 255 255 0
-0.615403 -0.340764 0.013095 255 255 0
-0.613736 -0.322629 0.061095 255 255 0
-0.627392 -0.291404 0.014319 255 255 0
-0.603405 -0.340030 0.025095 255 255 0
-0.557971 -0.295173 0.033095 255 255 0
-0.614115 -0.344692 -0.037947 255 255 0
-0.568913 -0.362990 -0.014905 255 255 0
-0.623923 -0.335274 -0.030905 255 255 0
-0.572647 -0.367460 0.015095 255 255 0
-0.562174 -0.357545 0.005095 255 255 0
-0.526288 -0.313272 -0.004905 255 255 0
-0.628656 -0.303503 -0.013901 255 255 0
-0.591624 -0.319272 0.085106 255 255 0
-0.561178 -0.363497 0.015095 255 255 0
-0.547541 -0.286519 0.024263 255 255 0
-0.617039 -0.280752 -0.004905 255 255 0
-0.563644 -0.301531 0.071095 255 255 0
-0.625550 -0.351404 -0.014905 255 255 0
-0.575331 -0.356347 0.014119 255 255 0
-0.619328 -0.324974 0.016131 255 255 0
-0.627985 -0.314473 -0.026905 255 255 0
-0.601610 -0.352561 0.029095 255 255 0
-0.537560 -0.285909 0.009203 255 255 0
-0.573056 -0.312125 0.077095 255 255 0
-0.603174 -0.327000 0.051095 255 255 0
-0.587744 -0.349956 0.043095 255 255 0
-0.574066 -0.344247 0.030098 255 255 0
-0.542073 -0.343166 -0.034905 255 255 0
-0.542981 -0.328319 0.014142 255 255 0
-0.588219 -0.264963 0.015095 255 255 0
-0.611004 -0.336488 0.039095 255 255 0
-0.592426 -0.371687 -0.014905 255 255 0
-0.557748 -0.316207 0.051095 255 255 0
-0.590525 -0.337238 0.082092 255 255 0
-0.564097 -0.359668 -0.024905 255 255 0
-0.589175 -0.261014 -0.011859 255 255 0
-0.608844 -0.365328 0.001095 255 255 0
-0.634389 -0.325895 -0.022905 255 255 0
-0.558912 -0.329929 0.079095 255 255 0
-0.626985 -0.315423 0.003095 255 255 0
-0.536149 -0.289831 -0.010905 255 255 0
-0.639198 -0.310160 -0.006905 255 255 0
-0.586873 -0.364192 -0.000905 255 255 0
-0.605921 -0.282076 0.016110 255 255 0
-0.623904 -0.333269 0.005095 255 255 0
-0.540047 -0.343523 0.017095 255 255 0
-0.616324 -0.332806 -0.044905 255 255 0
-0.579582 -0.352352 0.037095 255 255 0
-0.624950 -0.331329 0.024284 255 255 0
-0.528133 -0.315389 0.011095 255 255 0
-0.622524 -0.289102 -0.010905 255 255 0
-0.526881 -0.311305 -0.016905 255 255 0
-0.547502 -0.272491 0.001095 255 255 0
-0.611214 -0.274384 -0.030905 255 255 0
-0.617124 -0.274746 0.007095 255 255 0
-0.558859 -0.313261 0.067095 255 255 0
-0.529343 -0.335501 -0.016905 255 255 0
-0.637991 -0.324111 -0.004905 255 255 0
-0.550162 -0.310726 0.053095 255 255 0
-0.562066 -0.278377 0.021095 255 255 0
-0.533950 -0.344936 -0.020905 255 255 0
-0.572352 -0.274011 0.027777 255 255 0
-0.593069 -0.328407 0.075095 255 255 0
-0.623990 -0.297207 0.023095 255 255 0
-0.577789 -0.283386 0.063095 255 255 0
-0.552267 -0.274787 0.010218 255 255 0
-0.549670 -0.300677 0.023095 255 255 0
-0.605431 -0.308095 0.043095 255 255 0
-0.637123 -0.312037 0.007095 255 255 0
-0.635158 -0.299894 -0.008905 255 255 0
-0.605357 -0.356821 0.023095 255 255 0
-0.545057 -0.294383 0.026558 255 255 0
-0.591497 -0.354120 -0.046905 255 255 0
-0.612086 -0.300486 0.043095 255 255 0
-0.551700 -0.326849 0.051095 255 255 0
-0.583883 -0.314791 0.078108 255 255 0
-0.625756 -0.335386 -0.008905 255 255 0
-0.611565 -0.353605 0.001095 255 255 0
-0.601884 -0.299863 0.059095 255 255 0
-0.528217 -0.323409 0.009095 255 255 0
-0.557445 -0.345234 0.033095 255 255 0
-0.580763 -0.365801 -0.014905 255 255 0
-0.564752 -0.332725 0.051095 255 255 0
-0.584517 -0.271663 0.019095 255 255 0
-0.543640 -0.324352 0.031095 255 255 0
-0.625723 -0.303324 -0.028905 255 255 0
-0.593578 -0.287332 0.038117 255 255 0
-0.541345 -0.338238 -0.022905 255 255 0
-0.586261 -0.275909 0.031095 255 255 0
-0.564085 -0.343636 0.024154 255 255 0
-0.527594 -0.301330 -0.008905 255 255 0
-0.562700 -0.333533 0.036110 255 255 0
-0.555691 -0.317075 0.036103 255 255 0
-0.556057 -0.335130 0.063095 255 255 0
-0.624499 -0.295235 -0.030905 255 255 0
-0.604817 -0.300134 0.075095 255 255 0
-0.558358 -0.338994 0.049095 255 255 0
-0.542648 -0.284217 0.001095 255 255 0
-0.606431 -0.346227 0.033095 255 255 0
-0.580995 -0.362005 -0.034905 255 255 0
-0.587222 -0.292954 0.081753 255 255 0
-0.609233 -0.358976 -0.030905 255 255 0
-0.600300 -0.343848 0.051095 255 255 0
-0.598107 -0.295624 0.051095 255 255 0
-0.582863 -0.298699 0.078204 255 255 0
-0.535417 -0.303812 0.001095 255 255 0
-0.615479 -0.289611 0.027095 255 255 0
-0.604908 -0.364167 -0.025555 255 255 0
-0.616507 -0.272791 -0.018905 255 255 0
-0.540985 -0.328198 -0.041381 255 255 0
-0.583990 -0.280286 0.039095 255 255 0
-0.555123 -0.359118 -0.031710 255 255 0
-0.567559 -0.286845 0.063095 255 255 0
-0.603437 -0.289938 0.041077 255 255 0
-0.574634 -0.302203 0.078103 255 255 0
-0.588875 -0.364220 -0.018905 255 255 0
-0.561234 -0.357488 0.024311 255 255 0
-0.541363 -0.354768 -0.012905 255 255 0
-0.578517 -0.348527 0.063095 255 255 0
-0.604770 -0.333655 0.075095 255 255 0
-0.552439 -0.304739 0.059095 255 255 0
-0.629367 -0.309559 0.021095 255 255 0
-0.616547 -0.312782 0.041095 255 255 0
-0.604047 -0.279958 0.028097 255 255 0
-0.636700 -0.314014 -0.018905 255 255 0
-0.591943 -0.346832 0.057095 255 255 0
-0.578552 -0.369196 -0.026905 255 255 0
-0.594094 -0.361502 -0.028905 255 255 0
-0.548539 -0.316637 0.043095 255 255 0
-0.633236 -0.335843 -0.018905 255 255 0
-0.569220 -0.357977 -0.036028 255 255 0
-0.616064 -0.345570 0.025095 255 255 0
-0.564038 -0.301555 0.081095 255 255 0
-0.554543 -0.351068 -0.032905 255 255 0
-0.598303 -0.275599 0.016170 255 255 0
-0.530638 -0.333576 0.008809 255 255 0
-0.610392 -0.356487 -0.014905 255 255 0
-0.621445 -0.323100 0.030885 255 255 0
-0.557813 -0.367297 -0.014905 255 255 0
-0.618791 -0.284866 -0.022905 255 255 0
-0.613059 -0.361940 -0.020905 255 255 0
-0.543935 -0.345488 -0.006905 255 255 0
-0.554612 -0.308994 0.073095 255 255 0
-0.616811 -0.356880 0.011095 255 255 0
-0.629681 -0.286747 -0.002905 255 255 0
-0.532591 -0.289613 -0.002905 255 255 0
-0.615926 -0.347829 -0.028905 255 255 0
-0.611019 -0.362537 0.007855 255 255 0
-0.619328 -0.324974 -0.043883 255 255 0
-0.628021 -0.346652 0.005095 255 255 0
-0.621348 -0.341128 -0.024905 255 255 0
-0.552676 -0.300860 0.030095 255 255 0
-0.544245 -0.340419 0.024660 255 255 0
-0.573507 -0.348221 0.051095 255 255 0
-0.596306 -0.275477 0.027416 255 255 0
-0.574714 -0.268145 0.021458 255 255 0
-0.628461 -0.329540 -0.032905 255 255 0
-0.566335 -0.289673 0.045095 255 255 0
-0.578316 -0.373056 -0.008905 255 255 0
-0.618545 -0.358990 -0.004905 255 255 0
-0.551924 -0.345900 0.009095 255 255 0
-0.536062 -0.325893 -0.022905 255 255 0
-0.535925 -0.291821 -0.018905 255 255 0
-0.619383 -0.341007 0.005095 255 255 0
-0.528200 -0.303371 -0.016905 255 255 0
-0.631441 -0.317700 0.019095 255 255 0
-0.590334 -0.340362 0.047095 255 255 0
-0.606438 -0.324186 0.039095 255 255 0
-0.637505 -0.322636 -0.016905 255 255 0
-0.538202 -0.324020 0.005095 255 255 0
-0.607926 -0.332291 0.027095 255 255 0
-0.572780 -0.365286 -0.008905 255 255 0
-0.608449 -0.306275 0.030125 255 255 0
-0.627693 -0.303445 -0.002905 255 255 0
-0.554348 -0.339034 0.018098 255 255 0
-0.636536 -0.326027 0.003095 255 255 0
-0.547706 -0.316586 0.022116 255 255 0
-0.574370 -0.339298 0.049095 255 255 0
-0.576485 -0.337475 0.069095 255 255 0
-0.553431 -0.354040 -0.008905 255 255 0
-0.618064 -0.312875 0.020153 255 255 0
-0.577629 -0.351520 0.021095 255 255 0
-0.576913 -0.288316 0.075095 255 255 0
-0.525983 -0.323272 -0.000905 255 255 0
-0.541858 -0.281158 -0.010905 255 255 0
-0.550621 -0.350827 -0.022905 255 255 0
-0.608666 -0.335480 0.049095 255 255 0
-0.571877 -0.347283 0.067095 255 255 0
-0.617800 -0.349945 -0.012905 255 255 0
-0.600609 -0.368933 -0.014905 255 255 0
-0.589305 -0.357201 -0.039995 255 255 0
-0.540821 -0.348225 -0.028905 255 255 0
-0.571032 -0.361103 -0.028905 255 255 0
-0.561869 -0.329475 0.045095 255 255 0
-0.528879 -0.335472 -0.000905 255 255 0
-0.608913 -0.298689 0.057095 255 255 0
-0.543682 -0.300310 0.015095 255 255 0
-0.631373 -0.319699 -0.032905 255 255 0
-0.537213 -0.307929 0.007095 255 255 0
-0.633447 -0.297786 0.005095 255 255 0
-0.575898 -0.314303 0.093960 255 255 0
-0.626210 -0.295339 -0.014905 255 255 0
-0.550006 -0.311736 0.027095 255 255 0
-0.634322 -0.337914 -0.006905 255 255 0
