ply
format ascii 1.0
element vertex 1301
property float x
property float y
property float z
property uchar red
property uchar green
property uchar blue
end_header
-0.153430 -0.135798 0.049221 0 0 255
-0.180730 -0.105053 0.040008 0 0 255
-0.262289 -0.071366 0.066008 0 0 255
-0.090954 -0.107726 0.040008 0 0 255
-0.146491 -0.037597 0.048008 0 0 255
-0.162584 -0.124128 -0.017992 0 0 255
-0.170364 -0.051852 0.042008 0 0 255
-0.204057 -0.123271 0.011146 0 0 255
-0.189911 -0.111443 0.035824 0 0 255
-0.262386 -0.144650 0.056008 0 0 255
-0.191968 -0.117183 0.090008 0 0 255
-0.207318 -0.082169 -0.026982 0 0 255
-0.177882 -0.136508 0.078008 0 0 255
-0.154465 -0.018013 0.052008 0 0 255
-0.159502 -0.123615 -0.033992 0 0 255
-0.218945 -0.139533 0.078008 0 0 255
-0.205350 -0.106763 0.000008 0 0 255
-0.220530 -0.173238 0.039346 0 0 255
-0.222160 -0.144576 -0.025992 0 0 255
-0.179718 -0.111122 0.019191 0 0 255
-0.168527 -0.092716 0.070233 0 0 255
-0.230691 -0.124897 0.027841 0 0 255
-0.201128 -0.066983 0.098008 0 0 255
-0.210058 -0.059405 0.100008 0 0 255
-0.228824 -0.111015 -0.029992 0 0 255
-0.265339 -0.153572 0.064008 0 0 255
-0.107385 -0.115114 0.046951 0 0 255
-0.185456 -0.133295 0.020008 0 0 255
-0.178943 -0.097056 0.022008 0 0 255
-0.230361 -0.122925 -0.030893 0 0 255
-0.283628 -0.126177 0.033062 0 0 255
-0.227398 -0.117337 -0.029198 0 0 255
-0.185998 -0.160766 0.079311 0 0 255
-0.181332 -0.108647 0.030008 0 0 255
-0.184324 -0.114407 0.040995 0 0 255
-0.244553 -0.130689 0.052008 0 0 255
-0.171827 -0.112442 0.021032 0 0 255
-0.100807 -0.112160 0.041132 0 0 255
-0.211971 -0.158448 0.029079 0 0 255
-0.181860 -0.148158 0.030008 0 0 255
-0.197487 -0.132482 -0.000340 0 0 255
-0.172969 -0.195391 0.092008 0 0 255
-0.143817 -0.017767 0.053258 0 0 255
-0.227915 -0.120432 -0.021992 0 0 255
-0.137690 -0.199267 0.046601 0 0 255
-0.148246 -0.141169 0.054008 0 0 255
-0.232389 -0.207753 0.039118 0 0 255
-0.161241 -0.128408 -0.021992 0 0 255
-0.203203 -0.081816 -0.021992 0 0 255
-0.192560 -0.139390 -0.000531 0 0 255
-0.186287 -0.101911 0.015474 0 0 255
-0.156681 -0.088615 0.054008 0 0 255
-0.284645 -0.132260 0.040008 0 0 255
-0.173295 -0.096971 -0.011992 0 0 255
-0.226863 -0.114146 0.126008 0 0 255
-0.147777 -0.084022 0.056008 0 0 255
-0.225522 -0.125762 -0.033992 0 0 255
-0.139204 -0.002316 0.049150 0 0 255
-0.248190 0.025003 -0.021992 0 0 255
-0.173148 -0.120332 -0.010969 0 0 255
-0.240689 -0.075586 0.056008 0 0 255
-0.197487 -0.132482 -0.008913 0 0 255
-0.212482 -0.071166 0.088008 0 0 255
-0.151045 -0.008446 0.052008 0 0 255
-0.299740 -0.119426 0.034008 0 0 255
-0.182669 -0.049793 0.058008 0 0 255
-0.180848 -0.081527 -0.017992 0 0 255
-0.187098 -0.138276 0.026008 0 0 255
-0.193000 -0.117789 0.068008 0 0 255
-0.144690 -0.074399 0.090008 0 0 255
-0.138278 -0.093723 0.063765 0 0 255
-0.164246 -0.097488 -0.019992 0 0 255
-0.230444 -0.196131 0.044008 0 0 255
-0.177077 -0.095341 0.083313 0 0 255
-0.204636 -0.114615 0.054008 0 0 255
-0.237863 -0.022306 0.040008 0 0 255
-0.163477 -0.162507 0.040008 0 0 255
-0.112619 -0.073683 0.070796 0 0 255
-0.161614 -0.148353 0.034008 0 0 255
-0.288117 -0.056065 0.078008 0 0 255
-0.261511 -0.224250 0.042008 0 0 255
-0.129807 -0.222892 0.052008 0 0 255
-0.154734 -0.119358 0.036146 0 0 255
-0.132023 -0.080575 0.068690 0 0 255
-0.268830 -0.122570 0.039080 0 0 255
-0.208670 -0.138722 0.021018 0 0 255
-0.118375 -0.071731 0.068008 0 0 255
-0.189745 -0.098334 0.012008 0 0 255
-0.218942 -0.078928 0.028008 0 0 255
-0.160545 -0.141962 -0.027992 0 0 255
-0.190233 -0.101251 0.072777 0 0 255
-0.204202 -0.112018 0.060008 0 0 255
-0.317492 -0.122539 0.038689 0 0 255
-0.126469 -0.156447 0.056008 0 0 255
-0.222454 -0.099914 -0.009488 0 0 255
-0.255351 -0.126854 0.035268 0 0 255
-0.223473 -0.166591 0.038008 0 0 255
-0.237921 -0.119632 0.021041 0 0 255
-0.159324 -0.098312 0.049563 0 0 255
-0.247501 -0.189002 0.037020 0 0 255
-0.190995 -0.142162 0.034008 0 0 255
-0.190273 -0.162078 0.046906 0 0 255
-0.172173 -0.138746 -0.040962 0 0 255
-0.101790 -0.105913 0.039021 0 0 255
-0.210483 -0.112056 0.056008 0 0 255
-0.182374 -0.151233 0.035109 0 0 255
-0.308098 -0.126997 0.042008 0 0 255
-0.212592 -0.101564 -0.012971 0 0 255
-0.182674 -0.092438 0.072008 0 0 255
-0.213181 -0.141439 0.076008 0 0 255
-0.211279 -0.105840 0.066432 0 0 255
-0.152221 -0.080098 0.086008 0 0 255
-0.159662 -0.112450 0.029304 0 0 255
-0.207648 -0.084141 0.071034 0 0 255
-0.169211 -0.133158 -0.014919 0 0 255
-0.196504 -0.138729 -0.010924 0 0 255
-0.151441 -0.111798 0.037379 0 0 255
-0.162987 -0.168673 0.109772 0 0 255
-0.158648 -0.070035 0.111373 0 0 255
-0.158687 -0.130863 -0.009896 0 0 255
-0.231862 -0.187564 0.042008 0 0 255
-0.176671 -0.105034 0.058008 0 0 255
-0.236011 -0.132458 0.046008 0 0 255
-0.182397 -0.143118 0.088008 0 0 255
-0.144426 -0.191055 0.044008 0 0 255
-0.229806 -0.131729 0.048008 0 0 255
-0.151651 -0.185759 0.042008 0 0 255
-0.198469 -0.126234 0.021415 0 0 255
-0.143428 -0.209320 0.046008 0 0 255
-0.212592 -0.101564 0.035459 0 0 255
-0.144619 0.001684 0.050008 0 0 255
-0.189389 -0.096210 0.042008 0 0 255
-0.157624 -0.106708 -0.025992 0 0 255
-0.203192 -0.093865 0.020008 0 0 255
-0.192151 -0.112713 0.058008 0 0 255
-0.167859 -0.076606 0.111650 0 0 255
-0.160322 -0.116395 0.057698 0 0 255
-0.172575 -0.098123 0.068008 0 0 255
-0.128607 -0.229811 0.048008 0 0 255
-0.204553 -0.077764 0.090008 0 0 255
-0.250372 -0.206153 0.044008 0 0 255
-0.135469 -0.057692 0.086008 0 0 255
-0.217529 -0.112906 0.098008 0 0 255
-0.207326 -0.094335 0.025374 0 0 255
-0.187769 -0.176692 0.048008 0 0 255
-0.189903 -0.099279 0.029108 0 0 255
-0.165902 -0.083016 0.026008 0 0 255
-0.129335 -0.123609 0.078008 0 0 255
-0.116241 -0.083215 0.063051 0 0 255
-0.182367 -0.139068 0.074798 0 0 255
-0.217215 -0.147431 0.026008 0 0 255
-0.199935 -0.098642 0.058008 0 0 255
-0.232390 -0.124613 -0.021992 0 0 255
-0.135033 -0.159155 0.062281 0 0 255
-0.166014 -0.114057 0.056008 0 0 255
-0.148471 -0.094044 0.059874 0 0 255
-0.186986 -0.160601 0.042008 0 0 255
-0.266873 -0.147232 0.058989 0 0 255
-0.168218 -0.151459 0.100008 0 0 255
-0.252002 -0.034135 0.040905 0 0 255
-0.211659 -0.099693 0.042008 0 0 255
-0.297932 -0.168396 0.058008 0 0 255
-0.176432 -0.115727 0.001208 0 0 255
-0.271981 -0.153522 0.062008 0 0 255
-0.156236 -0.104094 -0.011992 0 0 255
-0.214756 -0.115397 0.106008 0 0 255
-0.175655 -0.111078 0.046008 0 0 255
-0.215884 -0.109125 0.116656 0 0 255
-0.208360 -0.039928 0.102008 0 0 255
-0.146030 -0.103693 0.034008 0 0 255
-0.226400 -0.099255 0.084981 0 0 255
-0.302181 -0.127989 0.036008 0 0 255
-0.180096 -0.186087 0.093489 0 0 255
-0.214734 -0.119457 -0.007992 0 0 255
-0.150733 -0.034860 0.050742 0 0 255
-0.196593 -0.115019 0.082008 0 0 255
-0.215533 -0.143376 -0.007992 0 0 255
-0.274707 -0.060753 0.074758 0 0 255
-0.281938 -0.055487 0.074888 0 0 255
-0.196358 -0.203645 0.056008 0 0 255
-0.294284 -0.129270 0.036008 0 0 255
-0.159164 -0.096311 0.056008 0 0 255
-0.204448 -0.113066 0.008008 0 0 255
-0.152082 -0.103502 -0.019992 0 0 255
-0.176457 -0.152224 0.093733 0 0 255
-0.147834 -0.126596 0.077139 0 0 255
-0.158004 -0.090422 0.048075 0 0 255
-0.134033 -0.080238 0.060008 0 0 255
-0.144666 -0.175793 0.042008 0 0 255
-0.202287 -0.149047 -0.033992 0 0 255
-0.219707 -0.088207 0.048008 0 0 255
-0.141757 -0.090282 0.060008 0 0 255
-0.168542 -0.117047 -0.002039 0 0 255
-0.210323 -0.093833 -0.015992 0 0 255
-0.191015 -0.130158 0.018008 0 0 255
-0.238753 -0.088256 0.058008 0 0 255
-0.173867 -0.088274 0.028008 0 0 255
-0.235562 -0.032831 0.038837 0 0 255
-0.198189 -0.112438 0.030008 0 0 255
-0.175821 -0.184775 0.087057 0 0 255
-0.187177 -0.036872 0.062008 0 0 255
-0.182512 -0.118765 0.024008 0 0 255
-0.199268 -0.118890 0.088008 0 0 255
-0.180077 -0.115117 0.034008 0 0 255
-0.259305 -0.138359 0.057716 0 0 255
-0.241214 -0.127192 0.030830 0 0 255
-0.141326 -0.083073 0.064008 0 0 255
-0.173792 -0.099946 -0.003139 0 0 255
-0.190643 -0.224878 0.052898 0 0 255
-0.208843 -0.112331 0.096008 0 0 255
-0.192289 -0.119157 0.104008 0 0 255
-0.193075 -0.106113 0.030008 0 0 255
-0.255498 -0.067141 0.068008 0 0 255
-0.186633 -0.128215 -0.000543 0 0 255
-0.251108 -0.011979 0.044008 0 0 255
-0.186678 -0.097790 0.056008 0 0 255
-0.182995 -0.094351 -0.008971 0 0 255
-0.184983 -0.118352 -0.008965 0 0 255
-0.191389 -0.108158 -0.003992 0 0 255
-0.179742 -0.147618 -0.035020 0 0 255
-0.234587 -0.051244 0.037437 0 0 255
-0.189605 -0.145968 -0.016983 0 0 255
-0.182044 -0.149260 0.076293 0 0 255
-0.161981 -0.138424 0.045032 0 0 255
-0.194851 -0.090339 0.070008 0 0 255
-0.127182 -0.221304 0.047291 0 0 255
-0.181819 -0.087321 -0.011992 0 0 255
-0.179058 -0.107176 0.023800 0 0 255
-0.202423 -0.109350 0.046008 0 0 255
-0.222374 -0.103983 -0.031992 0 0 255
-0.193347 -0.112897 0.012008 0 0 255
-0.245685 -0.035193 0.040008 0 0 255
-0.179208 -0.047484 0.062008 0 0 255
-0.196912 -0.056344 0.060008 0 0 255
-0.172904 -0.082526 0.106008 0 0 255
-0.179484 -0.158192 -0.019992 0 0 255
-0.252405 -0.145598 0.059056 0 0 255
-0.104593 -0.068943 0.070008 0 0 255
-0.192601 -0.123160 0.004008 0 0 255
-0.183324 -0.096323 0.040712 0 0 255
-0.104422 -0.109527 0.044601 0 0 255
-0.100259 -0.072533 0.072008 0 0 255
-0.194804 -0.177042 0.054008 0 0 255
-0.249793 -0.117872 0.028008 0 0 255
-0.195490 -0.096315 0.015028 0 0 255
-0.164584 -0.117628 0.064008 0 0 255
-0.182004 -0.088433 0.088965 0 0 255
-0.187262 -0.083497 -0.014914 0 0 255
-0.200434 -0.113739 0.072415 0 0 255
-0.205700 -0.120968 0.028374 0 0 255
-0.239763 -0.097018 0.088008 0 0 255
-0.134749 -0.145008 0.054008 0 0 255
-0.160339 -0.140726 0.049923 0 0 255
-0.185299 -0.102076 0.070008 0 0 255
-0.173905 -0.088508 0.076008 0 0 255
-0.221635 -0.110190 0.118008 0 0 255
-0.160024 -0.163085 0.105851 0 0 255
-0.196220 -0.112792 0.076008 0 0 255
-0.255459 -0.018439 0.044008 0 0 255
-0.194086 -0.112158 0.064008 0 0 255
-0.166428 -0.128644 -0.011992 0 0 255
-0.208074 -0.045542 0.100008 0 0 255
-0.206620 -0.098508 0.020008 0 0 255
-0.173108 -0.059504 0.036426 0 0 255
-0.127448 -0.132036 0.076008 0 0 255
-0.225433 -0.129833 0.027093 0 0 255
-0.203071 -0.109241 0.016008 0 0 255
-0.209043 -0.061603 0.092008 0 0 255
-0.182665 -0.140848 0.068008 0 0 255
-0.186642 -0.140380 0.079907 0 0 255
-0.215339 -0.074744 0.028008 0 0 255
-0.169698 -0.148186 0.034008 0 0 255
-0.226415 -0.123585 0.020410 0 0 255
-0.149245 -0.020914 0.052008 0 0 255
-0.224970 -0.107604 -0.027992 0 0 255
-0.177500 -0.125688 0.030008 0 0 255
-0.129732 0.014349 0.054008 0 0 255
-0.200329 -0.083338 0.082008 0 0 255
-0.269466 0.007315 0.046008 0 0 255
-0.151812 -0.174598 0.041518 0 0 255
-0.161171 -0.169942 0.038008 0 0 255
-0.200253 -0.103629 0.026008 0 0 255
-0.115340 -0.138422 0.078008 0 0 255
-0.246638 -0.135367 0.050008 0 0 255
-0.157081 -0.076381 0.082008 0 0 255
-0.259588 0.502190 0.018008 0 255 0
-0.273300 0.577772 0.135008 0 255 0
-0.290908 0.581613 0.012008 0 255 0
-0.252609 0.543892 -0.046932 0 255 0
-0.249773 0.555584 0.068008 0 255 0
-0.221569 0.556947 0.010008 0 255 0
-0.254310 0.521612 0.134008 0 255 0
-0.299392 0.530920 -0.013992 0 255 0
-0.298646 0.535373 0.045849 0 255 0
-0.233849 0.520474 -0.013992 0 255 0
-0.231727 0.559617 0.132008 0 255 0
-0.230288 0.525962 0.040008 0 255 0
-0.273942 0.543406 0.102008 0 255 0
-0.281132 0.572999 0.050008 0 255 0
-0.264791 0.519569 0.058001 0 255 0
-0.291408 0.542273 0.137034 0 255 0
-0.269650 0.514299 -0.029992 0 255 0
-0.286644 0.558626 -0.035992 0 255 0
-0.294162 0.513701 0.018008 0 255 0
-0.308478 0.551213 0.016008 0 255 0
-0.231885 0.558674 -0.022932 0 255 0
-0.236152 0.569527 0.041038 0 255 0
-0.280555 0.546541 0.069873 0 255 0
-0.299011 0.563824 -0.009992 0 255 0
-0.277800 0.505524 -0.003992 0 255 0
-0.234055 0.514425 0.014008 0 255 0
-0.255226 0.564608 0.117177 0 255 0
-0.259525 0.534910 0.082008 0 255 0
-0.278606 0.509714 0.038449 0 255 0
-0.278419 0.535064 -0.041992 0 255 0
-0.251296 0.539616 0.116460 0 255 0
-0.299614 0.559869 0.038008 0 255 0
-0.250114 0.510332 0.040008 0 255 0
-0.252931 0.505612 -0.005992 0 255 0
-0.231387 0.546424 0.054008 0 255 0
-0.221818 0.534011 0.002008 0 255 0
-0.276931 0.556074 0.123520 0 255 0
-0.247163 0.524730 -0.033992 0 255 0
-0.230545 0.548311 0.030008 0 255 0
-0.274834 0.532254 0.124008 0 255 0
-0.237488 0.537307 0.135534 0 255 0
-0.266581 0.557341 0.084008 0 255 0
-0.244106 0.528274 0.058008 0 255 0
-0.294867 0.533725 0.008008 0 255 0
-0.245191 0.576101 0.132008 0 255 0
-0.277302 0.535858 0.052008 0 255 0
-0.269363 0.564946 0.064892 0 255 0
-0.233213 0.538618 -0.026344 0 255 0
-0.285664 0.528131 0.032008 0 255 0
-0.304406 0.534310 0.026008 0 255 0
-0.290358 0.566431 0.134008 0 255 0
-0.223340 0.530883 0.022008 0 255 0
-0.251225 0.570022 0.054008 0 255 0
-0.285774 0.516997 -0.017992 0 255 0
-0.291400 0.554439 0.055448 0 255 0
-0.294537 0.547814 -0.021992 0 255 0
-0.289917 0.575419 0.032008 0 255 0
-0.254548 0.544420 0.098008 0 255 0
-0.305209 0.546611 -0.003992 0 255 0
-0.275017 0.513169 0.016008 0 255 0
-0.223343 0.549134 -0.009323 0 255 0
-0.259847 0.536992 0.063022 0 255 0
-0.301520 0.566669 0.008008 0 255 0
-0.294513 0.516431 -0.001992 0 255 0
-0.254927 0.517918 -0.018999 0 255 0
-0.228592 0.566234 0.025204 0 255 0
-0.286819 0.521228 0.049500 0 255 0
-0.247343 0.551122 0.129158 0 255 0
-0.290839 0.532039 -0.029992 0 255 0
-0.263800 0.525487 -0.042093 0 255 0
-0.242276 0.520811 0.028008 0 255 0
-0.263649 0.514271 0.030008 0 255 0
-0.259616 0.567371 0.136008 0 255 0
-0.249508 0.513949 0.008008 0 255 0
-0.274986 0.531348 0.068008 0 255 0
-0.247344 0.545039 0.056008 0 255 0
-0.274725 0.541509 0.084008 0 255 0
-0.266808 0.507512 -0.015992 0 255 0
-0.295023 0.544906 0.033019 0 255 0
-0.271381 0.522700 0.044008 0 255 0
-0.276524 0.522158 0.136008 0 255 0
-0.264310 0.510325 0.004008 0 255 0
-0.246365 0.526624 0.042008 0 255 0
-0.234311 0.524608 0.002008 0 255 0
-0.297970 0.563649 0.023025 0 255 0
-0.268719 0.544560 0.117000 0 255 0
-0.252835 0.550013 0.082008 0 255 0
-0.270513 0.570195 0.122008 0 255 0
-0.237689 0.560341 0.054008 0 255 0
-0.244606 0.506890 0.022008 0 255 0
-0.247021 0.540929 0.071059 0 255 0
-0.264469 0.509376 0.044827 0 255 0
-0.260349 0.533990 0.128008 0 255 0
-0.227276 0.543708 0.014008 0 255 0
-0.266739 0.556396 0.098938 0 255 0
-0.226870 0.533501 -0.011992 0 255 0
-0.289765 0.539971 0.058895 0 255 0
-0.266841 0.574663 0.054008 0 255 0
-0.242265 0.545119 -0.035992 0 255 0
-0.239086 0.511212 -0.001992 0 255 0
-0.298288 0.521119 0.030008 0 255 0
-0.285929 0.506884 0.008008 0 255 0
-0.262199 0.535050 0.106008 0 255 0
-0.236090 0.539100 0.042008 0 255 0
-0.277938 0.525825 -0.027049 0 255 0
-0.275680 0.563550 0.136008 0 255 0
-0.229732 0.556286 0.042008 0 255 0
-0.229252 0.562290 -0.009004 0 255 0
-0.271595 0.503141 0.026008 0 255 0
-0.257428 0.551446 0.110008 0 255 0
-0.277592 0.552128 0.057021 0 255 0
-0.285834 0.521062 0.008008 0 255 0
-0.250983 0.517258 0.052780 0 255 0
-0.242115 0.564441 0.124008 0 255 0
-0.266584 0.545208 0.072008 0 255 0
-0.278711 0.544204 0.132008 0 255 0
-0.289579 0.553200 0.128008 0 255 0
-0.287088 0.543851 -0.035992 0 255 0
-0.278888 0.580735 0.039023 0 255 0
-0.257058 0.529424 0.052008 0 255 0
-0.288775 0.545888 0.045024 0 255 0
-0.302324 0.525511 0.016008 0 255 0
-0.284952 0.508148 0.026008 0 255 0
-0.288108 0.561999 0.045020 0 255 0
-0.224578 0.537173 0.034008 0 255 0
-0.281231 0.518264 -0.004998 0 255 0
-0.277122 0.518588 0.028008 0 255 0
-0.306964 0.540821 0.008008 0 255 0
-0.245363 0.562957 0.136595 0 255 0
-0.244173 0.512063 -0.013992 0 255 0
-0.298351 0.543435 0.018008 0 255 0
-0.300699 0.553967 0.006008 0 255 0
-0.237497 0.525141 -0.025402 0 255 0
-0.289942 0.526798 0.020008 0 255 0
-0.301940 0.527813 -0.000869 0 255 0
-0.304272 0.552538 0.028008 0 255 0
-0.229695 0.519780 0.026008 0 255 0
-0.289737 0.515909 0.038008 0 255 0
-0.258542 0.520551 0.043024 0 255 0
-0.285280 0.531109 0.134008 0 255 0
-0.273682 0.502786 0.008008 0 255 0
-0.266040 0.536334 0.094008 0 255 0
-0.234374 0.531681 0.028008 0 255 0
-0.278268 0.523852 0.058480 0 255 0
-0.255104 0.504745 0.030008 0 255 0
-0.247772 0.536442 0.128008 0 255 0
-0.238879 0.516873 0.040008 0 255 0
-0.252617 0.531726 -0.042720 0 255 0
-0.233057 0.527436 0.014008 0 255 0
-0.222352 0.555052 0.022222 0 255 0
-0.281798 0.563352 0.060008 0 255 0
-0.255720 0.573771 0.126008 0 255 0
-0.273185 0.517879 -0.017992 0 255 0
-0.265937 0.536950 -0.045992 0 255 0
-0.270684 0.557055 0.113047 0 255 0
-0.242895 0.553467 0.118008 0 255 0
-0.292553 0.559669 -0.023992 0 255 0
-0.257309 0.518317 -0.031992 0 255 0
-0.263465 0.545708 0.086008 0 255 0
-0.233704 0.547808 0.130008 0 255 0
-0.254593 0.513807 0.022008 0 255 0
-0.284838 0.533063 0.043028 0 255 0
-0.289941 0.526805 -0.005992 0 255 0
-0.271352 0.540945 0.061038 0 255 0
-0.300611 0.547869 0.043124 0 255 0
-0.263005 0.561854 0.126008 0 255 0
-0.272884 0.556024 0.074008 0 255 0
-0.234831 0.532806 0.052008 0 255 0
-0.221850 0.545934 0.002008 0 255 0
-0.263069 0.529860 0.072008 0 255 0
-0.255388 0.503050 0.006008 0 255 0
-0.280869 0.568899 0.127077 0 255 0
-0.255560 0.526135 0.064008 0 255 0
-0.287646 0.528403 -0.017992 0 255 0
-0.297810 0.552491 -0.011992 0 255 0
-0.230326 0.546246 -0.017992 0 255 0
-0.245056 0.528434 0.135758 0 255 0
-0.225872 0.545501 0.042008 0 255 0
-0.266102 0.523845 0.131642 0 255 0
-0.296351 0.524850 0.040576 0 255 0
-0.296650 0.571539 -0.000949 0 255 0
-0.297005 0.539154 -0.001992 0 255 0
-0.227209 0.555864 0.000008 0 255 0
-0.275813 0.514290 0.004008 0 255 0
-0.269903 0.513252 -0.005992 0 255 0
-0.222231 0.543652 0.024008 0 255 0
-0.255226 0.564608 0.062878 0 255 0
-0.301254 0.541894 -0.013992 0 255 0
-0.294104 0.574633 0.020008 0 255 0
-0.264675 0.532374 0.118008 0 255 0
-0.273670 0.514972 0.051508 0 255 0
-0.299438 0.518522 0.008008 0 255 0
-0.241090 0.533853 -0.033992 0 255 0
-0.244948 0.522332 -0.017992 0 255 0
-0.251764 0.561058 0.128008 0 255 0
-0.241108 0.521690 -0.005992 0 255 0
-0.222934 0.526759 0.010008 0 255 0
-0.242013 0.510269 0.032008 0 255 0
-0.271809 0.549133 0.092008 0 255 0
-0.293782 0.534560 0.028008 0 255 0
-0.303047 0.538138 0.036008 0 255 0
-0.263484 0.503140 -0.003992 0 255 0
-0.266945 0.530927 0.056008 0 255 0
-0.258206 0.552940 0.092008 0 255 0
-0.272350 0.522862 -0.036097 0 255 0
-0.256062 0.547489 0.072008 0 255 0
-0.287396 0.529899 0.056008 0 255 0
-0.244716 0.536487 0.050008 0 255 0
-0.241874 0.538040 0.062008 0 255 0
-0.278617 0.509649 -0.013992 0 255 0
-0.225823 0.558548 0.032008 0 255 0
-0.239136 0.551691 0.060008 0 255 0
-0.241419 0.521741 0.050008 0 255 0
-0.269140 0.505698 0.036008 0 255 0
-0.295154 0.519884 -0.011992 0 255 0
-0.253261 0.552112 0.119632 0 255 0
-0.281207 0.554761 0.134518 0 255 0
-0.253120 0.516600 0.032008 0 255 0
-0.289629 0.572392 0.042008 0 255 0
-0.241640 0.544084 0.124008 0 255 0
-0.270493 0.533966 0.078008 0 255 0
-0.238096 0.551603 0.048008 0 255 0
-0.253285 0.515616 -0.009013 0 255 0
-0.242180 0.507674 0.012008 0 255 0
-0.227304 0.525462 -0.005511 0 255 0
-0.273999 0.537251 0.112008 0 255 0
-0.245065 0.516268 0.017007 0 255 0
-0.283204 0.518595 0.019046 0 255 0
-0.256578 0.508056 -0.015351 0 255 0
-0.264445 0.545873 0.105033 0 255 0
-0.227921 0.539760 -0.003992 0 255 0
-0.235092 0.532850 -0.017992 0 255 0
-0.292245 0.537273 -0.019992 0 255 0
-0.278583 0.546210 0.121658 0 255 0
-0.246158 0.561063 0.060008 0 255 0
-0.264809 0.562156 0.074008 0 255 0
-0.259162 0.577433 0.134808 0 255 0
-0.286666 0.510022 -0.001992 0 255 0
-0.297199 0.568254 0.032008 0 255 0
-0.265435 0.509538 0.014008 0 255 0
-0.231030 0.515315 0.004008 0 255 0
-0.305484 0.530864 0.008008 0 255 0
-0.239071 0.553793 0.136008 0 255 0
-0.303369 0.556442 -0.003992 0 255 0
-0.254226 0.542135 0.088008 0 255 0
-0.236325 0.568491 0.132008 0 255 0
-0.246747 0.506216 0.002008 0 255 0
-0.261971 0.512179 -0.023992 0 255 0
-0.236678 0.512837 0.024008 0 255 0
-0.241445 0.519718 0.008008 0 255 0
-0.286143 0.549504 0.062312 0 255 0
-0.274622 0.569882 0.057660 0 255 0
-0.254259 0.534029 0.072976 0 255 0
-0.282858 0.544899 0.053095 0 255 0
-0.255761 0.512941 0.000008 0 255 0
-0.303961 0.560597 0.016008 0 255 0
-0.279433 0.504775 0.018008 0 255 0
-0.279277 0.524021 0.038008 0 255 0
-0.256546 0.556718 0.074810 0 255 0
-0.278298 0.515746 -0.025992 0 255 0
-0.221477 0.536044 0.014008 0 255 0
-0.296988 0.557402 0.046910 0 255 0
-0.249009 0.516929 -0.027390 0 255 0
-0.257222 0.528441 -0.035014 0 255 0
-0.271224 0.517472 0.036008 0 255 0
-0.307001 0.538800 0.018008 0 255 0
-0.278905 0.556403 0.066628 0 255 0
-0.251957 0.535672 0.057079 0 255 0
-0.292757 0.552638 0.038008 0 255 0
-0.274975 0.531413 0.133445 0 255 0
-0.238479 0.531389 0.037054 0 255 0
-0.281553 0.528457 -0.035986 0 255 0
-0.295023 0.544906 0.052060 0 255 0
-0.236490 0.555389 0.125016 0 255 0
-0.287630 0.523391 -0.025992 0 255 0
-0.292384 0.514048 0.028008 0 255 0
-0.288918 0.581386 0.024008 0 255 0
-0.244388 0.544544 0.135184 0 255 0
-0.265577 0.575456 0.128008 0 255 0
-0.277584 0.564294 0.119045 0 255 0
-0.267745 0.526147 0.064808 0 255 0
-0.282536 0.534705 0.063660 0 255 0
-0.227280 0.561959 0.017036 0 255 0
-0.295355 0.573351 0.010008 0 255 0
-0.230904 0.534177 0.004008 0 255 0
-0.274536 0.551617 0.082008 0 255 0
-0.233024 0.563987 0.034008 0 255 0
-0.252781 0.542863 0.064008 0 255 0
-0.291151 0.538175 0.038008 0 255 0
-0.226122 0.527293 0.030008 0 255 0
-0.255918 0.512000 0.047078 0 255 0
-0.237996 0.522157 0.020008 0 255 0
-0.247208 0.515578 -0.001992 0 255 0
-0.258740 0.507254 0.038008 0 255 0
-0.253177 0.528382 0.128008 0 255 0
-0.271352 0.540945 0.124928 0 255 0
-0.229268 0.537959 0.023050 0 255 0
-0.227626 0.535655 0.042435 0 255 0
-0.252609 0.543892 0.124365 0 255 0
-0.255820 0.532262 0.120008 0 255 0
-0.259823 0.543072 0.118008 0 255 0
-0.246355 0.563123 0.116008 0 255 0
-0.285116 0.561499 0.124008 0 255 0
-0.254580 0.540167 0.106008 0 255 0
-0.263737 0.501627 0.010008 0 255 0
-0.291730 0.552466 0.136738 0 255 0
-0.251249 0.503546 0.014008 0 255 0
-0.232765 0.516238 -0.005992 0 255 0
-0.234864 0.528756 -0.009059 0 255 0
-0.248322 0.539119 -0.039992 0 255 0
-0.226204 0.523250 0.018008 0 255 0
-0.296135 0.532925 0.018008 0 255 0
-0.237473 0.561637 0.045172 0 255 0
-0.305493 0.542928 0.028008 0 255 0
-0.289436 0.541943 -0.027039 0 255 0
-0.300107 0.529535 0.034008 0 255 0
-0.273995 0.549390 0.110008 0 255 0
-0.292970 0.528340 0.048008 0 255 0
-0.288474 0.513393 -0.009992 0 255 0
-0.280561 0.514097 0.046008 0 255 0
-0.273105 0.549349 0.066008 0 255 0
-0.267475 0.566657 0.132008 0 255 0
-0.264286 0.546818 0.096008 0 255 0
-0.305169 0.536465 0.000008 0 255 0
-0.233704 0.547804 -0.025992 0 255 0
-0.292313 0.512633 0.006008 0 255 0
-0.283513 0.559203 0.052008 0 255 0
-0.277447 0.528755 0.046008 0 255 0
-0.275109 0.579081 0.048008 0 255 0
-0.248983 0.533146 0.066008 0 255 0
-0.287132 0.543586 0.129488 0 255 0
-0.282038 0.549799 -0.039992 0 255 0
-0.291730 0.552466 -0.028851 0 255 0
-0.263966 0.524491 0.050008 0 255 0
-0.269894 0.513304 0.024008 0 255 0
-0.277688 0.539434 0.074008 0 255 0
-0.228410 0.555204 -0.013992 0 255 0
-0.235016 0.515729 0.032008 0 255 0
-0.262801 0.503014 0.026008 0 255 0
-0.233213 0.538618 0.033011 0 255 0
-0.252067 0.541774 0.078008 0 255 0
-0.256090 0.510972 0.014008 0 255 0
-0.296816 0.558428 0.030008 0 255 0
-0.271030 0.530752 -0.041275 0 255 0
-0.295337 0.567265 -0.016938 0 255 0
-0.262005 0.511977 -0.009992 0 255 0
-0.240443 0.543884 0.051053 0 255 0
-0.293892 0.527430 0.002008 0 255 0
-0.298341 0.555601 0.020008 0 255 0
-0.300088 0.545754 0.010008 0 255 0
-0.259179 0.553102 0.101008 0 255 0
-0.269739 0.502116 0.016008 0 255 0
-0.280209 0.572844 0.134988 0 255 0
-0.248153 0.570516 0.124008 0 255 0
-0.250290 0.569865 0.134460 0 255 0
-0.300845 0.564131 0.000008 0 255 0
-0.263748 0.513681 0.052008 0 255 0
-0.220838 0.548715 0.012008 0 255 0
-0.295017 0.528683 -0.021992 0 255 0
-0.299314 0.519263 0.021892 0 255 0
-0.224649 0.541321 -0.013992 0 255 0
-0.245382 0.548766 0.066008 0 255 0
-0.264305 0.522472 -0.033992 0 255 0
-0.280233 0.536348 0.128837 0 255 0
-0.285533 0.523040 -0.011992 0 255 0
-0.301925 0.552136 0.036008 0 255 0
-0.270024 0.561001 0.121636 0 255 0
-0.259264 0.528359 0.134008 0 255 0
-0.291722 0.564632 0.037080 0 255 0
-0.223378 0.547111 0.034008 0 255 0
-0.299867 0.568023 0.016008 0 255 0
-0.268133 0.535946 0.086008 0 255 0
-0.260678 0.544147 0.078008 0 255 0
-0.287898 0.521408 0.000008 0 255 0
-0.246240 0.526604 -0.025992 0 255 0
-0.232542 0.548645 0.038008 0 255 0
-0.256570 0.520221 0.058198 0 255 0
-0.286899 0.508626 0.018008 0 255 0
-0.291921 0.527090 0.012008 0 255 0
-0.301957 0.535927 -0.007992 0 255 0
-0.245171 0.515633 0.046008 0 255 0
-0.263328 0.516190 0.038008 0 255 0
-0.260507 0.533046 -0.041016 0 255 0
-0.247330 0.520702 0.036008 0 255 0
-0.258518 0.557048 0.082906 0 255 0
-0.268397 0.534367 0.128975 0 255 0
-0.288520 0.553957 0.046008 0 255 0
-0.246031 0.546847 -0.042942 0 255 0
-0.272542 0.541144 0.094008 0 255 0
-0.230863 0.540545 0.048008 0 255 0
-0.266750 0.550315 0.080008 0 255 0
-0.244710 0.554737 0.055023 0 255 0
-0.262456 0.569873 0.123088 0 255 0
-0.272379 0.510571 0.044008 0 255 0
-0.238051 0.511039 0.006008 0 255 0
-0.303139 0.525986 0.024008 0 255 0
-0.241714 0.566403 0.050008 0 255 0
-0.296657 0.559375 -0.017124 0 255 0
-0.300044 0.545747 0.002008 0 255 0
-0.225172 0.562431 0.004008 0 255 0
-0.273210 0.551395 0.118008 0 255 0
-0.280410 0.523174 -0.019992 0 255 0
-0.232215 0.556702 0.049566 0 255 0
-0.249002 0.529093 0.049066 0 255 0
-0.271892 0.506563 -0.009992 0 255 0
-0.297722 0.547386 0.026008 0 255 0
-0.228883 0.533839 0.012008 0 255 0
-0.279258 0.517934 -0.012948 0 255 0
-0.262165 0.511018 0.021038 0 255 0
-0.282205 0.536677 -0.035268 0 255 0
-0.293882 0.536604 0.052008 0 255 0
-0.259274 0.536896 0.098008 0 255 0
-0.235486 0.525034 0.046008 0 255 0
-0.293521 0.578113 0.004008 0 255 0
-0.285520 0.523038 0.026008 0 255 0
-0.287117 0.567917 0.050130 0 255 0
-0.260155 0.541099 0.070008 0 255 0
-0.220647 0.541002 0.008008 0 255 0
-0.228718 0.537867 -0.019992 0 255 0
-0.285359 0.510844 0.034008 0 255 0
-0.269985 0.537001 0.104008 0 255 0
-0.293796 0.534562 -0.009992 0 255 0
-0.299629 0.541621 -0.021595 0 255 0
-0.225540 0.527195 0.002008 0 255 0
-0.239047 0.533511 -0.025992 0 255 0
-0.228009 0.521250 0.008008 0 255 0
-0.270385 0.510366 -0.022215 0 255 0
-0.271541 0.503466 0.000008 0 255 0
-0.249787 0.512287 -0.019992 0 255 0
-0.258205 0.534689 0.113115 0 255 0
-0.253235 0.503792 0.022008 0 255 0
-0.283832 0.563312 0.136501 0 255 0
-0.259442 0.536925 0.090008 0 255 0
-0.269587 0.551489 0.104008 0 255 0
-0.281867 0.550816 0.126722 0 255 0
-0.237158 0.539279 0.056058 0 255 0
-0.286051 0.577878 0.038008 0 255 0
-0.306645 0.548879 0.008008 0 255 0
-0.266011 0.572862 0.136008 0 255 0
-0.241361 0.531870 0.044008 0 255 0
-0.285821 0.539310 0.047089 0 255 0
-0.298581 0.525224 -0.007992 0 255 0
-0.298006 0.545406 -0.005992 0 255 0
-0.301078 0.552003 0.014008 0 255 0
-0.280605 0.516132 0.012008 0 255 0
-0.283195 0.530760 -0.029014 0 255 0
-0.274137 0.572776 0.128008 0 255 0
-0.236697 0.542037 -0.031992 0 255 0
-0.277200 0.506004 0.030008 0 255 0
-0.270565 0.521418 -0.027992 0 255 0
-0.262818 0.519238 -0.027071 0 255 0
-0.230259 0.532041 -0.003089 0 255 0
-0.236168 0.545197 0.136522 0 255 0
-0.265616 0.514636 -0.017992 0 255 0
-0.299098 0.539504 0.006008 0 255 0
-0.270684 0.557055 0.067023 0 255 0
-0.279336 0.505351 0.004008 0 255 0
-0.231301 0.526132 -0.017992 0 255 0
-0.276609 0.545880 0.077854 0 255 0
-0.248341 0.533039 -0.035057 0 255 0
-0.242024 0.515759 -0.019992 0 255 0
-0.262836 0.527353 0.126008 0 255 0
-0.240949 0.528744 -0.019992 0 255 0
-0.247213 0.515545 0.024008 0 255 0
-0.226803 0.540570 0.004008 0 255 0
-0.236828 0.541251 0.129119 0 255 0
-0.275957 0.537660 0.119040 0 255 0
-0.279227 0.566597 0.053052 0 255 0
-0.275387 0.559871 0.060008 0 255 0
-0.271447 0.510544 0.010008 0 255 0
-0.291621 0.522031 -0.017992 0 255 0
-0.246176 0.508343 -0.005992 0 255 0
-0.290410 0.560357 0.129015 0 255 0
-0.232187 0.538447 -0.011992 0 255 0
-0.304863 0.552636 -0.009992 0 255 0
-0.227287 0.549793 0.023044 0 255 0
-0.249992 0.523176 0.057381 0 255 0
-0.305229 0.556623 0.022008 0 255 0
-0.230080 0.550261 0.046008 0 255 0
-0.230323 0.521912 0.034008 0 255 0
-0.241609 0.524803 0.034008 0 255 0
-0.245709 0.536654 0.134937 0 255 0
-0.221942 0.552954 0.004008 0 255 0
-0.282757 0.509144 -0.007992 0 255 0
-0.299689 0.559882 0.010008 0 255 0
-0.271534 0.527742 0.050008 0 255 0
-0.232397 0.531377 0.020008 0 255 0
-0.276940 0.543908 0.057064 0 255 0
-0.284910 0.556869 0.060008 0 255 0
-0.251261 0.521361 0.042008 0 255 0
-0.306319 0.546796 0.022008 0 255 0
-0.255746 0.537264 -0.045992 0 255 0
-0.225564 0.553561 0.016008 0 255 0
-0.246461 0.556390 0.134008 0 255 0
-0.252279 0.545864 0.113147 0 255 0
-0.304496 0.532297 0.016008 0 255 0
-0.222467 0.536820 0.026008 0 255 0
-0.256090 0.559446 0.122008 0 255 0
-0.296824 0.570494 -0.007992 0 255 0
-0.253784 0.524751 -0.029992 0 255 0
-0.252583 0.549971 0.064008 0 255 0
-0.284043 0.537818 0.136008 0 255 0
-0.222154 0.550962 0.028008 0 255 0
-0.254892 0.523996 0.048008 0 255 0
-0.276272 0.560018 0.129918 0 255 0
-0.240460 0.519553 0.001019 0 255 0
-0.265097 0.554093 0.091015 0 255 0
-0.248672 0.506833 0.028008 0 255 0
-0.252230 0.576274 0.132008 0 255 0
-0.250788 0.551698 0.074008 0 255 0
-0.302532 0.548505 -0.015992 0 255 0
-0.248859 0.517832 -0.013992 0 255 0
-0.290307 0.560970 0.052008 0 255 0
-0.306500 0.544799 0.014008 0 255 0
-0.293769 0.571058 0.026008 0 255 0
-0.250282 0.509325 -0.011992 0 255 0
-0.257544 0.538634 0.122888 0 255 0
-0.255569 0.514086 -0.025992 0 255 0
-0.244702 0.566903 0.056494 0 255 0
-0.305868 0.552805 0.001399 0 255 0
-0.265602 0.538954 0.120008 0 255 0
-0.227939 0.558014 0.025059 0 255 0
-0.297063 0.539165 0.024008 0 255 0
-0.285566 0.549407 0.136008 0 255 0
-0.220023 0.542494 0.016008 0 255 0
-0.231731 0.571711 0.028008 0 255 0
-0.283512 0.575425 0.044008 0 255 0
-0.303096 0.560452 0.032008 0 255 0
-0.282834 0.581394 0.033030 0 255 0
-0.282617 0.516468 0.004008 0 255 0
-0.287827 0.533563 -0.023992 0 255 0
-0.280571 0.522210 -0.032268 0 255 0
-0.281384 0.541589 -0.039992 0 255 0
-0.284321 0.543115 0.064008 0 255 0
-0.290906 0.521035 0.044008 0 255 0
-0.234848 0.553087 0.054740 0 255 0
-0.271523 0.527804 0.128008 0 255 0
-0.239139 0.527443 0.053008 0 255 0
-0.301730 0.541183 0.044008 0 255 0
-0.284901 0.551324 0.052008 0 255 0
-0.247710 0.548929 0.122008 0 255 0
-0.236168 0.545197 0.045068 0 255 0
-0.260515 0.520881 0.136724 0 255 0
-0.295210 0.531676 -0.003992 0 255 0
-0.296005 0.551154 0.049551 0 255 0
-0.262980 0.542505 0.112008 0 255 0
-0.237209 0.521037 -0.019992 0 255 0
-0.263156 0.505100 0.032843 0 255 0
-0.270801 0.568476 0.138008 0 255 0
-0.280068 0.513097 -0.019992 0 255 0
-0.299910 0.521391 0.000008 0 255 0
-0.256118 0.547159 0.104008 0 255 0
-0.230596 0.517903 0.018682 0 255 0
-0.226279 0.549625 0.008008 0 255 0
-0.241112 0.527773 -0.031008 0 255 0
-0.304837 0.558964 0.004008 0 255 0
-0.229938 0.552265 -0.021992 0 255 0
-0.242069 0.570517 0.129083 0 255 0
-0.275120 0.543603 0.114008 0 255 0
-0.294934 0.563141 0.044008 0 255 0
-0.258221 0.510358 0.006917 0 255 0
-0.226313 0.531380 0.036956 0 255 0
-0.244710 0.554737 0.062208 0 255 0
-0.220024 0.548578 0.020008 0 255 0
-0.250298 0.557700 0.117398 0 255 0
-0.224253 0.555369 -0.005992 0 255 0
-0.260675 0.532044 0.058008 0 255 0
-0.297648 0.553457 -0.020257 0 255 0
-0.239770 0.509298 0.018008 0 255 0
-0.252287 0.533699 0.132064 0 255 0
-0.232241 0.532373 -0.023992 0 255 0
-0.260371 0.509624 -0.003992 0 255 0
-0.237473 0.561637 0.134673 0 255 0
-0.275166 0.530273 -0.035992 0 255 0
-0.226207 0.549613 -0.001992 0 255 0
-0.266095 0.536009 0.061024 0 255 0
-0.228497 0.521607 0.000008 0 255 0
-0.233849 0.571169 0.035041 0 255 0
-0.237336 0.526097 0.026008 0 255 0
-0.281567 0.522377 0.032008 0 255 0
-0.276646 0.515470 0.022008 0 255 0
-0.266321 0.534656 0.112008 0 255 0
-0.295013 0.536793 -0.025992 0 255 0
-0.246691 0.542901 0.129194 0 255 0
-0.237914 0.515072 -0.009992 0 255 0
-0.307474 0.544962 0.002008 0 255 0
-0.223767 0.535010 -0.005992 0 255 0
-0.271533 0.515627 -0.011992 0 255 0
-0.290748 0.546219 0.057036 0 255 0
-0.254844 0.560489 0.068008 0 255 0
-0.253266 0.564196 0.136008 0 255 0
-0.244056 0.512043 0.038008 0 255 0
-0.250165 0.522143 -0.021992 0 255 0
-0.269830 0.530551 0.072008 0 255 0
-0.281052 0.519333 0.052008 0 255 0
-0.294541 0.520492 0.036008 0 255 0
-0.271974 0.522799 0.060008 0 255 0
-0.278091 0.552212 0.072008 0 255 0
-0.229252 0.562290 0.039457 0 255 0
-0.257415 0.563642 0.130008 0 255 0
-0.225913 0.551591 0.038008 0 255 0
-0.237311 0.562606 0.128008 0 255 0
-0.298156 0.538300 0.014008 0 255 0
-0.265201 0.504997 -0.009992 0 255 0
-0.257238 0.504110 -0.001347 0 255 0
-0.256900 0.518249 0.037029 0 255 0
-0.268568 0.569700 0.060008 0 255 0
-0.265270 0.540939 0.066008 0 255 0
-0.272186 0.535963 0.056008 0 255 0
-0.250569 0.556084 0.124008 0 255 0
-0.284143 0.512983 0.040008 0 255 0
-0.300992 0.533473 0.040008 0 255 0
-0.290565 0.510953 0.012008 0 255 0
-0.298004 0.557572 -0.007992 0 255 0
-0.269387 0.528450 0.134790 0 255 0
-0.239932 0.571173 0.046008 0 255 0
-0.228119 0.544821 -0.007992 0 255 0
-0.231698 0.530253 0.046008 0 255 0
-0.258212 0.522524 -0.037357 0 255 0
-0.229544 0.542060 0.028008 0 255 0
-0.300121 0.550793 -0.001992 0 255 0
-0.296027 0.545075 -0.015992 0 255 0
-0.304113 0.546427 0.034008 0 255 0
-0.251305 0.527452 0.134609 0 255 0
-0.261497 0.527130 0.066252 0 255 0
-0.305611 0.556818 0.010008 0 255 0
-0.272546 0.551284 0.098008 0 255 0
-0.229068 0.525758 -0.011992 0 255 0
-0.296212 0.514688 0.012008 0 255 0
-0.286303 0.525197 -0.031992 0 255 0
-0.283798 0.518694 -0.023992 0 255 0
-0.239980 0.522418 -0.013992 0 255 0
-0.240103 0.543827 0.060008 0 255 0
-0.259509 0.551130 0.085051 0 255 0
-0.284268 0.524351 0.056008 0 255 0
-0.249157 0.503933 0.008008 0 255 0
-0.224322 0.529019 0.016008 0 255 0
-0.261660 0.501922 0.004008 0 255 0
-0.289242 0.537856 -0.031992 0 255 0
-0.239398 0.519375 0.014008 0 255 0
-0.287872 0.521404 0.014008 0 255 0
-0.222306 0.540849 -0.007992 0 255 0
-0.257539 0.502313 0.012008 0 255 0
-0.289610 0.528784 0.026008 0 255 0
-0.302215 0.525831 0.006008 0 255 0
-0.275815 0.514277 -0.003992 0 255 0
-0.291752 0.558554 0.040008 0 255 0
-0.250637 0.507207 0.034008 0 255 0
-0.246878 0.517554 -0.007992 0 255 0
-0.270241 0.511232 0.002008 0 255 0
-0.286795 0.557724 0.134511 0 255 0
-0.226441 0.525318 0.024008 0 255 0
-0.296844 0.534021 0.002008 0 255 0
-0.289612 0.528771 -0.011992 0 255 0
-0.281421 0.505010 0.012008 0 255 0
-0.271547 0.515542 0.030008 0 255 0
-0.257707 0.549780 0.078008 0 255 0
-0.292619 0.571387 0.036008 0 255 0
-0.251172 0.557846 0.062008 0 255 0
-0.279224 0.540235 0.124008 0 255 0
-0.279581 0.528128 0.136170 0 255 0
-0.241557 0.537224 0.130008 0 255 0
-0.297163 0.551348 0.032008 0 255 0
-0.258987 0.505780 -0.009992 0 255 0
-0.303243 0.542226 -0.007992 0 255 0
-0.241919 0.559303 0.120008 0 255 0
-0.266763 0.519899 0.136430 0 255 0
-0.264791 0.519569 0.043035 0 255 0
-0.288955 0.532703 0.036008 0 255 0
-0.257329 0.515687 0.054008 0 255 0
-0.235695 0.523787 0.008008 0 255 0
-0.269693 0.562973 0.127517 0 255 0
-0.259533 0.514633 -0.015024 0 255 0
-0.239453 0.549802 0.123055 0 255 0
-0.240121 0.533691 0.057961 0 255 0
-0.268757 0.550650 0.074008 0 255 0
-0.222182 0.531831 0.032008 0 255 0
-0.272455 0.543158 0.108008 0 255 0
-0.298613 0.535572 -0.017992 0 255 0
-0.269057 0.530422 0.122791 0 255 0
-0.292720 0.546549 0.039032 0 255 0
-0.270394 0.534702 0.118008 0 255 0
-0.279473 0.528771 0.062008 0 255 0
-0.231133 0.556521 0.036008 0 255 0
-0.231937 0.522008 -0.007992 0 255 0
-0.243828 0.542423 0.066008 0 255 0
-0.222038 0.532693 0.008638 0 255 0
-0.285152 0.555422 0.123044 0 255 0
-0.243402 0.520045 0.022008 0 255 0
-0.226292 0.561794 0.010008 0 255 0
-0.300244 0.553891 0.042008 0 255 0
-0.240400 0.532024 0.134008 0 255 0
-0.229041 0.531837 -0.017992 0 255 0
-0.279226 0.506011 0.024008 0 255 0
-0.250306 0.545534 0.073499 0 255 0
-0.239460 0.537636 0.047075 0 255 0
-0.293569 0.546691 -0.027992 0 255 0
-0.284549 0.528959 0.038008 0 255 0
-0.291237 0.579649 0.018008 0 255 0
-0.244043 0.570847 0.134914 0 255 0
-0.234848 0.553087 0.043049 0 255 0
-0.286185 0.567761 0.044008 0 255 0
-0.300136 0.519401 0.014008 0 255 0
-0.298193 0.569770 0.022008 0 255 0
-0.275397 0.572039 0.052008 0 255 0
-0.295049 0.526661 -0.015992 0 255 0
-0.268245 0.547393 0.110008 0 255 0
-0.253531 0.538377 0.128008 0 255 0
-0.254425 0.569391 0.122008 0 255 0
-0.281760 0.539338 0.068008 0 255 0
-0.251305 0.527452 -0.037477 0 255 0
-0.272689 0.508724 -0.016685 0 255 0
-0.221035 0.536580 0.020008 0 255 0
-0.229268 0.537959 0.017010 0 255 0
-0.249324 0.539287 0.122248 0 255 0
-0.285804 0.563642 0.055400 0 255 0
-0.255564 0.550470 0.096965 0 255 0
-0.302533 0.560357 0.026008 0 255 0
-0.256794 0.548648 0.116008 0 255 0
-0.255617 0.546423 0.092008 0 255 0
-0.242179 0.521395 -0.025992 0 255 0
-0.274159 0.536292 0.130008 0 255 0
-0.251479 0.514290 0.016008 0 255 0
-0.254836 0.530579 0.068008 0 255 0
-0.246885 0.517505 0.030008 0 255 0
-0.264637 0.532603 0.078008 0 255 0
-0.232711 0.553735 0.130008 0 255 0
-0.292397 0.576912 0.026008 0 255 0
-0.257398 0.515272 0.028008 0 255 0
-0.247352 0.538957 0.055067 0 255 0
-0.292720 0.546549 0.133033 0 255 0
-0.227178 0.543692 0.020008 0 255 0
-0.296669 0.553293 0.026008 0 255 0
-0.234627 0.520604 0.038008 0 255 0
-0.299343 0.549685 0.020008 0 255 0
-0.241425 0.550132 0.053034 0 255 0
-0.280563 0.534375 0.047020 0 255 0
-0.233529 0.542727 -0.021992 0 255 0
-0.285763 0.569719 0.132008 0 255 0
-0.233477 0.542719 0.038008 0 255 0
-0.269250 0.517154 -0.023992 0 255 0
-0.235846 0.535003 -0.030832 0 255 0
-0.295080 0.538832 -0.013992 0 255 0
-0.245238 0.515231 0.004008 0 255 0
-0.274301 0.561717 0.066008 0 255 0
-0.222378 0.542782 0.030008 0 255 0
-0.255060 0.553484 0.070008 0 255 0
-0.274332 0.553611 0.062008 0 255 0
-0.255520 0.520046 -0.025992 0 255 0
-0.245898 0.520463 0.054008 0 255 0
-0.231844 0.528250 0.006008 0 255 0
-0.249002 0.529093 0.061667 0 255 0
-0.296662 0.565459 -0.003992 0 255 0
-0.269913 0.552871 0.086008 0 255 0
-0.284265 0.512255 -0.013992 0 255 0
-0.267761 0.501816 0.005675 0 255 0
-0.292200 0.532267 -0.015992 0 255 0
-0.261224 0.523028 0.062008 0 255 0
-0.274843 0.520089 -0.023992 0 255 0
-0.297536 0.529888 0.044008 0 255 0
-0.274983 0.519247 0.055337 0 255 0
-0.266909 0.531146 -0.045992 0 255 0
-0.290481 0.511458 0.022008 0 255 0
-0.240436 0.556050 0.051034 0 255 0
-0.297067 0.539164 -0.007992 0 255 0
-0.222691 0.540913 -0.001605 0 255 0
-0.274307 0.547523 0.086182 0 255 0
-0.243538 0.561745 0.054008 0 255 0
-0.283856 0.526815 -0.022975 0 255 0
-0.297488 0.541263 0.048008 0 255 0
-0.255795 0.540370 0.094008 0 255 0
-0.273663 0.527137 0.063511 0 255 0
-0.306259 0.536647 0.012008 0 255 0
-0.243246 0.539254 -0.033992 0 255 0
-0.269396 0.516284 0.055225 0 255 0
-0.265112 0.529761 0.130781 0 255 0
-0.225137 0.541322 0.038008 0 255 0
-0.267609 0.526960 -0.037992 0 255 0
-0.264279 0.558977 0.094008 0 255 0
-0.290434 0.523860 0.004955 0 255 0
-0.269065 0.518257 -0.034142 0 255 0
-0.286473 0.547531 0.125337 0 255 0
-0.278244 0.560349 0.055034 0 255 0
-0.235708 0.523708 -0.003992 0 255 0
-0.269818 0.537995 0.098008 0 255 0
-0.281301 0.550721 0.066008 0 255 0
-0.225645 0.547491 -0.014926 0 255 0
-0.245371 0.550791 0.134559 0 255 0
-0.269721 0.544727 0.066008 0 255 0
-0.274983 0.519247 -0.030915 0 255 0
-0.275624 0.503301 0.014008 0 255 0
-0.231555 0.560646 0.045484 0 255 0
-0.257224 0.528432 -0.041992 0 255 0
-0.301609 0.529785 -0.006373 0 255 0
-0.248341 0.533039 0.053133 0 255 0
-0.248825 0.566505 0.120008 0 255 0
-0.286666 0.522137 -0.005992 0 255 0
-0.289521 0.553548 -0.033992 0 255 0
-0.265680 0.502134 0.020008 0 255 0
-0.224533 0.561500 0.022008 0 255 0
-0.273584 0.503376 0.020008 0 255 0
-0.286480 0.535366 0.059484 0 255 0
-0.276279 0.547854 0.061105 0 255 0
-0.285519 0.516878 0.046008 0 255 0
-0.248608 0.549306 0.060008 0 255 0
-0.303244 0.534115 0.032008 0 255 0
-0.255233 0.538247 0.084008 0 255 0
-0.276924 0.568239 0.123054 0 255 0
0.092937 0.512429 -0.035585 255 0 255
0.145551 0.529985 -0.039992 255 0 255
0.048575 0.532019 -0.041992 255 0 255
0.131389 0.487734 -0.039992 255 0 255
0.056170 0.488165 -0.041992 255 0 255
0.113339 0.537404 -0.040888 255 0 255
0.084903 0.485383 -0.039992 255 0 255
0.076512 0.535455 -0.039076 255 0 255
0.121238 0.511904 -0.035992 255 0 255
0.066702 0.510736 -0.035992 255 0 255
0.108050 0.493677 -0.046890 255 0 255
0.146725 0.506672 -0.037992 255 0 255
0.048400 0.512870 -0.039992 255 0 255
0.095908 0.530182 -0.040852 255 0 255
0.128130 0.528845 -0.035635 255 0 255
0.071883 0.495674 -0.040957 255 0 255
0.108726 0.521953 -0.035840 255 0 255
0.063026 0.527573 -0.035594 255 0 255
0.096214 0.495658 -0.036018 255 0 255
0.079789 0.518684 -0.040740 255 0 255
0.118573 0.495972 -0.035957 255 0 255
0.131889 0.502842 -0.041992 255 0 255
0.107428 0.507976 -0.041992 255 0 255
0.136342 0.517333 -0.040844 255 0 255
0.059065 0.503902 -0.046899 255 0 255
0.083717 0.501804 -0.035992 255 0 255
0.054303 0.499675 -0.035992 255 0 255
0.135698 0.537718 -0.040925 255 0 255
0.059404 0.518040 -0.042963 255 0 255
0.105673 0.487992 -0.035992 255 0 255
0.140832 0.494274 -0.035992 255 0 255
0.085385 0.527887 -0.035628 255 0 255
0.124490 0.494981 -0.046962 255 0 255
0.069964 0.484211 -0.041992 255 0 255
0.118262 0.524414 -0.041992 255 0 255
0.095554 0.491713 -0.046897 255 0 255
0.076008 0.508202 -0.041992 255 0 255
0.114959 0.486437 -0.041992 255 0 255
0.093589 0.504208 -0.042988 255 0 255
0.052173 0.523306 -0.036421 255 0 255
0.058362 0.530382 -0.045992 255 0 255
0.104576 0.533508 -0.035992 255 0 255
0.098203 0.519659 -0.040866 255 0 255
0.123532 0.537726 -0.039157 255 0 255
0.108708 0.499650 -0.035992 255 0 255
0.063332 0.493049 -0.036029 255 0 255
0.070257 0.522308 -0.040897 255 0 255
0.079443 0.492381 -0.046920 255 0 255
0.079443 0.492381 -0.035254 255 0 255
0.145566 0.519844 -0.037992 255 0 255
0.126479 0.518983 -0.040817 255 0 255
0.115618 0.502550 -0.042985 255 0 255
0.066320 0.535133 -0.040828 255 0 255
0.099838 0.505191 -0.035603 255 0 255
0.136656 0.494974 -0.044667 255 0 255
0.086705 0.535777 -0.040807 255 0 255
0.136020 0.527525 -0.040785 255 0 255
0.064329 0.492882 -0.045992 255 0 255
0.113653 0.515046 -0.040853 255 0 255
0.088156 0.495971 -0.041992 255 0 255
0.128631 0.496316 -0.035992 255 0 255
0.131076 0.510102 -0.036084 255 0 255
0.055842 0.508878 -0.035992 255 0 255
0.094727 0.486771 -0.037992 255 0 255
0.066775 0.501504 -0.035992 255 0 255
0.057374 0.534603 -0.037992 255 0 255
0.088663 0.517200 -0.041992 255 0 255
0.082657 0.511587 -0.035992 255 0 255
0.116294 0.530826 -0.035677 255 0 255
0.104432 0.526728 -0.041992 255 0 255
0.123416 0.488562 -0.035992 255 0 255
0.137976 0.502864 -0.035612 255 0 255
0.103778 0.514671 -0.035992 255 0 255
0.114305 0.506825 -0.035758 255 0 255
0.075192 0.527565 -0.036268 255 0 255
0.116270 0.494329 -0.044938 255 0 255
0.052173 0.523306 -0.044858 255 0 255
0.139178 0.510044 -0.043992 255 0 255
0.123838 0.503202 -0.035745 255 0 255
0.091870 0.522746 -0.035992 255 0 255
0.056867 0.496159 -0.043992 255 0 255
0.063678 0.519353 -0.035882 255 0 255
0.074997 0.502165 -0.035992 255 0 255
0.103017 0.487836 -0.043992 255 0 255
0.073212 0.515729 -0.035659 255 0 255
0.139345 0.511041 -0.035992 255 0 255
0.052915 0.508987 -0.045992 255 0 255
0.102462 0.496640 -0.040869 255 0 255
0.143564 0.499901 -0.040869 255 0 255
0.072090 0.489556 -0.035992 255 0 255
0.120562 0.519973 -0.035713 255 0 255
0.098855 0.511439 -0.040896 255 0 255
0.087358 0.527557 -0.042988 255 0 255
0.062068 0.485494 -0.037992 255 0 255
0.061698 0.507517 -0.040797 255 0 255
0.091617 0.504538 -0.035730 255 0 255
0.088332 0.509144 -0.040878 255 0 255
0.099269 0.525563 -0.035992 255 0 255
0.133057 0.521938 -0.036019 255 0 255
0.050641 0.505312 -0.039992 255 0 255
0.106761 0.534449 -0.042978 255 0 255
0.111689 0.527541 -0.040965 255 0 255
0.093805 0.536617 -0.037992 255 0 255
0.055112 0.492397 -0.035740 255 0 255
0.055128 0.516728 -0.035277 255 0 255
0.073549 0.529867 -0.042965 255 0 255
0.086650 0.491175 -0.035992 255 0 255
0.078016 0.484508 -0.041992 255 0 255
0.111995 0.493017 -0.035922 255 0 255
0.131406 0.512074 -0.042964 255 0 255
0.140232 0.522764 -0.043992 255 0 255
0.088976 0.488758 -0.044689 255 0 255
0.071223 0.491729 -0.046909 255 0 255
0.133065 0.534103 -0.035506 255 0 255
0.062517 0.500292 -0.041992 255 0 255
0.078461 0.498629 -0.040929 255 0 255
0.069935 0.532500 -0.035599 255 0 255
0.085707 0.517694 -0.035633 255 0 255
0.145875 0.513709 -0.040954 255 0 255
0.069589 0.506197 -0.040887 255 0 255
0.122212 0.529836 -0.040878 255 0 255
0.122525 0.507478 -0.040967 255 0 255
0.064825 0.514088 -0.041992 255 0 255
0.052996 0.516104 -0.043992 255 0 255
0.137976 0.502864 -0.044945 255 0 255
0.139635 0.524893 -0.035731 255 0 255
0.081770 0.530520 -0.040735 255 0 255
0.125143 0.486761 -0.042218 255 0 255
0.058421 0.524288 -0.040909 255 0 255
0.121205 0.499588 -0.040930 255 0 255
0.128789 0.532791 -0.040932 255 0 255
0.130078 0.492019 -0.044848 255 0 255
0.134292 0.492965 -0.035992 255 0 255
0.115211 0.524354 -0.035992 255 0 255
0.106093 0.518338 -0.040890 255 0 255
0.091395 0.530937 -0.035992 255 0 255
0.141285 0.534755 -0.039039 255 0 255
0.110851 0.498299 -0.041992 255 0 255
0.080771 0.512437 -0.042968 255 0 255
0.080498 0.522916 -0.035992 255 0 255
0.131245 0.523227 -0.041992 255 0 255
0.055136 0.528893 -0.035703 255 0 255
0.074140 0.509160 -0.035992 255 0 255
0.100843 0.535439 -0.040923 255 0 255
0.107389 0.505955 -0.035992 255 0 255
0.060716 0.513766 -0.035676 255 0 255
0.130094 0.516350 -0.036223 255 0 255
0.119901 0.516028 -0.040913 255 0 255
0.067302 0.528885 -0.040889 255 0 255
0.131728 0.501882 -0.035652 255 0 255
0.109362 0.489402 -0.042435 255 0 255
0.112670 0.521294 -0.040885 255 0 255
0.058413 0.512122 -0.044892 255 0 255
0.060566 0.500750 -0.035992 255 0 255
0.078419 0.486260 -0.035992 255 0 255
0.110772 0.534184 -0.035992 255 0 255
0.051497 0.495030 -0.041070 255 0 255
0.107743 0.528201 -0.035485 255 0 255
0.117241 0.488017 -0.035992 255 0 255
0.081754 0.506189 -0.040859 255 0 255
0.105425 0.502228 -0.040852 255 0 255
0.116773 0.509451 -0.041992 255 0 255
0.126965 0.497651 -0.041992 255 0 255
0.138813 0.532101 -0.043992 255 0 255
0.048634 0.519842 -0.039992 255 0 255
0.085691 0.493363 -0.046959 255 0 255
0.101801 0.492695 -0.035845 255 0 255
0.068614 0.524610 -0.035504 255 0 255
0.111350 0.513403 -0.035470 255 0 255
0.139695 0.518799 -0.035992 255 0 255
0.088346 0.496975 -0.035992 255 0 255
0.096874 0.499603 -0.040902 255 0 255
0.140115 0.515644 -0.045992 255 0 255
0.121551 0.525891 -0.036084 255 0 255
0.127139 0.522927 -0.035304 255 0 255
0.074201 0.521647 -0.035919 255 0 255
0.125488 0.513065 -0.040866 255 0 255
0.070579 0.512115 -0.040933 255 0 255
0.087341 0.503226 -0.040911 255 0 255
0.064339 0.523298 -0.040931 255 0 255
0.061384 0.529876 -0.040866 255 0 255
0.054148 0.529059 -0.041992 255 0 255
0.084402 0.534135 -0.035604 255 0 255
-0.029189 -0.144657 -0.043992 0 255 255
-0.104059 -0.101476 -0.045992 0 255 255
-0.008904 -0.096148 -0.045992 0 255 255
-0.080693 -0.147970 -0.043992 0 255 255
-0.056360 -0.101029 -0.039992 0 255 255
-0.005023 -0.126161 -0.041992 0 255 255
-0.055807 -0.131858 -0.037992 0 255 255
-0.032420 -0.115493 -0.046967 0 255 255
-0.081742 -0.119406 -0.038408 0 255 255
-0.102466 -0.134188 -0.046944 0 255 255
-0.078281 -0.098727 -0.045992 0 255 255
-0.037338 -0.096419 -0.043071 0 255 255
-0.064971 -0.116129 -0.046961 0 255 255
-0.010990 -0.144968 -0.039992 0 255 255
-0.063498 -0.143682 -0.049992 0 255 255
-0.015649 -0.112216 -0.038283 0 255 255
-0.099825 -0.118408 -0.039548 0 255 255
-0.045532 -0.139660 -0.049992 0 255 255
-0.022565 -0.129309 -0.038552 0 255 255
-0.046887 -0.117127 -0.038479 0 255 255
-0.073529 -0.130920 -0.046973 0 255 255
-0.096667 -0.148004 -0.039992 0 255 255
-0.088328 -0.134527 -0.038691 0 255 255
-0.039005 -0.130614 -0.038456 0 255 255
-0.089624 -0.105920 -0.038884 0 255 255
