ply
format ascii 1.0
element vertex 1283
property float x
property float y
property float z
property uchar red
property uchar green
property uchar blue
end_header
-0.762656 1.713611 -0.128107 255 0 255
-0.746184 1.540999 -0.162108 255 0 255
-0.898307 1.537158 -0.166107 255 0 255
-0.879791 1.653128 -0.166938 255 0 255
-0.776605 1.715323 -0.116108 255 0 255
-0.868641 1.715207 -0.146107 255 0 255
-0.782968 1.677530 -0.162108 255 0 255
-0.752292 1.589222 -0.162322 255 0 255
-0.797013 1.686650 -0.166932 255 0 255
-0.766844 1.713147 -0.152107 255 0 255
-0.725169 1.659111 -0.162812 255 0 255
-0.889050 1.715381 -0.060108 255 0 255
-0.881284 1.626863 -0.162665 255 0 255
-0.778628 1.715429 0.011892 255 0 255
-0.972857 1.552273 -0.154108 255 0 255
-0.860350 1.715734 -0.090108 255 0 255
-0.727784 1.714144 -0.140108 255 0 255
-0.772548 1.715169 -0.128107 255 0 255
-0.921070 1.660938 -0.168108 255 0 255
-0.852668 1.723016 -0.004174 255 0 255
-0.685504 1.662948 -0.153899 255 0 255
-0.852292 1.715165 -0.084108 255 0 255
-0.721338 1.715611 -0.058107 255 0 255
-0.961124 1.674505 -0.153913 255 0 255
-0.666385 1.589365 -0.152978 255 0 255
-0.706834 1.552979 -0.153738 255 0 255
-0.768956 1.722453 -0.006107 255 0 255
-0.828045 1.713805 -0.158108 255 0 255
-0.877665 1.634274 -0.166993 255 0 255
-0.953648 1.546145 -0.153991 255 0 255
-0.836424 1.722484 -0.146107 255 0 255
-0.912469 1.715280 -0.034108 255 0 255
-0.803282 1.714869 -0.120108 255 0 255
-0.848560 1.723102 0.003893 255 0 255
-0.696949 1.657202 -0.153953 255 0 255
-0.817313 1.629623 -0.162337 255 0 255
-0.732332 1.683125 -0.166978 255 0 255
-0.935324 1.699691 -0.167080 255 0 255
-0.663371 1.709360 -0.172725 255 0 255
-0.980120 1.546659 -0.168108 255 0 255
-0.855456 1.719519 -0.169065 255 0 255
-0.923198 1.631684 -0.161494 255 0 255
-0.855017 1.586911 -0.162108 255 0 255
-0.990413 1.705266 -0.166107 255 0 255
-0.672982 1.693001 -0.153140 255 0 255
-0.794387 1.722896 -0.084108 255 0 255
-0.874433 1.707195 -0.161610 255 0 255
-0.831730 1.715707 -0.070108 255 0 255
-0.860446 1.696043 -0.162018 255 0 255
-0.813701 1.713953 -0.084108 255 0 255
-0.729714 1.705060 -0.166983 255 0 255
-0.746546 1.577777 -0.161915 255 0 255
-0.659990 1.667747 -0.162108 255 0 255
-0.883491 1.722300 -0.140108 255 0 255
-0.812398 1.614266 -0.161503 255 0 255
-0.717438 1.714719 -0.154302 255 0 255
-0.735754 1.715126 0.005893 255 0 255
-0.824354 1.663836 -0.162060 255 0 255
-0.741809 1.715496 -0.100107 255 0 255
-0.694945 1.676248 -0.160107 255 0 255
-0.883023 1.714880 -0.090108 255 0 255
-0.958506 1.696440 -0.159000 255 0 255
-0.783230 1.539863 -0.162108 255 0 255
-0.821811 1.646938 -0.162062 255 0 255
-0.842103 1.715001 -0.102108 255 0 255
-0.686023 1.554689 -0.153958 255 0 255
-0.870617 1.715529 -0.070108 255 0 255
-0.742263 1.722980 -0.104107 255 0 255
-0.732852 1.574867 -0.162364 255 0 255
-0.756592 1.655567 -0.166898 255 0 255
-0.688660 1.628859 -0.153472 255 0 255
-0.883012 1.714930 -0.102108 255 0 255
-0.766695 1.598418 -0.162229 255 0 255
-0.905375 1.715538 -0.068107 255 0 255
-0.977171 1.579771 -0.153956 255 0 255
-0.723826 1.713526 -0.004107 255 0 255
-0.782099 1.622139 -0.162095 255 0 255
-0.893605 1.713192 -0.160107 255 0 255
-0.913650 1.715082 -0.042108 255 0 255
-0.677263 1.663240 -0.153248 255 0 255
-0.672717 1.617291 -0.153735 255 0 255
-0.833885 1.715189 -0.126108 255 0 255
-0.915647 1.715305 -0.132107 255 0 255
-0.754711 1.616318 -0.161888 255 0 255
-0.815475 1.715225 -0.124107 255 0 255
-0.811412 1.715103 -0.052108 255 0 255
-0.691543 1.682633 -0.153955 255 0 255
-0.763448 1.567058 -0.162108 255 0 255
-0.837915 1.715466 -0.050107 255 0 255
-0.935843 1.591433 -0.153562 255 0 255
-0.698782 1.667815 -0.153782 255 0 255
-0.868578 1.715501 -0.024108 255 0 255
-0.699982 1.633310 -0.153444 255 0 255
-0.819881 1.713737 -0.154108 255 0 255
-0.727808 1.714030 -0.132107 255 0 255
-0.851401 1.632781 -0.161978 255 0 255
-0.694085 1.699531 -0.153224 255 0 255
-0.874770 1.715228 -0.092107 255 0 255
-0.977757 1.596252 -0.153511 255 0 255
-0.972304 1.593049 -0.152870 255 0 255
-0.959734 1.594467 -0.153746 255 0 255
-0.799063 1.715481 -0.040107 255 0 255
-0.705341 1.579243 -0.153856 255 0 255
-0.837928 1.715405 -0.094108 255 0 255
-0.754155 1.715127 -0.096107 255 0 255
-0.731706 1.618735 -0.162108 255 0 255
-0.767205 1.653733 -0.161934 255 0 255
-0.682886 1.684883 -0.153857 255 0 255
-0.796369 1.723317 -0.056108 255 0 255
-0.789707 1.576729 -0.162256 255 0 255
-0.801275 1.560785 -0.162480 255 0 255
-0.792910 1.619377 -0.168108 255 0 255
-0.780672 1.715431 -0.126108 255 0 255
-0.741783 1.715619 -0.112108 255 0 255
-0.833215 1.722970 -0.012107 255 0 255
-0.758227 1.715209 0.018229 255 0 255
-0.833231 1.722974 -0.088108 255 0 255
-0.780645 1.715558 -0.000108 255 0 255
-0.690759 1.715182 -0.153522 255 0 255
-0.949386 1.672009 -0.153268 255 0 255
-0.697931 1.575623 -0.153401 255 0 255
-0.716818 1.636889 -0.164108 255 0 255
-0.667236 1.681556 -0.153466 255 0 255
-0.788907 1.715165 -0.116108 255 0 255
-0.788649 1.697140 -0.162184 255 0 255
-0.774431 1.715931 -0.144108 255 0 255
-0.760656 1.578732 -0.162104 255 0 255
-0.964138 1.554510 -0.153458 255 0 255
-0.783491 1.721406 0.009892 255 0 255
-0.768559 1.714702 -0.060108 255 0 255
-0.798071 1.566237 -0.162124 255 0 255
-0.735779 1.715008 -0.034108 255 0 255
-0.909529 1.715230 -0.112108 255 0 255
-0.803770 1.549047 -0.162592 255 0 255
-0.771581 1.681243 -0.161566 255 0 255
-0.725462 1.667352 -0.166943 255 0 255
-0.921918 1.714663 -0.058107 255 0 255
-0.854833 1.722449 -0.156107 255 0 255
-0.797674 1.664299 -0.161946 255 0 255
-0.664136 1.580708 -0.153722 255 0 255
-0.813501 1.714891 0.001892 255 0 255
-0.759701 1.592842 -0.161946 255 0 255
-0.777648 1.633461 -0.161820 255 0 255
-0.797129 1.714962 -0.126108 255 0 255
-0.850692 1.626496 -0.169083 255 0 255
-0.799829 1.615685 -0.169034 255 0 255
-0.833039 1.594118 -0.169052 255 0 255
-0.706929 1.610250 -0.153165 255 0 255
-0.724440 1.556722 -0.169106 255 0 255
-0.897243 1.715317 -0.126108 255 0 255
-0.927943 1.628603 -0.166934 255 0 255
-0.973523 1.654649 -0.153194 255 0 255
-0.875237 1.722649 -0.046108 255 0 255
-0.889343 1.714005 -0.134108 255 0 255
-0.738031 1.665934 -0.169034 255 0 255
-0.759484 1.545768 -0.169080 255 0 255
-0.797086 1.715163 -0.084108 255 0 255
-0.834258 1.655716 -0.161702 255 0 255
-0.752693 1.538191 -0.170107 255 0 255
-0.834873 1.720159 -0.160107 255 0 255
-0.824275 1.721921 -0.064107 255 0 255
-0.813012 1.563280 -0.169047 255 0 255
-0.966312 1.601999 -0.153436 255 0 255
-0.825860 1.714468 -0.116108 255 0 255
-0.914390 1.711598 -0.166933 255 0 255
-0.743266 1.622064 -0.169089 255 0 255
-0.820422 1.566900 -0.169046 255 0 255
-0.756375 1.608493 -0.169070 255 0 255
-0.723828 1.723135 -0.094108 255 0 255
-0.979345 1.627261 -0.158997 255 0 255
-0.873780 1.565974 -0.169101 255 0 255
-0.773027 1.626345 -0.169092 255 0 255
-0.826726 1.662294 -0.169101 255 0 255
-0.781050 1.578978 -0.169065 255 0 255
-0.901972 1.635351 -0.161547 255 0 255
-0.802862 1.591793 -0.161740 255 0 255
-0.681960 1.631524 -0.161062 255 0 255
-0.785436 1.721873 -0.032108 255 0 255
-0.770793 1.713809 -0.072107 255 0 255
-0.855389 1.594779 -0.169069 255 0 255
-0.738598 1.586312 -0.169084 255 0 255
-0.779143 1.722621 -0.100107 255 0 255
-0.907798 1.723378 -0.150108 255 0 255
-0.742312 1.636174 -0.169055 255 0 255
-0.580710 1.665370 -0.154108 0 255 0
-0.612633 1.563284 -0.160107 0 255 0
-0.544310 1.596132 -0.157117 0 255 0
-0.614633 1.717402 -0.161090 0 255 0
-0.551289 1.717211 -0.168108 0 255 0
-0.614620 1.621273 -0.168108 0 255 0
-0.551860 1.637569 -0.174107 0 255 0
-0.567627 1.563391 -0.174107 0 255 0
-0.585515 1.594666 -0.152413 0 255 0
-0.614797 1.678588 -0.168108 0 255 0
-0.544678 1.680042 -0.158108 0 255 0
-0.581083 1.702093 -0.155051 0 255 0
-0.579987 1.630296 -0.153105 0 255 0
-0.614662 1.649934 -0.153966 0 255 0
-0.616523 1.593079 -0.157467 0 255 0
-0.585468 1.566031 -0.153431 0 255 0
-0.556559 1.653942 -0.153494 0 255 0
-0.553629 1.571532 -0.153234 0 255 0
-0.553430 1.620562 -0.153156 0 255 0
-0.558930 1.666714 -0.174107 0 255 0
-0.557372 1.692964 -0.174107 0 255 0
-0.556129 1.584331 -0.174107 0 255 0
-0.604682 1.696886 -0.154361 0 255 0
-0.552511 1.610143 -0.174107 0 255 0
-0.594636 1.570998 -0.174107 0 255 0
-0.597423 1.615600 -0.153165 0 255 0
-0.592726 1.647316 -0.161090 0 255 0
-0.566388 1.684657 -0.154652 0 255 0
-0.571991 1.610194 -0.161107 0 255 0
-0.550722 1.700640 -0.154108 0 255 0
-0.602678 1.667834 -0.154535 0 255 0
-0.609086 1.656928 -0.173060 0 255 0
-0.589154 1.683362 -0.160995 0 255 0
-0.605293 1.602960 -0.172108 0 255 0
-0.563996 1.590093 -0.153665 0 255 0
-0.600996 1.579555 -0.153156 0 255 0
-0.594239 1.717156 -0.161048 0 255 0
-0.609719 1.702045 -0.173020 0 255 0
-0.567798 1.716496 -0.156107 0 255 0
-0.612574 1.577927 -0.174107 0 255 0
-0.573250 1.647265 -0.160107 0 255 0
-0.608207 1.632205 -0.153247 0 255 0
-0.606959 1.638073 -0.171107 0 255 0
-0.571235 1.575274 -0.161062 0 255 0
-0.548935 1.638009 -0.156107 0 255 0
-0.613333 1.610803 -0.154108 0 255 0
-0.565461 1.631298 -0.161089 0 255 0
-0.566973 1.701138 -0.163099 0 255 0
-0.561473 1.669299 -0.154271 0 255 0
-0.586470 1.580556 -0.161041 0 255 0
-0.594097 1.631251 -0.160990 0 255 0
-0.558713 1.605327 -0.153370 0 255 0
-0.615418 1.684855 -0.153280 0 255 0
-0.601166 1.597994 -0.153729 0 255 0
-0.551697 1.652908 -0.170107 0 255 0
-0.617620 1.664876 -0.160728 0 255 0
-0.581971 1.563242 -0.168352 0 255 0
-0.586933 1.607235 -0.161032 0 255 0
-0.554044 1.569575 -0.168239 0 255 0
-0.618240 1.701812 -0.158108 0 255 0
-0.552767 1.623684 -0.168108 0 255 0
-0.576292 1.676538 -0.163087 0 255 0
-0.615521 1.578553 -0.158944 0 255 0
-0.558376 1.678864 -0.166107 0 255 0
-0.545913 1.665545 -0.158108 0 255 0
-0.605412 1.587633 -0.166107 0 255 0
-0.598140 1.564130 -0.162108 0 255 0
-0.570911 1.562937 -0.154108 0 255 0
-0.577294 1.691063 -0.163076 0 255 0
-0.601724 1.681943 -0.154810 0 255 0
-0.567864 1.619995 -0.152107 0 255 0
-0.549894 1.583005 -0.160107 0 255 0
-0.574902 1.596499 -0.161029 0 255 0
-0.591772 1.661427 -0.161076 0 255 0
-0.608103 1.690409 -0.166107 0 255 0
-0.550010 1.703667 -0.168108 0 255 0
-0.552359 1.596744 -0.170107 0 255 0
-0.593237 1.702631 -0.161036 0 255 0
-0.580545 1.714247 -0.160936 0 255 0
-0.569421 1.660765 -0.161049 0 255 0
-0.603727 1.710995 -0.153901 0 255 0
-0.553865 1.714710 -0.155307 0 255 0
-0.617156 1.638196 -0.160838 0 255 0
-0.546731 1.608915 -0.158108 0 255 0
-0.583361 1.643281 -0.152930 0 255 0
-0.580941 1.616186 -0.153741 0 255 0
-0.601676 1.653307 -0.153910 0 255 0
-0.561426 1.640664 -0.153293 0 255 0
-0.549559 1.691303 -0.164108 0 255 0
-0.575441 1.584347 -0.153187 0 255 0
-0.604001 1.623132 -0.161044 0 255 0
-0.608979 1.715147 -0.172108 0 255 0
-0.594588 1.590461 -0.161023 0 255 0
-0.607888 1.648495 -0.164108 0 255 0
-0.607582 1.668876 -0.166107 0 255 0
-0.617695 1.626043 -0.157463 0 255 0
-0.602821 1.575854 -0.166107 0 255 0
-0.591520 1.672233 -0.154108 0 255 0
-0.545384 1.653611 -0.158108 0 255 0
-0.602999 1.608607 -0.161067 0 255 0
-0.597900 1.638193 -0.152107 0 255 0
-0.555064 1.688384 -0.154108 0 255 0
-0.613865 1.602736 -0.164108 0 255 0
-0.593360 1.692434 -0.154873 0 255 0
-0.560962 1.613984 -0.160993 0 255 0
-0.558176 1.660419 -0.164108 0 255 0
-0.558025 1.709460 -0.174107 0 255 0
-0.575365 1.623179 -0.161074 0 255 0
-0.590307 1.620222 -0.161017 0 255 0
-0.559077 1.589046 -0.164108 0 255 0
-0.576193 1.571191 -0.174107 0 255 0
-0.583238 1.653479 -0.161009 0 255 0
-0.569742 1.601538 -0.152351 0 255 0
-0.560941 1.565988 -0.160107 0 255 0
-0.612619 1.674036 -0.154108 0 255 0
-0.608036 1.613767 -0.172979 0 255 0
-0.550736 1.671105 -0.168108 0 255 0
-0.561398 1.579317 -0.152107 0 255 0
-0.561813 1.706176 -0.154733 0 255 0
-0.574581 1.655727 -0.152719 0 255 0
-0.544871 1.708929 -0.158108 0 255 0
-0.589617 1.710041 -0.153901 0 255 0
-0.562401 1.573396 -0.174107 0 255 0
-0.618190 1.691049 -0.162108 0 255 0
-0.578957 1.683239 -0.154990 0 255 0
-0.607157 1.589044 -0.152592 0 255 0
-0.606991 1.570587 -0.154108 0 255 0
-0.585780 1.670376 -0.163064 0 255 0
-0.608417 1.703814 -0.162108 0 255 0
-0.572133 1.696101 -0.154800 0 255 0
-0.564289 1.598334 -0.161044 0 255 0
-0.547854 1.627554 -0.159106 0 255 0
-0.553383 1.591926 -0.153432 0 255 0
-0.553655 1.643101 -0.164108 0 255 0
-0.608745 1.620050 -0.151905 0 255 0
-0.553793 1.676570 -0.154108 0 255 0
-0.572039 1.638830 -0.153937 0 255 0
-0.606124 1.627673 -0.172108 0 255 0
-0.563259 1.651277 -0.161076 0 255 0
-0.598963 1.627594 -0.152107 0 255 0
-0.607744 1.658688 -0.162108 0 255 0
-0.606722 1.566460 -0.168108 0 255 0
-0.603047 1.637242 -0.161013 0 255 0
-0.588783 1.569676 -0.164108 0 255 0
-0.558455 1.577682 -0.162108 0 255 0
-0.582652 1.636997 -0.161023 0 255 0
-0.581064 1.605989 -0.152682 0 255 0
-0.591677 1.604155 -0.152493 0 255 0
-0.562768 1.692066 -0.160964 0 255 0
-0.570839 1.673335 -0.154558 0 255 0
-0.591630 1.575520 -0.152857 0 255 0
-0.579476 1.574981 -0.153467 0 255 0
-0.559592 1.630050 -0.152906 0 255 0
-0.610626 1.659300 -0.152412 0 255 0
-0.572452 1.563265 -0.164108 0 255 0
-0.608084 1.642402 -0.152856 0 255 0
-0.593463 1.586133 -0.152049 0 255 0
-0.572011 1.706299 -0.154599 0 255 0
-0.589060 1.626090 -0.152880 0 255 0
-0.550994 1.685473 -0.172108 0 255 0
-0.583162 1.692311 -0.154787 0 255 0
-0.558000 1.709455 -0.164108 0 255 0
-0.582434 1.589922 -0.161038 0 255 0
-0.589523 1.652770 -0.153346 0 255 0
-0.553260 1.602124 -0.161032 0 255 0
-0.610947 1.600072 -0.153398 0 255 0
-0.567200 1.584640 -0.161049 0 255 0
-0.594465 1.600658 -0.161098 0 255 0
-0.565631 1.649735 -0.151897 0 255 0
-0.600769 1.696054 -0.163082 0 255 0
-0.576339 1.705173 -0.163069 0 255 0
-0.604436 1.717279 -0.161070 0 255 0
-0.596686 1.676784 -0.161004 0 255 0
-0.606520 1.597086 -0.162108 0 255 0
-0.558144 1.699262 -0.166107 0 255 0
-0.606884 1.676907 -0.161030 0 255 0
-0.595665 1.566154 -0.153256 0 255 0
-0.608282 1.593371 -0.172956 0 255 0
-0.558883 1.623765 -0.161050 0 255 0
-0.551283 1.616015 -0.162108 0 255 0
-0.617818 1.615846 -0.160510 0 255 0
-0.614691 1.709236 -0.166107 0 255 0
-0.566656 1.678580 -0.162108 0 255 0
-0.552623 1.633979 -0.164108 0 255 0
-0.576415 1.666341 -0.163092 0 255 0
-0.596100 1.660302 -0.152371 0 255 0
-0.596667 1.580679 -0.161052 0 255 0
-0.612519 1.708775 -0.154108 0 255 0
-0.611999 1.573715 -0.166107 0 255 0
-0.567739 1.572485 -0.153185 0 255 0
-0.607071 1.681036 -0.172108 0 255 0
-0.554480 1.663723 -0.153148 0 255 0
-0.578586 1.569549 -0.162108 0 255 0
-0.614512 1.631401 -0.166107 0 255 0
-0.588937 1.636288 -0.153782 0 255 0
-0.569790 1.630173 -0.153233 0 255 0
-0.551391 1.579235 -0.168108 0 255 0
-0.613339 1.694635 -0.153796 0 255 0
-0.563552 1.659518 -0.152995 0 255 0
-0.565707 1.610903 -0.153112 0 255 0
-0.559564 1.697519 -0.154477 0 255 0
-0.575318 1.594543 -0.152263 0 255 0
-0.546286 1.692652 -0.155892 0 255 0
-0.584731 1.627214 -0.161023 0 255 0
-0.584684 1.598579 -0.161035 0 255 0
-0.615786 1.654263 -0.161709 0 255 0
-0.551967 1.661145 -0.174107 0 255 0
-0.608757 1.615964 -0.164108 0 255 0
-0.598520 1.687397 -0.160999 0 255 0
-0.614915 1.696839 -0.168108 0 255 0
-0.609753 1.579371 -0.152107 0 255 0
-0.551042 1.593318 -0.162108 0 255 0
-0.565338 1.641495 -0.161079 0 255 0
-0.582992 1.673872 -0.154940 0 255 0
-0.604955 1.609022 -0.152507 0 255 0
-0.603694 1.571949 -0.174107 0 255 0
-0.586135 1.568218 -0.174107 0 255 0
-0.558030 1.670612 -0.162108 0 255 0
-0.612663 1.582380 -0.166107 0 255 0
-0.598812 1.709950 -0.162108 0 255 0
-0.558060 1.675735 -0.174107 0 255 0
-0.553062 1.651154 -0.161084 0 255 0
-0.614123 1.662087 -0.168417 0 255 0
-0.588456 1.561593 -0.160107 0 255 0
-0.599106 1.703878 -0.154934 0 255 0
-0.594113 1.611936 -0.160107 0 255 0
-0.584098 1.582097 -0.152900 0 255 0
-0.567266 1.709379 -0.161048 0 255 0
-0.554309 1.645285 -0.152874 0 255 0
-0.558703 1.687112 -0.168108 0 255 0
-0.613140 1.592360 -0.166107 0 255 0
-0.597348 1.654433 -0.161076 0 255 0
-0.578220 1.561654 -0.158108 0 255 0
-0.567969 1.571400 -0.168108 0 255 0
-0.586121 1.707253 -0.161023 0 255 0
-0.586243 1.697056 -0.161004 0 255 0
-0.596969 1.646595 -0.152107 0 255 0
-0.611581 1.645190 -0.170865 0 255 0
-0.604704 1.581347 -0.172108 0 255 0
-0.577813 1.582806 -0.161021 0 255 0
-0.618206 1.681357 -0.160306 0 255 0
-0.592195 1.563243 -0.168108 0 255 0
-0.549883 1.679104 -0.166107 0 255 0
-0.588058 1.611565 -0.153291 0 255 0
-0.573948 1.610610 -0.152331 0 255 0
-0.550558 1.662935 -0.166107 0 255 0
-0.570546 1.665093 -0.154046 0 255 0
-0.581376 1.710334 -0.153574 0 255 0
-0.553137 1.612320 -0.153445 0 255 0
-0.568372 1.617604 -0.161018 0 255 0
-0.617913 1.673117 -0.160627 0 255 0
-0.569884 1.687444 -0.163100 0 255 0
-0.575658 1.631421 -0.161026 0 255 0
-0.593756 1.594374 -0.152027 0 255 0
-0.596393 1.668542 -0.160986 0 255 0
-0.583531 1.661720 -0.161004 0 255 0
-0.557713 1.701215 -0.174107 0 255 0
-0.596374 1.572439 -0.161030 0 255 0
-0.582945 1.645237 -0.161017 0 255 0
-0.564582 1.606575 -0.161077 0 255 0
-0.580913 1.683655 -0.163069 0 255 0
-0.551422 1.587420 -0.168108 0 255 0
-0.617193 1.570688 -0.160107 0 255 0
-0.600438 1.644866 -0.160107 0 255 0
-0.561265 1.564976 -0.168108 0 255 0
-0.577345 1.604246 -0.160107 0 255 0
-0.565801 1.668174 -0.160967 0 255 0
-0.561766 1.677540 -0.154522 0 255 0
-0.562333 1.597918 -0.153078 0 255 0
-0.582406 1.657391 -0.152367 0 255 0
-0.555046 1.584101 -0.153242 0 255 0
-0.579817 1.611857 -0.161053 0 255 0
-0.606345 1.689060 -0.154382 0 255 0
-0.592433 1.639076 -0.161031 0 255 0
-0.550934 1.574591 -0.160107 0 255 0
-0.575800 1.717327 -0.155309 0 255 0
-0.609642 1.640688 -0.164108 0 255 0
-0.550565 1.672521 -0.160107 0 255 0
-0.607680 1.630048 -0.162108 0 255 0
-0.551720 1.599751 -0.153656 0 255 0
-0.593898 1.680281 -0.154526 0 255 0
-0.558345 1.635919 -0.159070 0 255 0
-0.561691 1.716372 -0.161021 0 255 0
-0.575365 1.623179 -0.153283 0 255 0
-0.551720 1.609370 -0.166107 0 255 0
-0.588984 1.664923 -0.153580 0 255 0
-0.589740 1.699843 -0.154697 0 255 0
-0.576342 1.657063 -0.160107 0 255 0
-0.613770 1.666101 -0.154108 0 255 0
-0.551085 1.712074 -0.162108 0 255 0
-0.613120 1.610758 -0.168108 0 255 0
-0.550623 1.710725 -0.172108 0 255 0
-0.618253 1.709994 -0.158920 0 255 0
-0.550970 1.695692 -0.170107 0 255 0
-0.613858 1.586379 -0.155272 0 255 0
-0.551137 1.683460 -0.160107 0 255 0
-0.609010 1.695761 -0.160986 0 255 0
-0.559200 1.578850 -0.170107 0 255 0
-0.586244 1.716293 -0.156107 0 255 0
-0.558602 1.658464 -0.172108 0 255 0
-0.574288 1.647487 -0.152775 0 255 0
-0.545093 1.616745 -0.158108 0 255 0
-0.551200 1.708009 -0.153553 0 255 0
-0.604492 1.582343 -0.161012 0 255 0
-0.573995 1.639246 -0.161049 0 255 0
-0.606586 1.620588 -0.170107 0 255 0
-0.607177 1.685148 -0.161022 0 255 0
-0.614754 1.645864 -0.160107 0 255 0
-0.613356 1.637389 -0.154108 0 255 0
-0.608131 1.671038 -0.173108 0 255 0
-0.598567 1.716033 -0.155231 0 255 0
-0.552104 1.617183 -0.172108 0 255 0
-0.617525 1.607605 -0.160038 0 255 0
-0.546289 1.644537 -0.158108 0 255 0
-0.599690 1.566460 -0.170107 0 255 0
-0.550602 1.658810 -0.160107 0 255 0
-0.549861 1.699545 -0.162108 0 255 0
-0.614246 1.651891 -0.168391 0 255 0
-0.572776 1.577646 -0.152429 0 255 0
-0.598330 1.572855 -0.153952 0 255 0
-0.573797 1.688276 -0.154316 0 255 0
-0.604130 1.564807 -0.158108 0 255 0
-0.566973 1.701138 -0.154081 0 255 0
-0.558147 1.684948 -0.161049 0 255 0
-0.609719 1.702045 -0.154823 0 255 0
-0.588323 1.687274 -0.154433 0 255 0
-0.560131 1.617897 -0.152866 0 255 0
-0.576811 1.568281 -0.153710 0 255 0
-0.551351 1.630342 -0.170493 0 255 0
-0.580478 1.589507 -0.152517 0 255 0
-0.572133 1.696101 -0.163087 0 255 0
-0.600013 1.661134 -0.161065 0 255 0
-0.582487 1.570436 -0.168108 0 255 0
-0.607524 1.707713 -0.168108 0 255 0
-0.572237 1.589799 -0.161070 0 255 0
-0.590723 1.618265 -0.153300 0 255 0
-0.601336 1.616432 -0.161044 0 255 0
-0.585657 1.680573 -0.154935 0 255 0
-0.567616 1.582683 -0.153503 0 255 0
-0.562701 1.567326 -0.153264 0 255 0
-0.545913 1.588593 -0.158108 0 255 0
-0.552353 1.644869 -0.170905 0 255 0
-0.599625 1.595621 -0.160996 0 255 0
-0.558722 1.653383 -0.166107 0 255 0
-0.609245 1.681498 -0.154108 0 255 0
-0.564381 1.573817 -0.162108 0 255 0
-0.614646 1.669247 -0.166107 0 255 0
-0.557501 1.682767 -0.174107 0 255 0
-0.605343 1.674535 -0.154606 0 255 0
-0.611063 1.599526 -0.170107 0 255 0
-0.575389 1.565350 -0.170107 0 255 0
-0.609008 1.715011 -0.156107 0 255 0
-0.552892 1.632716 -0.153827 0 255 0
-0.583536 1.618782 -0.160107 0 255 0
-0.572304 1.714540 -0.161021 0 255 0
-0.606011 1.609247 -0.168108 0 255 0
-0.611811 1.686132 -0.170107 0 255 0
-0.547385 1.716340 -0.158108 0 255 0
-0.583805 1.573855 -0.161027 0 255 0
-0.560273 1.703804 -0.160993 0 255 0
-0.609359 1.569065 -0.161606 0 255 0
-0.565610 1.635418 -0.152107 0 255 0
-0.570713 1.601744 -0.160107 0 255 0
-0.600579 1.629613 -0.160107 0 255 0
-0.551499 1.668125 -0.174107 0 255 0
-0.591819 1.690062 -0.160980 0 255 0
-0.557313 1.596850 -0.160107 0 255 0
-0.581508 1.636753 -0.152107 0 255 0
-0.608640 1.712039 -0.162108 0 255 0
-0.571255 1.671378 -0.163104 0 255 0
-0.579960 1.650737 -0.154108 0 255 0
-0.616829 1.601261 -0.158108 0 255 0
-0.601478 1.702339 -0.160991 0 255 0
-0.579959 1.697764 -0.163064 0 255 0
-0.586489 1.676661 -0.161009 0 255 0
-0.587888 1.593126 -0.159016 0 255 0
-0.609010 1.695761 -0.171063 0 255 0
-0.598916 1.589336 -0.153943 0 255 0
-0.555925 1.608824 -0.161071 0 255 0
-0.546216 1.602671 -0.156107 0 255 0
-0.551777 1.622255 -0.160107 0 255 0
-0.583578 1.690355 -0.161044 0 255 0
-0.612736 1.573872 -0.154108 0 255 0
-0.607331 1.603393 -0.164108 0 255 0
-0.562106 1.714417 -0.153611 0 255 0
-0.553420 1.577621 -0.174107 0 255 0
-0.584910 1.621119 -0.152107 0 255 0
-0.614598 1.630994 -0.154108 0 255 0
-0.550956 1.669107 -0.154108 0 255 0
-0.607545 1.654556 -0.167118 0 255 0
-0.563806 1.590988 -0.160107 0 255 0
-0.608330 1.675169 -0.168108 0 255 0
-0.569628 1.626050 -0.160107 0 255 0
-0.558016 1.647087 -0.160107 0 255 0
-0.591602 1.642988 -0.152528 0 255 0
-0.607422 1.664752 -0.171097 0 255 0
-0.600313 1.587589 -0.160107 0 255 0
-0.564724 1.692482 -0.154814 0 255 0
-0.616447 1.660537 -0.156107 0 255 0
-0.613244 1.637364 -0.168278 0 255 0
-0.614348 1.617153 -0.154108 0 255 0
-0.576027 1.600829 -0.153495 0 255 0
-0.550071 1.705725 -0.160107 0 255 0
-0.558373 1.568450 -0.172854 0 255 0
-0.599502 1.605819 -0.153545 0 255 0
-0.596214 1.666460 -0.154108 0 255 0
-0.588458 1.634140 -0.160107 0 255 0
-0.615032 1.703175 -0.164108 0 255 0
-0.594418 1.572022 -0.167098 0 255 0
-0.559422 1.611612 -0.151974 0 255 0
-0.604341 1.660008 -0.153251 0 255 0
-0.554150 1.569081 -0.160107 0 255 0
-0.605541 1.625504 -0.152732 0 255 0
-0.614614 1.621299 -0.161735 0 255 0
-0.596564 1.686981 -0.154180 0 255 0
-0.570281 1.589384 -0.152974 0 255 0
-0.609117 1.681470 -0.166107 0 255 0
-0.576292 1.676538 -0.155079 0 255 0
-0.598382 1.697591 -0.154108 0 255 0
-0.576613 1.617311 -0.159024 0 255 0
-0.586177 1.572316 -0.153857 0 255 0
-0.554337 1.577816 -0.153663 0 255 0
-0.562796 1.624597 -0.153304 0 255 0
-0.574657 1.616895 -0.152704 0 255 0
-0.568835 1.644283 -0.153602 0 255 0
-0.608558 1.717128 -0.166107 0 255 0
-0.604880 1.647855 -0.153140 0 255 0
-0.595902 1.709332 -0.154172 0 255 0
-0.586224 1.600952 -0.152735 0 255 0
-0.599059 1.675242 -0.154765 0 255 0
-0.557361 1.692961 -0.166107 0 255 0
-0.587642 1.613521 -0.161023 0 255 0
-0.597716 1.623841 -0.161094 0 255 0
-0.589523 1.652770 -0.160990 0 255 0
-0.555406 1.717082 -0.161054 0 255 0
-0.603633 1.653724 -0.161058 0 255 0
-0.602678 1.667834 -0.160963 0 255 0
-0.591574 1.710457 -0.161061 0 255 0
-0.592528 1.696347 -0.160990 0 255 0
-0.573088 1.681991 -0.163092 0 255 0
-0.589135 1.587257 -0.161075 0 255 0
-0.552428 1.606036 -0.153440 0 255 0
-0.557636 1.629635 -0.158961 0 255 0
-0.558494 1.668665 -0.168108 0 255 0
-1.326034 1.535333 -0.125849 0 255 0
-1.172702 1.679533 -0.176108 0 255 0
-1.167090 1.509727 -0.180107 0 255 0
-1.398084 1.677338 -0.132107 0 255 0
-1.279565 1.648136 -0.125642 0 255 0
-1.193201 1.592712 -0.126108 0 255 0
-1.401696 1.506432 -0.180968 0 255 0
-1.241452 1.500384 -0.126108 0 255 0
-1.401634 1.586162 -0.126108 0 255 0
-1.264359 1.575385 -0.133056 0 255 0
-1.286132 1.511426 -0.182108 0 255 0
-1.333831 1.604465 -0.133099 0 255 0
-1.211974 1.658306 -0.125427 0 255 0
-1.334849 1.676629 -0.140108 0 255 0
-1.170911 1.616862 -0.180107 0 255 0
-1.186060 1.530116 -0.124931 0 255 0
-1.376200 1.501013 -0.126108 0 255 0
-1.226911 1.511075 -0.182108 0 255 0
-1.342987 1.503671 -0.174107 0 255 0
-1.181152 1.562821 -0.172108 0 255 0
-1.377242 1.631098 -0.132107 0 255 0
-1.291426 1.499351 -0.128107 0 255 0
-1.167909 1.634745 -0.132107 0 255 0
-1.237188 1.616637 -0.133103 0 255 0
-1.372153 1.549225 -0.130924 0 255 0
-1.229807 1.545548 -0.125763 0 255 0
-1.248688 1.676332 -0.142107 0 255 0
-1.171015 1.677849 -0.130108 0 255 0
-1.292210 1.607886 -0.125134 0 255 0
-1.268969 1.534456 -0.132107 0 255 0
-1.304439 1.569592 -0.133062 0 255 0
-1.319645 1.642343 -0.125327 0 255 0
-1.397503 1.545397 -0.178108 0 255 0
-1.198315 1.510936 -0.156107 0 255 0
-1.297020 1.681453 -0.132107 0 255 0
-1.168755 1.563433 -0.130108 0 255 0
-1.373075 1.520794 -0.158108 0 255 0
-1.339222 1.499287 -0.128107 0 255 0
-1.257998 1.509113 -0.158108 0 255 0
-1.313110 1.519178 -0.158108 0 255 0
-1.341316 1.569251 -0.125275 0 255 0
-1.228191 1.582010 -0.125787 0 255 0
-1.401450 1.526827 -0.128926 0 255 0
-1.368042 1.597424 -0.125241 0 255 0
-1.171539 1.592460 -0.154108 0 255 0
-1.366058 1.664475 -0.125862 0 255 0
-1.180511 1.647529 -0.164108 0 255 0
-1.169049 1.499919 -0.128107 0 255 0
-1.202561 1.625635 -0.131037 0 255 0
-1.171292 1.533111 -0.156107 0 255 0
-1.208003 1.500021 -0.126108 0 255 0
-1.201124 1.559899 -0.132107 0 255 0
-1.247017 1.647352 -0.125419 0 255 0
-1.228360 1.518661 -0.150108 0 255 0
-1.354792 1.525088 -0.125957 0 255 0
-1.402349 1.647654 -0.129148 0 255 0
-1.348697 1.640338 -0.133092 0 255 0
-1.266740 1.621899 -0.132107 0 255 0
-1.401295 1.556416 -0.130108 0 255 0
-1.402141 1.614894 -0.130108 0 255 0
-1.299061 1.527555 -0.133081 0 255 0
-1.167784 1.606479 -0.126108 0 255 0
-1.339974 1.517848 -0.149246 0 255 0
-1.286194 1.511136 -0.154108 0 255 0
-1.180441 1.618887 -0.152107 0 255 0
-1.402161 1.513865 -0.154108 0 255 0
-1.371104 1.506063 -0.180845 0 255 0
-1.185172 1.654653 -0.126108 0 255 0
-1.174001 1.586849 -0.181045 0 255 0
-1.282627 1.556777 -0.125344 0 255 0
-1.271787 1.675108 -0.127478 0 255 0
-1.193933 1.512312 -0.182108 0 255 0
-1.318496 1.509193 -0.182108 0 255 0
-1.266343 1.508332 -0.125346 0 255 0
-1.210782 1.529237 -0.133093 0 255 0
-1.176155 1.538235 -0.181085 0 255 0
-1.378901 1.575196 -0.133053 0 255 0
-1.253500 1.597613 -0.125510 0 255 0
-1.315373 1.508531 -0.126091 0 255 0
-1.196613 1.677532 -0.132107 0 255 0
-1.215376 1.603822 -0.131006 0 255 0
-1.223772 1.675126 -0.140108 0 255 0
-1.246119 1.526525 -0.126100 0 255 0
-1.252671 1.553412 -0.132107 0 255 0
-1.297417 1.631484 -0.131040 0 255 0
-1.311799 1.592684 -0.126108 0 255 0
-1.400682 1.501584 -0.130108 0 255 0
-1.178887 1.669674 -0.153140 0 255 0
-1.224789 1.636493 -0.125094 0 255 0
-1.253155 1.512661 -0.182108 0 255 0
-1.182014 1.553792 -0.148108 0 255 0
-1.316196 1.668190 -0.125220 0 255 0
-1.353687 1.616864 -0.125643 0 255 0
-1.287003 1.584287 -0.125611 0 255 0
-1.346097 1.546758 -0.132107 0 255 0
-1.175794 1.511075 -0.148108 0 255 0
-1.377559 1.523793 -0.133042 0 255 0
-1.358231 1.677125 -0.144108 0 255 0
-1.314854 1.616787 -0.125657 0 255 0
-1.360258 1.508992 -0.142107 0 255 0
-1.336713 1.658238 -0.125941 0 255 0
-1.307057 1.547657 -0.125727 0 255 0
-1.172460 1.584476 -0.125392 0 255 0
-1.325788 1.555727 -0.133080 0 255 0
-1.349311 1.589353 -0.133071 0 255 0
-1.180611 1.574989 -0.144108 0 255 0
-1.302065 1.652919 -0.132107 0 255 0
-1.225847 1.516082 -0.124992 0 255 0
-1.167926 1.540575 -0.130108 0 255 0
-1.238530 1.668040 -0.125198 0 255 0
-1.173141 1.658230 -0.180981 0 255 0
-1.171572 1.651762 -0.144108 0 255 0
-1.188677 1.508181 -0.125410 0 255 0
-1.208212 1.579808 -0.133074 0 255 0
-1.334115 1.627016 -0.126108 0 255 0
-1.273479 1.599814 -0.131023 0 255 0
-1.382106 1.651530 -0.132107 0 255 0
-1.182998 1.621476 -0.125331 0 255 0
-1.210022 1.503959 -0.172108 0 255 0
-1.397538 1.525995 -0.170989 0 255 0
-1.378089 1.675211 -0.138780 0 255 0
-1.387170 1.507433 -0.166552 0 255 0
-1.239957 1.517036 -0.167073 0 255 0
-1.172451 1.637637 -0.180107 0 255 0
-1.381614 1.610532 -0.133048 0 255 0
-1.301648 1.505766 -0.170107 0 255 0
-1.360170 1.567125 -0.133090 0 255 0
-1.328208 1.582822 -0.133085 0 255 0
-1.302863 1.509667 -0.142107 0 255 0
-1.354083 1.518803 -0.165101 0 255 0
-1.245942 1.512175 -0.142107 0 255 0
-1.167744 1.520089 -0.131846 0 255 0
-1.221736 1.564281 -0.133053 0 255 0
-1.269441 1.503376 -0.174107 0 255 0
-1.180729 1.516715 -0.167072 0 255 0
-1.180661 1.603612 -0.168108 0 255 0
-1.242839 1.570811 -0.133038 0 255 0
-1.263166 1.657949 -0.132107 0 255 0
-1.282286 1.519900 -0.125332 0 255 0
-1.387341 1.509515 -0.142107 0 255 0
-1.188762 1.573628 -0.126108 0 255 0
-1.329998 1.516681 -0.168108 0 255 0
-1.180659 1.603621 -0.140108 0 255 0
-1.388342 1.540398 -0.125243 0 255 0
-1.212977 1.509294 -0.142107 0 255 0
-1.185814 1.550510 -0.125589 0 255 0
-1.335645 1.518974 -0.125431 0 255 0
-1.269424 1.513077 -0.143532 0 255 0
-1.323198 1.510194 -0.143196 0 255 0
-1.286436 1.663909 -0.133106 0 255 0
-1.235062 1.597783 -0.133089 0 255 0
-1.349869 1.673303 -0.126652 0 255 0
-1.365888 1.646038 -0.125087 0 255 0
-1.200775 1.643657 -0.125816 0 255 0
-1.171561 1.574061 -0.160107 0 255 0
-1.357826 1.501196 -0.125310 0 255 0
-1.306292 1.676309 -0.147062 0 255 0
-1.250554 1.630710 -0.132107 0 255 0
-1.272305 1.518761 -0.164108 0 255 0
-1.171534 1.631308 -0.162108 0 255 0
-1.211369 1.545719 -0.125251 0 255 0
-1.171827 1.549582 -0.164108 0 255 0
-1.230682 1.652059 -0.132107 0 255 0
-1.286161 1.540150 -0.132107 0 255 0
-1.216984 1.519300 -0.164108 0 255 0
-1.385356 1.592925 -0.133054 0 255 0
-1.394183 1.631606 -0.126108 0 255 0
-1.181056 1.635375 -0.144108 0 255 0
-1.181420 1.537309 -0.142107 0 255 0
-1.167688 1.655025 -0.126851 0 255 0
-1.282599 1.624245 -0.125116 0 255 0
-1.195690 1.609860 -0.126089 0 255 0
-1.384184 1.559961 -0.124932 0 255 0
-1.219874 1.621136 -0.131036 0 255 0
-1.389835 1.514134 -0.125673 0 255 0
-1.264746 1.640897 -0.131003 0 255 0
-1.386037 1.666677 -0.125723 0 255 0
-1.167991 1.526276 -0.172108 0 255 0
-1.230473 1.506842 -0.138107 0 255 0
-1.171371 1.618461 -0.138107 0 255 0
-1.355561 1.511852 -0.182108 0 255 0
-1.181222 1.586339 -0.166107 0 255 0
-1.231177 1.529483 -0.133029 0 255 0
-1.183584 1.637958 -0.125925 0 255 0
-1.240825 1.503331 -0.176108 0 255 0
-1.251714 1.615635 -0.125490 0 255 0
-1.196000 1.507693 -0.140108 0 255 0
-1.167663 1.571188 -0.176108 0 255 0
-1.197120 1.540646 -0.132107 0 255 0
-1.365500 1.580525 -0.125362 0 255 0
-1.267808 1.549537 -0.125933 0 255 0
-1.386142 1.512270 -0.182108 0 255 0
-1.395799 1.572653 -0.133042 0 255 0
-1.202362 1.517224 -0.126108 0 255 0
-1.320505 1.570961 -0.125109 0 255 0
-1.297077 1.594608 -0.133066 0 255 0
-1.316375 1.523056 -0.133078 0 255 0
-1.254291 1.671390 -0.126108 0 255 0
-1.281672 1.570886 -0.133103 0 255 0
-1.353611 1.655696 -0.130983 0 255 0
-1.360122 1.538488 -0.133027 0 255 0
-1.183723 1.502629 -0.174107 0 255 0
-1.259520 1.521194 -0.133045 0 255 0
-1.369753 1.618234 -0.125573 0 255 0
-1.173055 1.682748 -0.146107 0 255 0
-1.300016 1.513444 -0.125885 0 255 0
-1.177762 1.665346 -0.137164 0 255 0
-1.227626 1.507713 -0.162108 0 255 0
-1.286139 1.511395 -0.138107 0 255 0
-1.360973 1.630681 -0.130997 0 255 0
-1.296611 1.519843 -0.162108 0 255 0
-1.198013 1.661472 -0.132107 0 255 0
-1.279612 1.676772 -0.141011 0 255 0
-1.172083 1.663208 -0.166107 0 255 0
-1.300130 1.666820 -0.125183 0 255 0
-1.243841 1.585337 -0.125466 0 255 0
-1.366593 1.508049 -0.164108 0 255 0
-1.388386 1.520951 -0.154108 0 255 0
-1.212834 1.673497 -0.128107 0 255 0
-1.367069 1.515429 -0.125430 0 255 0
-1.347506 1.511271 -0.133043 0 255 0
-1.340975 1.532375 -0.133034 0 255 0
-1.239465 1.557826 -0.125706 0 255 0
-1.243000 1.541198 -0.132107 0 255 0
-1.180408 1.618881 -0.168108 0 255 0
-1.399137 1.599944 -0.132107 0 255 0
-1.333755 1.643297 -0.130993 0 255 0
-1.167843 1.601898 -0.176108 0 255 0
-1.317417 1.681686 -0.132107 0 255 0
-1.170872 1.553469 -0.178717 0 255 0
-1.223067 1.500304 -0.126108 0 255 0
-1.356598 1.603169 -0.133084 0 255 0
-1.283004 1.506906 -0.168108 0 255 0
-1.333949 1.512479 -0.182108 0 255 0
-1.296099 1.555551 -0.132107 0 255 0
-1.306943 1.605911 -0.132107 0 255 0
-1.400978 1.663720 -0.126767 0 255 0
-1.172479 1.680581 -0.160978 0 255 0
-1.181449 1.537314 -0.166107 0 255 0
-1.320397 1.629187 -0.132107 0 255 0
-1.255021 1.503881 -0.133740 0 255 0
-1.172237 1.586473 -0.140108 0 255 0
-1.265776 1.587954 -0.125537 0 255 0
-1.343949 1.508765 -0.160107 0 255 0
-1.180387 1.522777 -0.140108 0 255 0
-1.364353 1.678427 -0.130108 0 255 0
-1.171733 1.607138 -0.154108 0 255 0
-1.356796 1.554139 -0.125360 0 255 0
-1.316951 1.655019 -0.132107 0 255 0
-1.214675 1.645595 -0.132107 0 255 0
-1.317572 1.507807 -0.166107 0 255 0
-1.182828 1.603038 -0.125571 0 255 0
-1.201351 1.515893 -0.170107 0 255 0
-1.278147 1.635567 -0.133080 0 255 0
-1.171488 1.563823 -0.148108 0 255 0
-1.373108 1.535115 -0.125216 0 255 0
-1.255777 1.538801 -0.125807 0 255 0
-1.321677 1.603926 -0.125329 0 255 0
-1.249540 1.520046 -0.154108 0 255 0
-1.304139 1.513284 -0.182108 0 255 0
-1.336326 1.592727 -0.125234 0 255 0
-1.186420 1.518800 -0.154108 0 255 0
-1.207673 1.591961 -0.125553 0 255 0
-1.237151 1.636049 -0.132107 0 255 0
-1.301944 1.581328 -0.125445 0 255 0
-1.171216 1.551852 -0.138107 0 255 0
-1.331454 1.671433 -0.126108 0 255 0
-1.373702 1.513078 -0.144108 0 255 0
-1.266854 1.563647 -0.125127 0 255 0
-1.311508 1.536335 -0.133093 0 255 0
-1.377070 1.516473 -0.172108 0 255 0
-1.360181 1.518971 -0.152107 0 255 0
-1.185172 1.668966 -0.125696 0 255 0
-1.208755 1.519536 -0.152107 0 255 0
-1.401422 1.512507 -0.168108 0 255 0
-1.225252 1.663173 -0.125521 0 255 0
-1.402219 1.542447 -0.130108 0 255 0
-1.263574 1.607933 -0.125382 0 255 0
-1.333736 1.547193 -0.125441 0 255 0
-1.167836 1.648923 -0.172108 0 255 0
-1.228654 1.608689 -0.125561 0 255 0
-1.210707 1.568069 -0.125525 0 255 0
-1.327206 1.520196 -0.154108 0 255 0
-1.292701 1.567097 -0.125239 0 255 0
-1.305536 1.641388 -0.125283 0 255 0
-1.208968 1.614727 -0.125454 0 255 0
-1.277788 1.502585 -0.131553 0 255 0
-1.248435 1.659922 -0.131051 0 255 0
-1.179187 1.504734 -0.136108 0 255 0
-1.274698 1.661415 -0.125414 0 255 0
-1.239184 1.511051 -0.154108 0 255 0
-1.300328 1.617790 -0.130983 0 255 0
-1.171377 1.545398 -0.150108 0 255 0
-1.290809 1.643334 -0.132107 0 255 0
-1.279029 1.612179 -0.132107 0 255 0
-1.170539 1.518639 -0.158108 0 255 0
-1.304825 1.500441 -0.130108 0 255 0
-1.327226 1.616297 -0.132107 0 255 0
-1.326724 1.503229 -0.132107 0 255 0
-1.258625 1.515783 -0.170107 0 255 0
-1.240160 1.679612 -0.132107 0 255 0
-1.339993 1.613953 -0.125664 0 255 0
-1.176900 1.519990 -0.180107 0 255 0
-1.400864 1.510345 -0.141153 0 255 0
-1.180408 1.575943 -0.175080 0 255 0
-1.371199 1.563334 -0.125650 0 255 0
-1.253868 1.567020 -0.125477 0 255 0
-1.351806 1.577615 -0.125436 0 255 0
-1.312803 1.559101 -0.133071 0 255 0
-1.249029 1.512831 -0.125826 0 255 0
-1.390148 1.618480 -0.125437 0 255 0
-1.221982 1.591981 -0.132107 0 255 0
-1.387851 1.581187 -0.125198 0 255 0
-1.347307 1.560301 -0.133071 0 255 0
-1.328669 1.503697 -0.172108 0 255 0
-1.219732 1.535229 -0.125425 0 255 0
-1.207208 1.512120 -0.182108 0 255 0
-1.345323 1.627354 -0.133084 0 255 0
-1.180730 1.564806 -0.158108 0 255 0
-1.183319 1.562249 -0.131011 0 255 0
-1.190316 1.519709 -0.132107 0 255 0
-1.335768 1.508776 -0.139814 0 255 0
-1.181025 1.635370 -0.170107 0 255 0
-1.172202 1.643405 -0.154108 0 255 0
-1.292383 1.674409 -0.142107 0 255 0
-1.175692 1.511555 -0.125597 0 255 0
-1.168472 1.622478 -0.126083 0 255 0
-1.177592 1.646908 -0.133291 0 255 0
-1.343310 1.516512 -0.172108 0 255 0
-1.261730 1.675015 -0.136108 0 255 0
-1.180799 1.655768 -0.154108 0 255 0
-1.380470 1.510098 -0.155813 0 255 0
-1.211095 1.633583 -0.125538 0 255 0
-1.172611 1.506811 -0.168451 0 255 0
-1.354622 1.506649 -0.169506 0 255 0
-1.285897 1.676063 -0.128599 0 255 0
-1.302734 1.510277 -0.156107 0 255 0
-1.238000 1.516621 -0.133054 0 255 0
-1.388219 1.550595 -0.133038 0 255 0
-1.243596 1.605731 -0.125162 0 255 0
-1.275095 1.515255 -0.176108 0 255 0
-1.254454 1.583503 -0.133065 0 255 0
-1.341193 1.579449 -0.133094 0 255 0
-1.233153 1.626003 -0.125270 0 255 0
-1.184198 1.586972 -0.133096 0 255 0
-1.255021 1.503881 -0.172949 0 255 0
-1.389146 1.603954 -0.125148 0 255 0
-1.168671 1.583065 -0.170107 0 255 0
-1.210969 1.508830 -0.160107 0 255 0
-1.388833 1.499609 -0.125857 0 255 0
-1.298939 1.537752 -0.125494 0 255 0
-1.181330 1.547513 -0.174107 0 255 0
-1.269301 1.523273 -0.125228 0 255 0
-1.189575 1.629009 -0.133102 0 255 0
-1.319626 1.546238 -0.125202 0 255 0
-1.233058 1.568732 -0.125269 0 255 0
-1.331534 1.567172 -0.133031 0 255 0
-1.376406 1.586933 -0.125721 0 255 0
-1.308446 1.627694 -0.125499 0 255 0
-1.275265 1.581793 -0.133060 0 255 0
-1.276231 1.519527 -0.152107 0 255 0
-1.388465 1.530200 -0.133071 0 255 0
-1.171880 1.627292 -0.148108 0 255 0
-1.215439 1.516949 -0.132107 0 255 0
-1.346816 1.601090 -0.125403 0 255 0
-1.196265 1.501340 -0.174107 0 255 0
-1.168274 1.671508 -0.142636 0 255 0
-1.307425 1.517065 -0.169106 0 255 0
-1.290471 1.654543 -0.125799 0 255 0
-1.171168 1.531041 -0.138107 0 255 0
-1.381245 1.641124 -0.125230 0 255 0
-1.222473 1.503097 -0.172661 0 255 0
-1.402076 1.514265 -0.128107 0 255 0
-1.183093 1.678748 -0.133107 0 255 0
-1.262845 1.519856 -0.154108 0 255 0
-1.364989 1.525211 -0.133090 0 255 0
-1.173244 1.551929 -0.125844 0 255 0
-1.294856 1.518482 -0.149146 0 255 0
-1.195643 1.581225 -0.133071 0 255 0
-1.171748 1.597447 -0.134108 0 255 0
-1.169813 1.538930 -0.170107 0 255 0
-1.177315 1.575285 -0.132107 0 255 0
-1.220734 1.549755 -0.133040 0 255 0
-1.198574 1.528958 -0.126108 0 255 0
-1.227596 1.517475 -0.170107 0 255 0
-1.364924 1.515899 -0.174107 0 255 0
-1.199725 1.600496 -0.133075 0 255 0
-1.190162 1.645491 -0.133107 0 255 0
-1.312853 1.516174 -0.146107 0 255 0
-1.306708 1.674353 -0.134744 0 255 0
-1.314514 1.579912 -0.131002 0 255 0
-1.188825 1.507488 -0.164108 0 255 0
-1.180061 1.582003 -0.154108 0 255 0
-1.257686 1.510581 -0.145836 0 255 0
-1.321800 1.593729 -0.133040 0 255 0
-1.225923 1.675582 -0.128107 0 255 0
-1.171847 1.594570 -0.166107 0 255 0
-1.350341 1.536410 -0.125413 0 255 0
-1.376255 1.664598 -0.133102 0 255 0
-1.173906 1.529578 -0.125216 0 255 0
-1.286464 1.596441 -0.125762 0 255 0
-1.284454 1.519321 -0.164108 0 255 0
-1.196512 1.500181 -0.130108 0 255 0
-1.182353 1.658143 -0.170107 0 255 0
-1.327527 1.509068 -0.159041 0 255 0
-1.293315 1.516109 -0.173100 0 255 0
-1.170703 1.563657 -0.166107 0 255 0
-1.181966 1.592630 -0.148108 0 255 0
-1.378098 1.511640 -0.133009 0 255 0
-1.171488 1.617907 -0.160107 0 255 0
-1.173434 1.666471 -0.125551 0 255 0
-1.279792 1.531638 -0.125220 0 255 0
-1.181046 1.635374 -0.156107 0 255 0
-1.167384 1.627595 -0.176108 0 255 0
-1.339558 1.519804 -0.161103 0 255 0
-1.343121 1.647333 -0.124860 0 255 0
-1.343291 1.665771 -0.133085 0 255 0
-1.219241 1.576018 -0.130930 0 255 0
-1.260957 1.629868 -0.125547 0 255 0
-1.392860 1.653816 -0.125705 0 255 0
-1.265719 1.511269 -0.182108 0 255 0
-1.275293 1.514324 -0.133058 0 255 0
-1.390242 1.675751 -0.140790 0 255 0
-1.367707 1.608619 -0.132107 0 255 0
-1.307718 1.525306 -0.125394 0 255 0
-1.350049 1.511812 -0.150108 0 255 0
-1.177422 1.628469 -0.135289 0 255 0
-1.179652 1.541023 -0.131003 0 255 0
-1.227312 1.557287 -0.125428 0 255 0
-1.367406 1.504224 -0.134108 0 255 0
-1.181043 1.539274 -0.154108 0 255 0
-1.388798 1.519015 -0.166107 0 255 0
-1.323907 1.516479 -0.125256 0 255 0
-1.178299 1.667505 -0.176108 0 255 0
-1.248106 1.507555 -0.164108 0 255 0
-1.292578 1.577293 -0.133107 0 255 0
-1.215158 1.556747 -0.125441 0 255 0
-1.217826 1.515338 -0.176108 0 255 0
-1.337526 1.558222 -0.125501 0 255 0
-1.370509 1.653153 -0.133072 0 255 0
-1.269948 1.510611 -0.156107 0 255 0
-1.273970 1.559026 -0.133030 0 255 0
-1.180749 1.612820 -0.133080 0 255 0
-1.397245 1.517754 -0.179103 0 255 0
-1.361465 1.589890 -0.131047 0 255 0
-1.178517 1.647105 -0.176108 0 255 0
-1.391027 1.643203 -0.130943 0 255 0
-1.290575 1.548243 -0.125206 0 255 0
-1.286908 1.527016 -0.133031 0 255 0
-1.276465 1.547287 -0.133071 0 255 0
-1.384689 1.678659 -0.130108 0 255 0
-1.171363 1.524948 -0.148108 0 255 0
-1.313833 1.506157 -0.138084 0 255 0
-1.327052 1.660275 -0.132107 0 255 0
-1.178340 1.600039 -0.180107 0 255 0
-1.328529 1.523595 -0.133020 0 255 0
-1.218716 1.511151 -0.152107 0 255 0
-1.197967 1.551050 -0.125733 0 255 0
-1.181558 1.527114 -0.160107 0 255 0
-1.380101 1.540690 -0.133036 0 255 0
-1.273016 1.573136 -0.125832 0 255 0
-1.259218 1.676526 -0.147041 0 255 0
-1.201219 1.574232 -0.125175 0 255 0
-1.221462 1.652143 -0.125220 0 255 0
-1.289108 1.617450 -0.132107 0 255 0
-1.295556 1.505569 -0.180107 0 255 0
-1.255258 1.647058 -0.133105 0 255 0
-1.344087 1.681264 -0.132107 0 255 0
-1.181916 1.563994 -0.142107 0 255 0
-1.358828 1.515722 -0.133080 0 255 0
-1.171217 1.610793 -0.170107 0 255 0
-1.180667 1.598489 -0.158108 0 255 0
-1.182043 1.553799 -0.162108 0 255 0
-1.286388 1.635273 -0.125461 0 255 0
-1.185823 1.511990 -0.142107 0 255 0
-1.239069 1.655886 -0.125740 0 255 0
-1.379780 1.503724 -0.174107 0 255 0
-1.293112 1.507448 -0.162108 0 255 0
-1.261741 1.597320 -0.133080 0 255 0
-1.179438 1.671837 -0.164108 0 255 0
-1.304146 1.561351 -0.125503 0 255 0
-1.171524 1.653797 -0.160107 0 255 0
-1.234911 1.675448 -0.141039 0 255 0
-1.267025 1.505124 -0.136108 0 255 0
-1.391930 1.504282 -0.176108 0 255 0
-1.311053 1.503522 -0.176108 0 255 0
-1.167841 1.673460 -0.168108 0 255 0
-1.374642 1.674479 -0.128107 0 255 0
-1.392009 1.561624 -0.133053 0 255 0
-1.284781 1.508162 -0.125085 0 255 0
-1.180244 1.509381 -0.182108 0 255 0
-1.237847 1.512499 -0.182108 0 255 0
-1.171758 1.662025 -0.148108 0 255 0
-1.179972 1.529896 -0.174107 0 255 0
-1.328746 1.681082 -0.132107 0 255 0
-1.251837 1.605438 -0.133062 0 255 0
-1.235600 1.585629 -0.133060 0 255 0
-1.319787 1.516622 -0.174107 0 255 0
-1.181777 1.574189 -0.164108 0 255 0
-1.325807 1.651831 -0.125219 0 255 0
-1.206700 1.509968 -0.133089 0 255 0
-1.361512 1.618526 -0.133076 0 255 0
-1.170183 1.643289 -0.125717 0 255 0
-1.174662 1.564497 -0.181099 0 255 0
-1.375452 1.601043 -0.133089 0 255 0
-1.168670 1.573448 -0.125772 0 255 0
-1.341703 1.634763 -0.125497 0 255 0
-1.202399 1.670583 -0.126108 0 255 0
-1.235279 1.644856 -0.125426 0 255 0
-1.357677 1.509344 -0.158108 0 255 0
-1.193820 1.618660 -0.132107 0 255 0
-1.195056 1.516651 -0.146107 0 255 0
-1.331827 1.575413 -0.126031 0 255 0
-1.347618 1.676914 -0.142107 0 255 0
-1.252314 1.680148 -0.132107 0 255 0
-1.356938 1.640046 -0.125847 0 255 0
-1.192681 1.518205 -0.164108 0 255 0
-1.180908 1.645567 -0.148108 0 255 0
-1.231839 1.507132 -0.125535 0 255 0
-1.386017 1.570574 -0.125739 0 255 0
-1.217899 1.524616 -0.124888 0 255 0
-1.277514 1.590449 -0.125265 0 255 0
-1.333812 1.508359 -0.125582 0 255 0
-1.268952 1.649970 -0.125439 0 255 0
-1.253528 1.530145 -0.133087 0 255 0
-1.254965 1.638818 -0.125588 0 255 0
-1.243766 1.624170 -0.125223 0 255 0
-1.307425 1.517065 -0.133035 0 255 0
-1.292900 1.518065 -0.133096 0 255 0
-1.352345 1.565461 -0.125158 0 255 0
-1.346967 1.523425 -0.133072 0 255 0
-1.233493 1.662879 -0.133107 0 255 0
-1.240811 1.504950 -0.136108 0 255 0
-1.371257 1.640017 -0.132107 0 255 0
-1.386528 1.625889 -0.133039 0 255 0
-1.235007 1.521085 -0.158108 0 255 0
-1.326327 1.543574 -0.133078 0 255 0
-1.194613 1.634169 -0.125228 0 255 0
-1.397141 1.624055 -0.133053 0 255 0
-1.180111 1.610639 -0.160107 0 255 0
-1.171226 1.578080 -0.148108 0 255 0
-1.365160 1.543649 -0.125131 0 255 0
-1.344440 1.510620 -0.182108 0 255 0
-1.215357 1.507718 -0.125724 0 255 0
-1.171450 1.641512 -0.140108 0 255 0
-1.310573 1.646549 -0.133101 0 255 0
-1.309203 1.662615 -0.130961 0 255 0
-1.180259 1.509307 -0.158108 0 255 0
-1.397340 1.536545 -0.172108 0 255 0
-1.235910 1.536076 -0.126108 0 255 0
-1.223252 1.513485 -0.142107 0 255 0
-1.287664 1.561937 -0.133089 0 255 0
-1.357610 1.665744 -0.132107 0 255 0
-1.171339 1.599371 -0.146107 0 255 0
-1.177838 1.626513 -0.175035 0 255 0
-1.168544 1.673610 -0.154108 0 255 0
-1.204980 1.652730 -0.131019 0 255 0
-1.370106 1.510758 -0.154108 0 255 0
-1.273110 1.630407 -0.125431 0 255 0
-1.261816 1.558486 -0.133087 0 255 0
-1.170623 1.510478 -0.138107 0 255 0
-1.206208 1.550756 -0.133048 0 255 0
-1.179852 1.501602 -0.126108 0 255 0
-1.321507 1.585488 -0.125481 0 255 0
-1.311112 1.634395 -0.133098 0 255 0
-1.246506 1.592037 -0.133063 0 255 0
-1.180769 1.655762 -0.140108 0 255 0
-1.393147 1.592535 -0.126108 0 255 0
-1.392445 1.510600 -0.156107 0 255 0
-1.171184 1.541266 -0.140108 0 255 0
-1.192236 1.560055 -0.126108 0 255 0
-1.202438 1.635832 -0.133071 0 255 0
-1.395288 1.517338 -0.147125 0 255 0
-1.273649 1.618253 -0.125252 0 255 0
-1.235471 1.514038 -0.144108 0 255 0
-1.402471 1.637456 -0.131100 0 255 0
-1.295618 1.505277 -0.136108 0 255 0
-1.348650 1.611703 -0.133083 0 255 0
-1.264418 1.507771 -0.166107 0 255 0
-1.366161 1.558175 -0.133049 0 255 0
-1.234428 1.552666 -0.133099 0 255 0
-1.377899 1.560669 -0.133093 0 255 0
-1.363395 1.503856 -0.174107 0 255 0
-1.349548 1.520903 -0.156107 0 255 0
-1.217162 1.585800 -0.125461 0 255 0
-1.279695 1.511169 -0.146107 0 255 0
-1.220092 1.668210 -0.133090 0 255 0
-1.394183 1.609114 -0.133052 0 255 0
-1.171532 1.608816 -0.142107 0 255 0
-1.303637 1.520349 -0.154108 0 255 0
-1.329134 1.636180 -0.125252 0 255 0
-1.257658 1.578050 -0.125009 0 255 0
-1.322774 1.675723 -0.138469 0 255 0
-1.171379 1.639452 -0.170107 0 255 0
-1.343830 1.653618 -0.133083 0 255 0
-1.169297 1.516330 -0.170107 0 255 0
-1.320628 1.560765 -0.125656 0 255 0
-1.202458 1.520305 -0.160107 0 255 0
-1.306981 1.586489 -0.133057 0 255 0
-1.221953 1.611355 -0.133089 0 255 0
-1.379119 1.622270 -0.125246 0 255 0
-1.249961 1.518069 -0.164108 0 255 0
-1.369630 1.628431 -0.125306 0 255 0
-1.256541 1.621783 -0.132107 0 255 0
-1.181302 1.547507 -0.140108 0 255 0
-1.224770 1.540389 -0.133036 0 255 0
-1.181100 1.529062 -0.148108 0 255 0
-1.392500 1.520834 -0.133013 0 255 0
-1.385800 1.523499 -0.125562 0 255 0
-1.189528 1.600373 -0.133067 0 255 0
-1.179995 1.625985 -0.160107 0 255 0
-1.235899 1.507268 -0.168108 0 255 0
-1.224080 1.630208 -0.133078 0 255 0
-1.359603 1.646747 -0.133070 0 255 0
-1.171378 1.584247 -0.160107 0 255 0
-1.255737 1.654425 -0.126108 0 255 0
-1.245787 1.548945 -0.126108 0 255 0
-1.265210 1.667577 -0.125696 0 255 0
-1.226821 1.598075 -0.125582 0 255 0
-1.391914 1.504353 -0.134418 0 255 0
-1.171669 1.568959 -0.138107 0 255 0
-1.171461 1.555639 -0.154108 0 255 0
-1.273800 1.540586 -0.125650 0 255 0
-1.349141 1.570915 -0.133071 0 255 0
-1.181134 1.625170 -0.144108 0 255 0
-1.285725 1.604463 -0.132107 0 255 0
-1.367891 1.675088 -0.138969 0 255 0
-1.189849 1.541145 -0.125112 0 255 0
-1.364073 1.519904 -0.164108 0 255 0
-1.369327 1.572142 -0.132107 0 255 0
-1.355038 1.504693 -0.134615 0 255 0
-1.316517 1.608963 -0.133052 0 255 0
-1.181359 1.604771 -0.150108 0 255 0
-1.297275 1.545577 -0.133038 0 255 0
-1.178222 1.610238 -0.178108 0 255 0
-1.210660 1.539434 -0.133078 0 255 0
-1.247877 1.575971 -0.125984 0 255 0
-1.196739 1.653023 -0.125284 0 255 0
-1.318973 1.510835 -0.154108 0 255 0
-1.175050 1.630010 -0.125299 0 255 0
-1.335961 1.507865 -0.166107 0 255 0
-1.204344 1.511429 -0.148108 0 255 0
-1.352732 1.630974 -0.125091 0 255 0
-1.292796 1.624368 -0.125696 0 255 0
-1.346495 1.660317 -0.125216 0 255 0
-1.236337 1.524446 -0.125467 0 255 0
-1.181854 1.521044 -0.125530 0 255 0
-1.176666 1.593550 -0.125746 0 255 0
-1.335815 1.537412 -0.125071 0 255 0
-1.299742 1.601307 -0.125479 0 255 0
-1.245183 1.636739 -0.125314 0 255 0
-1.204763 1.605656 -0.125773 0 255 0
-1.394920 1.547930 -0.124974 0 255 0
-1.171950 1.529161 -0.180842 0 255 0
-1.261769 1.529851 -0.125077 0 255 0
