ply
format ascii 1.0
element vertex 1226
property float x
property float y
property float z
property uchar red
property uchar green
property uchar blue
end_header
0.271926 0.392075 -0.267890 131 80 38
-0.085603 0.155393 -0.254137 253 215 131
-0.129962 0.162403 -0.254403 254 218 139
-0.101690 0.172516 -0.255805 254 219 140
-0.093237 0.182082 -0.254927 254 220 141
-0.006462 0.027240 -0.251480 201 158 91
0.003435 0.040855 -0.252081 254 220 137
-0.030898 0.014343 -0.249629 255 222 139
-0.331476 0.110254 -0.251530 216 150 75
-0.334965 0.101922 -0.255477 191 119 49
-0.305919 0.090696 -0.251287 254 204 127
-0.330812 0.081085 -0.267248 191 118 56
-0.358808 0.103848 -0.270828 188 117 50
-0.282372 0.277694 -0.255904 253 223 144
-0.441190 0.397544 -0.254961 254 229 161
-0.426528 0.174839 -0.250937 113 91 59
-0.429364 0.160837 -0.255780 88 51 23
-0.435228 0.146998 -0.266984 91 77 56
0.134706 0.188740 -0.307628 77 68 51
0.147547 0.191837 -0.304047 96 80 55
0.148370 0.204002 -0.308231 102 73 42
0.160887 0.213171 -0.308259 88 65 40
0.153639 0.190463 -0.296513 92 83 63
0.150079 0.383810 -0.250611 254 224 136
-0.392989 0.225471 -0.254057 254 219 141
-0.344791 0.189216 -0.253793 255 221 147
-0.203228 0.170419 -0.254818 253 212 135
-0.241103 0.087185 -0.252818 254 216 140
-0.277801 0.066257 -0.251923 198 126 58
-0.277523 0.072173 -0.250911 238 178 103
0.211055 0.261258 -0.289446 100 89 70
0.198184 0.277556 -0.306254 107 93 81
0.205857 0.256940 -0.297081 98 87 68
-0.157131 -0.047147 -0.258706 182 111 50
-0.166584 -0.039934 -0.264380 182 111 49
0.293397 0.399397 -0.273241 92 49 17
0.286290 0.385351 -0.279364 89 47 13
0.025445 0.049209 -0.257147 122 91 48
0.026759 0.029108 -0.258800 105 83 45
0.011642 0.031461 -0.256052 121 89 45
0.027003 0.020994 -0.271470 80 74 55
0.172262 0.317477 -0.247716 145 121 82
-0.221103 0.270904 -0.256580 253 227 145
-0.194915 0.250521 -0.256792 254 224 145
-0.182071 0.254219 -0.256326 253 226 143
0.131113 0.172180 -0.301482 93 84 61
0.106487 0.156414 -0.306374 118 88 56
0.122951 0.158129 -0.298649 93 82 61
0.113785 0.245633 -0.250338 237 197 118
0.101228 0.205500 -0.249020 250 216 129
0.123286 0.207016 -0.247335 145 108 63
-0.252880 0.243603 -0.255712 254 223 147
-0.194590 0.375161 -0.256497 254 232 146
-0.590019 0.260708 -0.271470 163 99 42
-0.608280 0.273230 -0.267243 166 99 43
-0.584078 0.255753 -0.267415 158 89 38
-0.568105 0.268437 -0.254211 188 126 68
0.091333 0.237716 -0.250832 254 222 138
0.229850 0.340124 -0.255208 181 152 94
0.193863 0.317590 -0.247435 117 99 71
0.213530 0.329663 -0.250137 212 174 108
0.223562 0.315570 -0.258563 248 203 121
-0.152112 0.032424 -0.251018 254 218 142
-0.385899 0.432943 -0.255052 253 224 148
-0.051636 -0.038201 -0.251997 130 96 52
-0.080641 -0.057089 -0.247857 172 131 81
-0.066210 -0.078367 -0.249772 61 53 40
-0.070911 -0.060751 -0.251073 57 50 37
-0.089548 0.337070 -0.257399 253 229 143
-0.330667 0.233216 -0.254507 254 217 138
-0.030167 0.403716 -0.256182 254 230 144
-0.076212 0.087243 -0.252046 255 219 135
-0.430358 0.454779 -0.254863 255 226 153
-0.058549 0.151849 -0.255468 254 218 137
-0.034683 0.154381 -0.255731 254 219 140
-0.033988 0.177082 -0.255702 255 220 135
-0.057245 0.173573 -0.256302 254 220 142
0.171683 0.210267 -0.297471 100 91 70
0.178082 0.218215 -0.291091 98 87 69
0.190217 0.239579 -0.277033 105 94 72
0.192158 0.234567 -0.291825 100 90 71
0.184949 0.227456 -0.301456 99 88 67
0.171160 0.232432 -0.309110 110 95 91
0.176816 0.230119 -0.308836 112 80 47
0.177012 0.218784 -0.303447 117 90 60
-0.536667 0.290216 -0.252833 254 217 144
-0.645973 0.304219 -0.267598 176 110 55
-0.152220 -0.059431 -0.264233 55 51 38
-0.134557 -0.047915 -0.250657 164 102 43
-0.153158 -0.053095 -0.271349 55 51 38
-0.139272 -0.064842 -0.258772 171 104 42
-0.025976 0.335718 -0.256829 253 223 137
-0.002054 0.394397 -0.256048 254 225 147
0.003352 0.378713 -0.255351 255 220 137
0.002223 0.403270 -0.255263 254 222 143
-0.120949 0.266761 -0.257418 255 228 143
-0.098053 0.264223 -0.257168 254 229 147
-0.098253 0.244745 -0.256880 254 225 144
-0.647316 0.317622 -0.257900 194 139 83
-0.663281 0.314337 -0.267576 178 114 62
-0.489182 0.193574 -0.271675 160 93 41
-0.503284 0.196892 -0.267346 149 83 34
-0.508768 0.206130 -0.263350 154 83 32
-0.619508 0.392463 -0.255323 253 222 152
0.237699 0.328317 -0.265987 100 89 67
-0.445416 0.317466 -0.254601 253 229 152
0.311552 0.448309 -0.265824 92 48 16
0.291025 0.445235 -0.255451 99 52 19
0.304646 0.465003 -0.256071 94 49 16
0.318090 0.449943 -0.274005 104 60 21
0.262357 0.352140 -0.286596 178 126 69
0.266406 0.346981 -0.297860 200 136 74
0.266591 0.363013 -0.306694 195 134 67
0.262573 0.348544 -0.303796 181 125 66
0.289736 0.374814 -0.292667 104 57 21
0.280623 0.361663 -0.297001 112 64 26
0.261791 0.367630 -0.280160 209 143 72
0.263340 0.436422 -0.247361 146 97 49
0.281322 0.462719 -0.248020 143 92 39
-0.056778 0.367434 -0.257182 254 227 139
-0.568166 0.296716 -0.251999 255 218 145
-0.574412 0.285695 -0.250588 249 198 126
-0.218167 0.310716 -0.256852 254 229 147
-0.218753 0.341308 -0.256906 254 228 144
-0.190902 0.339405 -0.256921 253 231 150
-0.152677 0.339728 -0.258769 254 233 150
-0.155704 0.313617 -0.257648 254 232 146
-0.164006 0.336904 -0.257004 254 233 154
-0.215746 0.027402 -0.250060 227 164 90
-0.252896 0.052717 -0.250598 184 112 50
-0.252512 0.063854 -0.252425 254 211 136
-0.236057 0.018477 -0.267465 190 119 58
-0.231925 0.030591 -0.254480 193 123 57
-0.250417 0.028987 -0.271852 190 120 65
0.005118 -0.009643 -0.273583 79 73 55
0.014178 0.015251 -0.258354 122 88 48
0.011090 0.003245 -0.262767 67 57 35
-0.059171 -0.031351 -0.248671 246 205 130
-0.036571 -0.016070 -0.250305 236 195 121
-0.039784 -0.045094 -0.260462 112 86 47
-0.271416 0.098654 -0.252787 253 215 138
-0.533159 0.218128 -0.267246 153 85 34
-0.246417 0.207779 -0.255127 255 212 134
0.212864 0.279872 -0.304880 117 85 63
0.218450 0.298128 -0.306227 125 86 50
0.217836 0.274455 -0.297745 106 94 72
0.226871 0.282106 -0.290691 100 89 69
-0.344579 0.367218 -0.255437 254 233 152
-0.045479 0.314748 -0.256870 253 216 134
-0.103442 -0.079013 -0.282994 86 67 42
-0.107125 -0.070380 -0.301438 117 75 33
0.140177 0.360935 -0.250748 255 227 142
0.032909 0.097143 -0.250997 254 226 146
0.092129 0.146197 -0.252841 200 160 95
-0.369884 0.257810 -0.254626 254 216 137
-0.154241 0.400855 -0.256324 254 233 146
-0.154049 0.376666 -0.256810 253 231 146
-0.130230 0.400641 -0.256283 253 228 142
-0.379319 0.377290 -0.255315 254 231 153
-0.354079 0.376531 -0.255497 254 232 152
-0.087482 -0.105418 -0.299735 127 91 50
-0.090770 -0.112503 -0.291311 63 54 38
-0.072731 -0.109553 -0.289774 64 56 42
-0.069170 0.216466 -0.255171 253 217 135
-0.090089 0.244433 -0.255749 255 218 138
-0.079627 -0.093742 -0.253460 54 48 33
-0.092479 -0.092083 -0.254820 48 46 31
-0.066930 -0.105800 -0.264200 60 54 39
-0.411906 0.132321 -0.267361 96 76 50
-0.115444 0.307201 -0.257804 254 215 134
-0.125166 0.288716 -0.257177 253 216 135
-0.256052 0.344058 -0.256478 254 229 148
0.044826 0.067550 -0.305564 114 88 59
0.057894 0.063620 -0.292275 81 73 54
0.051471 0.069128 -0.302795 90 77 57
0.064506 0.081880 -0.300103 87 77 57
-0.521104 0.432966 -0.254457 254 219 143
0.130958 0.225666 -0.247053 109 89 56
0.035522 0.406716 -0.254508 254 221 138
-0.438667 0.345466 -0.255095 254 230 152
-0.467417 0.364997 -0.254917 254 229 151
0.043662 0.247042 -0.252407 253 220 134
0.101408 0.230353 -0.250873 254 221 137
0.079242 0.196762 -0.250966 253 219 133
-0.369714 0.134310 -0.251819 229 163 90
-0.346144 0.129516 -0.252601 254 217 139
-0.348166 0.173216 -0.253763 254 217 139
-0.349602 0.120615 -0.251160 236 176 101
-0.393845 0.121681 -0.267519 116 84 47
-0.410579 0.137535 -0.270423 123 95 59
-0.410315 0.139879 -0.260083 117 87 48
-0.385246 0.123024 -0.271135 188 112 45
-0.382675 0.143271 -0.250475 131 92 54
-0.414042 0.386716 -0.255345 254 230 155
-0.309062 0.138387 -0.253262 254 218 145
0.106108 0.132987 -0.277624 84 76 57
0.112215 0.141429 -0.293555 89 80 59
-0.290478 0.310404 -0.256234 255 232 152
-0.289020 0.369369 -0.255977 255 233 152
0.096930 0.118100 -0.293103 89 80 62
0.118593 0.162153 -0.304813 91 81 60
0.100693 0.139258 -0.304649 99 80 54
-0.200970 0.421598 -0.258941 253 220 135
-0.195174 0.192450 -0.255345 253 212 133
-0.022166 0.374216 -0.256161 254 216 134
0.290684 0.422173 -0.264318 96 50 18
0.307992 0.433234 -0.274918 93 48 18
0.296916 0.418076 -0.278062 99 54 22
0.306165 0.423133 -0.280223 95 50 16
0.311677 0.424038 -0.273926 90 45 18
0.312510 0.433442 -0.271170 90 45 17
-0.381166 0.235216 -0.254103 252 214 132
-0.020916 -0.027119 -0.299362 127 94 53
-0.007704 -0.021121 -0.294485 78 72 54
-0.004812 -0.022958 -0.286883 81 75 55
0.223090 0.372550 -0.246696 120 101 70
0.013834 0.297716 -0.254212 254 219 136
-0.165622 -0.038862 -0.272433 173 102 41
-0.179498 -0.025370 -0.271733 176 107 45
-0.179760 -0.022661 -0.267088 179 108 52
-0.160635 -0.025564 -0.258245 178 110 48
-0.176171 -0.024034 -0.275511 179 111 53
-0.196862 -0.010240 -0.271686 187 118 62
-0.360336 0.106440 -0.263396 190 117 49
-0.368845 0.105353 -0.267329 190 118 53
-0.009166 0.301966 -0.255978 255 219 137
-0.027641 -0.055434 -0.286810 72 69 51
-0.046664 -0.084242 -0.285595 65 65 53
-0.060024 -0.094284 -0.292611 123 89 54
-0.255327 0.441445 -0.259554 253 217 136
-0.009547 -0.000682 -0.259286 125 89 49
-0.014986 0.012977 -0.252297 253 217 132
-0.000978 0.012204 -0.260351 130 90 45
0.001576 -0.003138 -0.258595 119 89 49
-0.290728 0.054937 -0.267732 199 127 59
-0.262311 0.036847 -0.267315 196 126 60
-0.272312 0.043198 -0.266693 193 123 60
-0.254522 0.045958 -0.254775 200 129 62
-0.265748 0.040319 -0.273329 197 126 59
-0.249892 0.260069 -0.255760 254 218 138
0.027632 0.062858 -0.254911 250 215 131
0.036078 0.074790 -0.254486 249 216 131
-0.186018 0.346043 -0.259038 254 212 131
-0.160576 0.368841 -0.260232 254 217 137
-0.530775 0.382150 -0.254702 255 222 148
-0.224167 0.248716 -0.255960 253 216 135
0.058834 0.409716 -0.253689 253 224 138
-0.048080 -0.015020 -0.248860 254 226 151
0.114834 0.281716 -0.250352 255 221 135
0.099495 0.276008 -0.251218 253 220 133
0.129471 0.266839 -0.250101 242 205 125
-0.292965 0.464756 -0.260085 252 215 135
-0.297064 0.440447 -0.259495 254 218 136
-0.164844 0.219907 -0.256127 253 220 141
-0.160093 0.177809 -0.255411 253 213 129
0.144366 0.410029 -0.250905 253 228 139
-0.090652 0.046244 -0.251467 255 220 140
0.037833 0.140216 -0.252090 254 222 142
0.074080 0.135703 -0.253389 253 222 133
0.080350 0.160064 -0.252582 247 216 130
0.086432 0.129298 -0.254015 120 89 53
0.235561 0.295144 -0.289524 104 93 72
0.243335 0.303315 -0.294011 104 93 70
0.233440 0.299274 -0.301257 119 91 61
0.239987 0.309763 -0.280697 105 94 72
0.261705 0.384653 -0.268009 176 122 64
0.240486 0.364779 -0.255642 117 95 66
0.245445 0.355155 -0.264135 106 94 67
0.251873 0.342640 -0.272391 99 90 68
0.230965 0.366318 -0.250035 234 191 121
-0.328995 0.440363 -0.259338 254 217 137
-0.340584 0.464556 -0.259933 255 219 140
-0.046685 0.054220 -0.251252 254 217 133
-0.378284 0.440609 -0.259010 255 219 142
-0.356483 0.440626 -0.259682 254 217 136
-0.378182 0.464589 -0.259530 253 220 143
-0.281718 0.228439 -0.255035 255 217 137
-0.025203 0.233377 -0.255048 254 218 138
-0.376667 0.279216 -0.254479 253 215 133
-0.385639 0.303828 -0.255205 254 217 139
-0.259023 0.376332 -0.259019 254 218 139
-0.282008 0.377255 -0.258620 255 218 139
-0.282425 0.400357 -0.259063 254 216 137
-0.013583 0.338197 -0.255519 254 219 138
0.032677 0.374654 -0.254262 254 218 139
-0.090604 0.208956 -0.255414 255 219 136
0.094640 0.126922 -0.260506 86 79 59
0.109497 0.157042 -0.255593 94 84 62
0.100729 0.140566 -0.256479 87 78 58
-0.008954 -0.031199 -0.273302 77 74 54
-0.035827 -0.030511 -0.254168 131 93 43
-0.025603 -0.046318 -0.258103 99 78 44
-0.002872 -0.019223 -0.263399 111 99 69
-0.015985 -0.036793 -0.263976 57 56 42
-0.022404 -0.023267 -0.258743 126 91 46
-0.017730 -0.031305 -0.258647 70 59 44
-0.136212 0.115967 -0.253608 254 216 137
-0.250470 0.407496 -0.258859 254 216 134
-0.229747 0.418294 -0.258759 254 217 137
-0.175261 0.064398 -0.252863 252 217 143
-0.155559 0.069118 -0.252234 255 216 132
-0.199533 0.112360 -0.253310 253 216 144
-0.055511 0.377026 -0.258808 253 215 131
-0.346553 0.400687 -0.258388 253 216 136
-0.346514 0.377166 -0.257792 254 218 134
-0.322385 0.400580 -0.258780 254 218 136
-0.321563 0.377560 -0.258122 254 218 136
-0.314742 0.369304 -0.255853 255 218 141
-0.115889 0.083416 -0.252499 254 215 136
0.260963 0.343736 -0.279557 102 91 70
-0.458167 0.301466 -0.253841 255 217 139
-0.416791 0.294716 -0.254281 254 215 137
-0.627805 0.321794 -0.250570 189 130 76
-0.605917 0.326216 -0.252160 251 201 133
-0.617338 0.305298 -0.254868 185 127 70
-0.625144 0.337785 -0.251887 255 218 142
-0.532205 0.263093 -0.251381 253 205 134
-0.512666 0.265466 -0.252782 255 217 147
-0.527328 0.248806 -0.250216 208 149 89
-0.511966 0.237820 -0.250747 231 175 108
-0.550172 0.263535 -0.251309 221 162 95
-0.515778 0.406822 -0.254881 255 222 153
-0.123152 0.183253 -0.254981 255 219 142
-0.046029 0.394609 -0.256968 254 217 135
-0.257807 0.142630 -0.253785 253 214 135
0.317640 0.410830 -0.293242 94 48 15
0.302510 0.422531 -0.304229 105 76 45
0.296450 0.412537 -0.283829 100 54 19
0.310664 0.427821 -0.287531 93 48 15
0.317767 0.438031 -0.276740 93 49 17
0.309830 0.404347 -0.285336 91 48 16
0.317837 0.415482 -0.284300 89 47 17
0.307061 0.410540 -0.301845 97 57 23
-0.130413 0.239086 -0.256046 253 217 137
-0.128830 0.272689 -0.257096 253 216 138
0.213530 0.398413 -0.249359 249 214 132
0.196084 0.416466 -0.250056 254 227 138
0.188083 0.397091 -0.249748 254 226 137
-0.555566 0.239430 -0.271049 156 90 38
-0.565522 0.240470 -0.267375 150 83 31
-0.003649 0.114568 -0.251904 253 224 143
-0.030239 0.087522 -0.251813 253 218 136
0.038903 0.038760 -0.290650 83 76 58
0.049246 0.058815 -0.298291 83 73 57
0.035862 0.045088 -0.299862 117 88 53
0.161889 0.215063 -0.271624 91 81 59
0.169164 0.216696 -0.276309 95 85 66
0.168550 0.237831 -0.256270 92 81 60
0.176907 0.229991 -0.271500 93 83 63
0.185785 0.247170 -0.266229 97 86 66
-0.247416 0.283466 -0.256287 254 219 139
-0.246933 0.303282 -0.257012 254 217 139
-0.200166 0.216466 -0.255702 255 218 146
-0.198357 0.239419 -0.256026 254 217 145
-0.175559 0.438347 -0.259458 254 218 139
-0.098228 0.323515 -0.258424 255 218 138
0.257118 0.361198 -0.269062 166 118 68
-0.163775 0.154093 -0.254697 253 213 130
-0.066358 0.184145 -0.254414 254 219 139
0.094956 0.121580 -0.299029 86 78 58
0.091717 0.129617 -0.305791 118 88 51
-0.551506 0.363591 -0.254400 254 229 155
-0.171685 -0.005179 -0.248698 230 167 99
-0.161716 0.001566 -0.250892 254 216 140
-0.186974 0.017766 -0.252232 255 214 140
-0.458539 0.168778 -0.270658 91 78 52
-0.461889 0.174628 -0.262928 124 74 27
-0.448272 0.158505 -0.263423 94 83 59
-0.454978 0.158522 -0.267446 87 72 53
-0.468385 0.172643 -0.267632 88 74 54
-0.428914 0.147887 -0.271566 97 78 51
-0.302614 0.098807 -0.252476 253 213 138
0.132833 0.281716 -0.249469 254 230 144
0.154083 0.339591 -0.249737 253 226 136
0.122833 0.321216 -0.250426 255 229 142
-0.354432 0.368420 -0.257286 254 221 142
-0.377525 0.343994 -0.256149 254 219 137
-0.378146 0.367938 -0.257262 253 219 140
-0.467087 0.434568 -0.254536 255 230 157
-0.335083 0.256803 -0.254871 254 217 138
0.161256 0.237795 -0.250652 86 65 33
-0.055340 0.255155 -0.255828 254 218 137
-0.081964 -0.092252 -0.300685 101 80 48
-0.072402 -0.083514 -0.302913 128 93 52
-0.093533 -0.086259 -0.275808 89 71 44
-0.071558 -0.098196 -0.297558 128 93 54
-0.084709 -0.090015 -0.284952 133 95 52
-0.093146 -0.105688 -0.295033 107 85 52
-0.062002 -0.103807 -0.285485 99 82 56
-0.081763 -0.082123 -0.289703 84 70 43
-0.655766 0.389195 -0.255444 253 224 160
0.228014 0.296338 -0.272758 99 89 69
0.256495 0.325249 -0.290812 102 89 68
0.251942 0.327194 -0.301832 163 113 67
0.240913 0.331084 -0.305606 178 123 66
0.240298 0.317894 -0.303621 122 99 64
0.227658 0.311903 -0.305878 122 99 64
0.250360 0.343181 -0.306944 171 114 55
0.259958 0.330839 -0.295262 130 106 72
0.250700 0.330646 -0.278076 105 94 68
0.260274 0.337983 -0.298984 178 124 66
-0.313837 0.289443 -0.255440 254 216 137
0.214231 0.287332 -0.266165 131 113 76
0.220701 0.282646 -0.276585 100 90 69
0.204501 0.311800 -0.251179 166 138 94
0.191276 0.296779 -0.248030 165 136 93
0.200001 0.289165 -0.254586 198 162 108
-0.401081 0.157263 -0.250903 134 105 68
-0.410604 0.179279 -0.252546 255 219 143
-0.105782 0.417411 -0.260758 254 215 133
-0.002511 0.199622 -0.253888 254 220 138
0.044309 0.044921 -0.277637 83 75 58
-0.161005 0.464863 -0.259555 253 217 137
-0.218426 0.444103 -0.259473 252 216 135
-0.239945 0.465155 -0.259801 254 215 133
-0.444916 0.230216 -0.252908 254 217 137
0.002971 -0.000133 -0.298368 81 74 55
0.004925 0.013349 -0.303788 103 78 45
0.019266 0.009205 -0.289975 84 77 58
0.022151 0.024843 -0.299929 82 76 57
-0.258667 0.314716 -0.256408 254 218 141
-0.227926 0.336765 -0.258326 254 218 140
-0.250015 0.336742 -0.257764 254 219 138
0.235584 0.436966 -0.249830 253 208 125
0.226373 0.397021 -0.247793 122 97 63
-0.095222 -0.105281 -0.272981 56 50 38
-0.088785 -0.111286 -0.272816 55 48 34
-0.074528 -0.113142 -0.281395 58 52 38
-0.048167 0.423841 -0.256982 254 219 137
0.090159 0.187247 -0.249944 255 224 140
0.173690 0.339350 -0.249161 255 225 136
-0.089166 0.402216 -0.260491 254 217 134
-0.498405 0.306150 -0.253625 254 221 148
-0.221236 0.042010 -0.252361 252 212 134
-0.186270 0.382141 -0.260354 254 217 138
-0.187120 0.406719 -0.260284 253 218 139
-0.162606 0.392691 -0.261192 254 215 134
0.033146 0.203716 -0.253437 254 222 143
0.050833 0.213716 -0.253051 253 218 136
0.069834 0.218716 -0.251019 254 219 137
-0.525186 0.220560 -0.261604 154 89 37
-0.525054 0.216602 -0.271253 153 89 36
-0.127871 0.368602 -0.260781 255 218 139
-0.668128 0.324891 -0.271150 253 222 152
-0.156585 0.421180 -0.259147 254 217 136
-0.127626 0.423593 -0.259630 253 214 133
-0.161372 0.408626 -0.260535 253 218 136
0.139829 0.187618 -0.267393 94 82 61
0.151680 0.215907 -0.255188 97 85 62
0.149071 0.195848 -0.276752 95 84 64
0.139852 0.209103 -0.250967 124 106 75
0.093585 0.334091 -0.251643 255 229 145
0.112334 0.350716 -0.251137 254 226 141
0.137990 0.264376 -0.247863 126 104 72
0.147449 0.249263 -0.246542 92 75 45
0.051333 0.309216 -0.253053 254 220 139
0.039459 0.344216 -0.253616 254 220 138
-0.139024 -0.014622 -0.250087 251 200 122
-0.134043 0.012486 -0.250415 253 211 132
-0.145102 -0.035187 -0.254453 167 101 42
-0.147330 -0.020467 -0.249039 174 100 44
0.028897 0.183654 -0.252842 253 219 138
0.058601 0.144540 -0.251329 254 221 138
0.071441 0.162222 -0.251573 254 220 134
0.058433 0.066781 -0.271704 82 74 57
0.049716 0.057370 -0.264922 81 75 55
0.055301 0.069682 -0.259232 83 75 57
0.045775 0.058571 -0.258817 98 89 64
0.036860 0.047193 -0.257648 108 88 57
0.053437 0.079972 -0.255818 125 93 50
-0.338542 0.211216 -0.253899 253 213 132
-0.049640 -0.081301 -0.257208 77 71 55
-0.057024 -0.099799 -0.266743 70 86 67
-0.051104 -0.089269 -0.276779 121 100 69
-0.064913 -0.096847 -0.256746 73 70 62
-0.015417 0.255004 -0.255352 255 220 141
-0.431166 0.264966 -0.254095 254 217 137
-0.427711 0.244815 -0.253739 255 219 141
-0.118069 -0.045723 -0.247164 115 94 55
-0.110213 -0.005629 -0.249961 255 219 141
-0.113806 -0.036828 -0.248668 206 161 97
-0.097479 -0.034909 -0.248767 254 219 143
-0.211985 0.408178 -0.259535 253 218 138
0.161720 0.197694 -0.293509 94 85 64
-0.168507 0.097094 -0.253019 254 215 137
0.073935 0.097977 -0.259669 123 94 57
0.080203 0.096312 -0.275639 85 78 55
0.076391 0.094827 -0.265963 91 79 60
0.090802 0.116011 -0.266132 88 79 60
-0.026424 0.184364 -0.253959 254 219 141
-0.004229 0.152310 -0.253070 253 221 141
-0.274041 0.198341 -0.254856 253 213 134
-0.488882 0.333942 -0.254761 255 231 153
0.009100 0.262716 -0.254791 254 219 142
-0.057041 0.286341 -0.256511 254 217 132
0.212674 0.352287 -0.247044 182 149 101
-0.566754 0.421144 -0.254587 254 215 143
0.124871 0.157147 -0.294165 94 83 62
0.134017 0.172919 -0.279316 91 81 60
0.141983 0.180545 -0.294188 93 81 60
-0.127014 -0.075859 -0.261696 58 53 41
-0.118447 -0.084113 -0.261249 56 53 35
-0.094471 -0.100427 -0.264447 51 48 35
-0.096568 -0.099632 -0.269501 56 50 37
-0.117923 -0.081710 -0.267995 57 51 39
-0.104908 -0.079983 -0.273692 60 56 40
0.073833 0.382716 -0.253123 254 224 140
-0.057986 0.464650 -0.257415 253 219 137
-0.314371 0.408024 -0.255478 254 228 147
-0.658937 0.348697 -0.251199 254 215 142
-0.652654 0.365215 -0.253237 255 216 146
-0.675477 0.357215 -0.251221 255 217 145
-0.590744 0.272366 -0.259909 169 106 49
-0.606708 0.309680 -0.251037 203 146 82
-0.609565 0.294635 -0.256015 186 123 67
-0.310667 0.186716 -0.254255 253 214 132
-0.282417 0.182591 -0.254315 253 213 131
-0.299166 0.221716 -0.255067 254 216 136
-0.095387 0.280211 -0.256427 254 215 130
-0.092256 0.305336 -0.257448 254 217 135
-0.290637 0.385118 -0.255788 254 231 152
-0.289865 0.408469 -0.255435 254 233 147
-0.289704 0.432587 -0.255382 254 232 152
-0.649059 0.311535 -0.271117 254 224 153
-0.629508 0.290224 -0.267583 175 111 58
-0.634305 0.301366 -0.263495 188 126 67
-0.619795 0.286511 -0.272057 176 112 58
-0.611533 0.279608 -0.272283 254 222 151
0.148556 0.239488 -0.247383 100 78 50
-0.554917 0.395216 -0.255003 254 222 152
-0.580082 0.380911 -0.254391 254 223 151
-0.078759 0.067201 -0.251727 254 221 139
-0.080931 0.464741 -0.257642 254 219 138
-0.142167 0.446841 -0.259683 254 216 135
-0.100852 0.429924 -0.258689 253 216 133
0.102895 0.178855 -0.247291 108 87 58
0.121536 0.170176 -0.256086 108 96 70
0.103111 0.160290 -0.250750 176 147 104
0.120975 0.182674 -0.250984 171 143 103
0.113918 0.149329 -0.267336 86 77 58
0.123291 0.160340 -0.271979 88 78 57
0.128649 0.183581 -0.255557 87 78 57
0.015426 0.035544 -0.305959 121 89 50
0.261575 0.408035 -0.254604 111 76 47
0.240772 0.406498 -0.246983 115 97 67
0.252496 0.376227 -0.261053 173 123 72
0.252426 0.392230 -0.253976 156 115 70
-0.085666 0.012716 -0.250146 254 221 145
0.101459 0.413529 -0.252647 253 226 141
0.107001 0.464950 -0.252201 254 231 146
-0.198004 0.055959 -0.252719 254 219 148
-0.292428 0.058101 -0.271998 197 125 57
-0.309593 0.066386 -0.266634 192 122 58
-0.317856 0.084316 -0.259017 193 123 57
0.317754 0.439999 -0.289153 95 51 13
-0.112591 0.022487 -0.250644 254 219 145
-0.632626 0.439650 -0.254516 254 217 151
0.099879 0.295966 -0.251095 254 222 137
-0.131665 0.211227 -0.255672 252 214 135
-0.562634 0.318685 -0.252900 255 218 152
0.056834 0.433216 -0.254241 254 225 139
-0.166057 0.030598 -0.251783 254 215 140
-0.194221 0.400708 -0.256111 254 233 151
-0.003808 0.053837 -0.250493 255 219 134
0.196215 0.263594 -0.263904 170 145 88
0.163862 0.260000 -0.247359 94 79 52
0.178087 0.257987 -0.252519 109 98 78
-0.069418 0.426546 -0.257562 253 214 127
-0.068166 0.403966 -0.259096 253 214 128
0.121370 0.180288 -0.308113 59 52 41
0.016583 0.225966 -0.254089 254 220 138
0.031009 0.240451 -0.253645 254 219 141
-0.059424 -0.074241 -0.253014 79 66 43
-0.036027 -0.062120 -0.259545 107 92 62
-0.046468 -0.067036 -0.257168 148 124 85
-0.057904 -0.058957 -0.258923 76 61 39
-0.043977 -0.078794 -0.263587 71 60 40
-0.130050 0.376610 -0.257224 254 213 131
-0.123368 0.408494 -0.261073 254 214 133
-0.121531 0.390700 -0.260786 253 214 130
0.068878 0.464526 -0.253503 255 225 144
0.024458 0.448779 -0.255216 254 220 138
-0.445041 0.187712 -0.251205 156 102 47
-0.208542 0.142060 -0.254180 254 215 134
-0.234628 0.113204 -0.253065 254 214 134
-0.112137 -0.067833 -0.251545 64 58 44
-0.088063 -0.070250 -0.244768 50 46 33
-0.121619 -0.071992 -0.273585 133 79 35
-0.079120 -0.062304 -0.296338 87 71 48
-0.091325 -0.079633 -0.287729 83 68 46
-0.060893 -0.076106 -0.300545 127 94 54
-0.062315 -0.066398 -0.302166 129 94 54
-0.073431 -0.047935 -0.305662 35 30 23
-0.084537 -0.054412 -0.305830 91 58 29
-0.079351 -0.072975 -0.294873 89 71 47
-0.067571 -0.061893 -0.295008 77 60 38
-0.385986 0.361548 -0.255482 255 233 157
-0.429167 0.364407 -0.255184 255 239 166
-0.097145 0.345315 -0.258853 253 217 137
-0.092179 0.385819 -0.260334 253 216 134
-0.059901 0.336747 -0.257215 254 218 136
-0.068404 0.359581 -0.259058 255 217 138
-0.096287 0.128445 -0.253440 255 218 136
-0.112164 0.148656 -0.253699 253 216 132
-0.578201 0.256877 -0.272195 210 163 100
-0.546425 0.241177 -0.258581 157 93 41
-0.558229 0.257973 -0.255723 164 98 44
-0.516490 0.313405 -0.253856 254 219 150
-0.505573 0.370466 -0.254849 253 219 146
0.281909 0.371393 -0.283561 145 92 45
0.282501 0.396363 -0.272129 92 48 15
0.268188 0.370691 -0.279213 208 141 73
-0.030005 -0.036325 -0.300573 129 92 48
-0.047339 -0.035854 -0.298658 59 51 39
-0.042213 -0.038876 -0.303562 130 92 49
-0.068291 0.122716 -0.253140 254 221 149
-0.065712 0.145937 -0.253653 253 222 146
-0.456042 0.257966 -0.253430 255 219 143
-0.089585 0.264969 -0.256385 253 216 130
-0.487700 0.190257 -0.263197 154 88 34
-0.477022 0.211451 -0.250176 198 135 73
-0.441166 0.204622 -0.252364 255 217 141
-0.443202 0.175829 -0.255593 157 91 37
-0.467772 0.187035 -0.257393 154 86 34
-0.034847 0.123522 -0.252847 252 221 141
-0.027891 0.144937 -0.252888 254 219 138
0.196868 0.370486 -0.248904 254 226 137
0.193407 0.348500 -0.247508 221 186 126
-0.309932 0.250428 -0.254895 253 215 133
-0.100523 -0.050595 -0.309040 101 65 35
-0.093964 -0.071250 -0.302421 85 66 39
-0.112622 -0.057636 -0.304852 148 91 43
-0.218106 0.003334 -0.270400 183 115 60
-0.194526 0.013045 -0.249834 226 159 88
-0.203372 -0.006094 -0.267462 182 113 57
-0.199977 0.008802 -0.253072 184 116 60
-0.204806 0.002014 -0.275679 192 128 72
-0.495620 0.211000 -0.255610 155 87 36
-0.512167 0.248716 -0.251944 252 201 133
-0.521013 0.232449 -0.254578 162 96 41
-0.472378 0.222445 -0.252141 253 215 139
-0.487166 0.243716 -0.252916 255 218 142
0.159318 0.298040 -0.247352 133 111 74
0.177130 0.292222 -0.246587 141 117 78
0.181518 0.278397 -0.249016 119 102 66
-0.384666 0.204716 -0.253287 254 220 146
-0.168967 0.281248 -0.257319 253 225 141
-0.148292 0.287716 -0.257275 254 229 147
0.067302 0.359638 -0.252720 255 230 145
-0.226965 0.011275 -0.272983 185 116 60
0.041219 0.112194 -0.250741 254 223 138
0.060175 0.115036 -0.254296 220 187 107
0.045832 0.091456 -0.255665 142 103 56
0.064458 0.101120 -0.254099 98 75 50
-0.628700 0.378597 -0.254228 255 230 162
0.304332 0.392677 -0.293977 94 48 16
0.299718 0.393556 -0.281996 93 49 17
0.293067 0.395438 -0.303148 107 76 46
-0.052675 -0.059118 -0.303341 98 78 47
-0.059765 -0.051895 -0.297479 66 54 36
-0.039279 -0.064248 -0.293861 86 75 52
-0.040940 -0.050001 -0.300988 119 87 50
-0.102052 -0.059824 -0.245422 56 51 38
0.082558 0.746907 -0.588977 52 47 35
0.107342 0.748054 -0.600491 53 49 35
0.106606 0.741843 -0.591971 55 49 37
0.214547 0.462179 -0.549531 68 63 56
0.236765 0.458494 -0.552933 59 41 21
-0.255219 1.054126 -0.562919 71 43 21
-0.241549 1.056677 -0.574129 76 42 12
-0.250962 1.046333 -0.578000 71 47 26
-0.234623 1.069589 -0.571970 74 41 13
-0.224942 1.070878 -0.581326 66 41 22
-0.237797 1.048633 -0.585379 74 47 23
-0.009213 1.058841 -0.576159 226 156 76
-0.041420 1.029277 -0.571646 225 157 79
-0.054123 1.039448 -0.569767 211 143 69
-0.265292 1.008659 -0.550309 55 26 7
-0.287435 0.984812 -0.552978 55 28 13
-0.281054 1.006478 -0.553351 55 28 9
0.036695 0.792929 -0.608823 87 77 61
-0.239192 1.038508 -0.550049 63 31 7
-0.248281 1.014376 -0.551027 56 29 7
-0.229130 1.020161 -0.548958 62 30 9
-0.128388 0.850365 -0.579366 113 102 83
-0.135385 0.868505 -0.571207 120 106 87
-0.132287 0.860774 -0.584041 99 85 67
-0.154458 0.877998 -0.585705 102 89 71
-0.130238 0.884783 -0.582680 68 49 32
-0.135375 0.865197 -0.582670 103 89 70
-0.149823 0.860430 -0.580285 122 110 89
-0.140414 0.865062 -0.579214 112 99 78
-0.304265 0.940783 -0.557259 99 88 73
-0.317250 0.949864 -0.557782 99 88 73
0.175920 0.893215 -0.560111 90 80 63
0.194155 0.881161 -0.560020 86 79 59
0.184310 0.921403 -0.563883 89 81 61
0.220780 0.927470 -0.565439 99 90 70
0.014081 0.873962 -0.554232 50 26 9
0.127198 0.797786 -0.573349 57 53 40
-0.164661 1.071870 -0.555104 146 87 33
-0.195837 1.041905 -0.550746 72 38 8
-0.171758 1.055413 -0.553874 82 43 12
0.002709 0.802418 -0.597775 59 45 34
-0.002669 0.809568 -0.602322 64 51 37
0.061620 0.804307 -0.554053 47 38 25
0.046782 0.820615 -0.554459 50 34 22
0.059057 0.784763 -0.564898 51 39 28
0.160960 0.791615 -0.571605 59 56 42
0.158737 0.800668 -0.576049 61 55 43
0.181187 0.823810 -0.568307 60 55 41
0.167067 0.797763 -0.567733 59 54 38
0.213907 0.932098 -0.563882 97 89 66
0.221207 0.943991 -0.564653 99 86 65
0.206138 0.905652 -0.561172 92 82 65
0.181020 0.884526 -0.579703 91 80 60
0.182421 0.902084 -0.585040 93 81 60
-0.246849 0.942855 -0.560928 67 54 38
-0.226810 0.944933 -0.557124 48 32 19
-0.231376 0.920249 -0.560633 38 27 15
-0.233122 0.924354 -0.569381 44 31 19
0.123790 0.508176 -0.571553 51 46 37
0.120838 0.501276 -0.574527 51 46 35
-0.142491 1.048006 -0.558507 132 77 27
-0.131493 1.060562 -0.560207 130 77 28
0.236444 0.471472 -0.562009 55 37 17
-0.168159 0.873285 -0.584151 99 86 66
-0.177253 0.858327 -0.572598 113 102 84
-0.165134 0.863378 -0.579007 120 109 89
-0.177000 0.851438 -0.579995 111 98 81
0.172976 0.472324 -0.551949 53 50 41
0.174854 0.491351 -0.560655 72 67 56
0.181056 0.498576 -0.569373 76 69 56
0.190089 0.490586 -0.562260 75 69 59
0.197067 0.469537 -0.554875 63 55 50
0.138534 0.884593 -0.552505 74 51 29
0.141762 0.862929 -0.551047 79 58 32
0.157048 0.859251 -0.555707 62 57 42
0.149105 0.884667 -0.554055 106 77 45
0.003834 1.042716 -0.575367 226 157 85
0.000194 1.021580 -0.573554 223 155 82
0.167194 0.803783 -0.561518 61 55 46
0.180109 0.825976 -0.563838 59 57 42
-0.129311 0.947374 -0.554366 61 28 10
-0.149812 0.964146 -0.553921 63 31 9
-0.127763 0.973190 -0.555647 65 33 9
-0.086167 1.010716 -0.564224 83 44 17
-0.084167 0.984716 -0.561772 75 40 12
-0.100668 1.011551 -0.561523 85 47 16
-0.277983 0.976581 -0.553196 84 65 49
-0.286128 0.961245 -0.559129 131 114 94
-0.263871 0.975160 -0.552556 59 39 22
-0.274451 0.960914 -0.560527 105 87 70
-0.263748 0.949141 -0.563449 80 63 46
-0.255352 0.945662 -0.566161 94 77 59
-0.275589 0.945619 -0.566413 139 122 98
0.105315 0.901063 -0.558204 122 75 29
-0.104939 0.856921 -0.567719 123 110 92
-0.097781 0.846957 -0.571254 124 115 93
-0.104530 0.843615 -0.577779 126 114 93
-0.120269 0.851095 -0.583117 108 95 75
-0.116982 0.843924 -0.579321 108 95 75
0.221241 0.898691 -0.580637 89 80 59
0.205699 0.887242 -0.581362 91 80 62
0.191089 0.890285 -0.580500 89 80 60
0.213676 0.879793 -0.575139 89 79 62
0.206816 0.911436 -0.581617 92 81 62
0.222871 0.903037 -0.569323 88 81 63
-0.225857 0.994050 -0.552438 51 23 8
-0.212276 0.977320 -0.553684 53 25 6
-0.205161 0.998737 -0.551897 60 29 8
-0.183780 0.990913 -0.552528 61 29 7
-0.102679 1.034724 -0.563408 149 90 33
-0.011389 0.822482 -0.573802 49 44 29
-0.015460 0.820490 -0.598404 49 37 26
-0.013874 0.827219 -0.581019 49 39 25
-0.001321 0.816648 -0.579915 45 39 24
-0.015955 0.836624 -0.581738 44 29 18
-0.286150 1.008674 -0.574965 67 39 18
-0.277627 1.005219 -0.582209 115 102 83
-0.283165 0.995996 -0.585956 129 114 95
-0.060964 1.056775 -0.570021 209 139 64
-0.041672 1.050239 -0.572478 211 141 66
-0.046772 1.066953 -0.572207 218 147 75
-0.321957 0.988776 -0.582400 84 69 54
-0.318963 0.983890 -0.564307 80 60 44
-0.314138 0.986809 -0.566725 59 35 17
-0.305890 0.996281 -0.560624 62 35 14
-0.300909 1.005152 -0.568446 57 30 10
-0.281626 1.013042 -0.561383 68 40 18
-0.297421 1.004213 -0.563631 59 34 13
-0.311439 0.986329 -0.555504 68 48 31
-0.297216 0.988013 -0.555189 58 37 21
0.095913 0.889414 -0.556374 61 32 9
-0.191796 0.969086 -0.553073 53 25 5
-0.199991 0.952888 -0.556768 50 25 10
0.089520 0.773518 -0.562956 54 51 38
-0.149915 0.936164 -0.554529 58 36 22
-0.151738 0.924683 -0.557773 49 25 9
0.163177 0.879335 -0.558718 75 68 52
0.184860 0.877795 -0.558404 82 73 57
0.165612 0.853643 -0.554997 71 64 47
0.183959 0.861981 -0.557218 72 64 48
0.158043 0.503751 -0.570942 61 55 50
0.193296 0.498972 -0.572529 72 65 50
0.182261 0.491289 -0.578975 71 64 49
0.024508 0.921689 -0.560963 81 44 17
-0.085516 0.970654 -0.559346 77 41 13
0.074939 0.974031 -0.570684 243 182 123
0.087327 0.953916 -0.566846 244 184 122
-0.119801 0.931569 -0.554941 54 27 8
-0.104074 0.919286 -0.555772 55 27 8
0.194908 0.898159 -0.559935 88 79 61
-0.024786 0.963483 -0.565133 80 42 16
-0.025960 0.941878 -0.561359 77 43 14
-0.005352 0.958799 -0.566100 85 48 16
-0.223325 0.931138 -0.587342 54 37 23
-0.251516 0.931776 -0.569983 106 94 75
-0.242764 0.913872 -0.571704 87 74 58
-0.241786 0.918139 -0.587127 74 61 45
-0.226650 0.919051 -0.584485 52 37 21
-0.242320 0.931059 -0.585824 81 62 48
0.052685 0.922482 -0.562510 91 51 20
0.048568 0.935593 -0.563930 138 89 45
0.048635 0.874780 -0.554370 49 25 8
0.069653 0.882496 -0.555854 57 27 7
0.028178 0.787574 -0.601044 88 78 61
0.017360 0.797448 -0.603313 84 75 60
-0.121362 1.085217 -0.562360 176 111 44
-0.222130 1.043381 -0.548583 65 30 8
0.146376 0.820725 -0.573282 60 54 39
0.159456 0.834633 -0.572671 61 55 40
0.018058 0.800601 -0.572823 50 40 26
0.006270 0.810940 -0.573102 48 43 30
0.027427 0.793581 -0.577208 48 39 25
0.038579 0.791520 -0.565131 51 42 30
-0.002224 0.806484 -0.590280 49 44 31
0.006713 0.807064 -0.581561 49 44 31
0.023511 0.789353 -0.595236 51 43 30
-0.016422 0.994803 -0.569690 163 107 54
-0.023197 0.981318 -0.568294 159 106 57
-0.021425 1.013727 -0.572140 168 112 56
0.072854 0.784238 -0.559355 51 43 28
0.083494 0.817442 -0.549738 51 31 17
0.087794 0.794116 -0.552965 51 38 27
-0.277218 1.009504 -0.587309 66 38 16
-0.281219 1.014339 -0.575498 83 55 34
-0.279675 1.040895 -0.575930 84 55 30
-0.284645 1.025268 -0.575403 84 56 31
-0.279948 1.027796 -0.588227 130 117 100
-0.282970 1.014741 -0.592861 143 129 114
-0.277828 1.020120 -0.593336 143 131 116
-0.266455 1.013705 -0.591803 100 88 73
-0.268959 1.035486 -0.593398 123 112 99
-0.260015 1.024828 -0.596650 83 74 60
0.141500 0.803153 -0.570537 62 57 42
0.156136 0.823213 -0.572089 58 57 42
0.005126 0.942815 -0.564525 81 44 16
0.132575 0.505595 -0.565432 52 47 38
0.162139 0.504540 -0.567373 59 56 50
0.211735 0.877952 -0.570855 86 78 56
0.193280 0.869681 -0.578561 82 76 58
0.200609 0.858726 -0.572958 81 72 57
0.194856 0.846321 -0.565904 78 71 57
0.157948 0.902672 -0.556211 211 151 75
0.135113 0.897843 -0.554719 124 93 57
0.206309 0.939640 -0.588114 105 88 66
0.020717 0.896820 -0.557164 60 28 6
0.003295 0.922407 -0.560240 62 31 9
0.036471 0.902732 -0.557842 61 32 7
-0.327461 0.971184 -0.565946 158 140 118
-0.321970 0.971282 -0.557911 145 127 106
-0.316682 0.975905 -0.558149 118 101 82
-0.337070 0.962572 -0.558118 63 53 44
-0.327600 0.956179 -0.559605 63 53 44
0.121809 0.863487 -0.549387 75 39 14
0.143112 0.502054 -0.573900 52 48 38
0.143322 0.512422 -0.570420 54 50 44
-0.124239 1.003302 -0.558460 69 35 10
-0.101270 0.987242 -0.559536 74 40 11
0.171653 0.827288 -0.574750 63 57 44
0.184193 0.832762 -0.571385 63 58 43
0.187804 0.849289 -0.576567 68 61 46
0.163481 0.848731 -0.575629 62 59 45
-0.017272 0.881104 -0.554995 49 24 8
-0.011894 0.900398 -0.555782 50 23 6
-0.026580 0.859204 -0.557729 44 32 17
-0.003714 0.863229 -0.554732 47 28 15
0.075511 0.902758 -0.558113 74 37 14
0.092738 0.868541 -0.553378 70 35 11
0.096117 0.986825 -0.571585 248 188 128
-0.240999 0.999284 -0.550544 56 25 7
-0.238353 1.009665 -0.550334 58 27 6
0.045740 0.998830 -0.573351 242 176 108
-0.062804 1.023180 -0.568577 134 81 32
0.056500 0.966477 -0.569339 204 148 94
-0.040802 0.907727 -0.555405 59 28 7
-0.058562 0.882667 -0.555082 53 33 18
0.021050 0.945212 -0.565017 110 65 31
0.127506 0.980445 -0.570068 251 192 128
0.125494 0.998612 -0.571819 252 193 129
0.151474 0.923879 -0.557957 243 184 116
0.198046 0.495310 -0.564960 76 69 53
0.207782 0.478894 -0.578668 75 68 52
0.201411 0.491482 -0.575554 81 76 58
0.220258 0.480289 -0.578319 83 78 59
0.228657 0.466822 -0.583113 84 79 59
0.055759 1.015366 -0.574985 247 184 115
0.095440 0.762670 -0.607971 57 37 21
0.092700 0.771327 -0.611790 53 34 19
0.080781 0.757387 -0.601451 91 81 65
0.106802 0.743636 -0.586833 52 49 37
0.122315 0.744493 -0.584589 56 51 39
0.124239 0.741286 -0.592353 57 52 40
0.030643 0.844275 -0.553068 48 29 14
0.057035 0.847320 -0.552452 48 28 14
0.055944 0.825132 -0.552894 49 31 16
-0.164674 1.037463 -0.554702 78 42 11
0.108445 0.762590 -0.609034 48 32 22
-0.124617 0.902119 -0.557284 83 71 53
-0.105249 0.893320 -0.556669 58 41 25
-0.117513 0.911491 -0.554000 58 39 24
0.146848 0.776228 -0.566050 59 55 41
0.203068 0.488034 -0.557382 85 77 60
0.211951 0.476768 -0.552257 55 45 25
0.212862 0.489199 -0.569568 64 53 34
-0.140172 1.074206 -0.560051 177 111 45
0.092054 0.468450 -0.577649 54 49 38
0.129721 0.839851 -0.549265 60 49 30
0.109747 0.837846 -0.547365 58 51 35
-0.084654 0.868580 -0.557825 85 73 53
-0.065417 0.876950 -0.555721 58 43 27
-0.074620 0.868911 -0.560379 70 56 39
-0.066592 0.843066 -0.573763 96 85 67
-0.228812 1.087128 -0.552333 87 48 15
-0.217547 1.071630 -0.552304 86 47 12
0.175781 0.927883 -0.561621 125 101 70
0.182215 0.957201 -0.562734 163 131 84
0.193140 0.939939 -0.564534 91 82 62
-0.206216 0.860671 -0.578999 82 73 61
-0.125659 0.867523 -0.564660 117 107 88
-0.154443 0.871932 -0.571139 130 117 97
-0.143564 0.880862 -0.566943 126 114 95
0.026205 0.805589 -0.565804 50 37 23
-0.283230 0.917443 -0.565241 60 54 46
-0.279794 0.922708 -0.567488 107 96 79
-0.290371 0.939450 -0.558568 128 116 98
-0.272690 0.940107 -0.558314 116 104 86
-0.282306 0.943196 -0.563385 123 110 91
-0.288727 0.929026 -0.556729 115 103 86
-0.313628 0.989723 -0.582835 59 38 17
-0.294225 1.010801 -0.575214 68 38 18
-0.303535 0.987287 -0.581020 148 133 111
-0.308571 0.994010 -0.577974 79 52 31
0.160879 0.468961 -0.551049 53 46 35
0.150769 0.502722 -0.562109 51 45 36
0.136255 0.490771 -0.560376 52 46 36
-0.170141 0.916264 -0.558126 84 68 52
-0.167506 0.936058 -0.556525 52 29 17
-0.205751 0.942168 -0.557768 48 28 16
-0.226831 0.925959 -0.561036 37 27 17
-0.207381 0.915448 -0.560654 37 27 17
-0.219810 0.937167 -0.555205 39 27 18
-0.206683 0.930001 -0.556779 41 27 19
-0.302996 0.970511 -0.558601 129 113 93
-0.306731 0.958208 -0.556842 154 140 118
-0.258230 1.040437 -0.554010 63 31 7
-0.273907 1.023161 -0.555325 58 28 7
-0.278702 1.040455 -0.565318 90 60 36
-0.276196 1.029855 -0.562655 88 60 39
-0.267534 1.033416 -0.553870 68 35 12
-0.260966 1.020739 -0.556309 63 31 7
-0.268726 1.039108 -0.567962 68 36 12
0.080378 1.027364 -0.576747 252 192 121
0.174713 0.839570 -0.558044 67 60 44
-0.202430 1.079782 -0.555654 101 58 21
-0.212059 1.076700 -0.556298 94 50 18
-0.218630 1.079112 -0.556438 103 58 21
0.048977 0.778424 -0.602766 64 51 37
0.164401 0.944720 -0.560620 250 194 130
0.177047 0.974150 -0.563856 240 192 125
-0.198541 1.078367 -0.550621 82 42 10
-0.212649 1.056242 -0.548390 73 38 10
-0.185676 0.904662 -0.560211 111 100 81
-0.169924 0.898613 -0.561929 119 105 87
-0.186024 0.921762 -0.556905 87 74 57
-0.184453 0.898047 -0.559824 133 120 100
-0.185462 0.878691 -0.568581 110 99 79
-0.175324 0.882016 -0.565158 111 98 79
-0.163081 0.879348 -0.570924 127 115 91
-0.164232 1.082888 -0.554708 138 85 33
-0.026056 0.905748 -0.556340 62 31 8
0.227545 0.915027 -0.584336 97 86 69
0.232400 0.911289 -0.579658 97 87 69
0.224881 0.898155 -0.575060 91 82 63
0.234195 0.916709 -0.574269 95 86 65
-0.267181 1.045542 -0.580473 85 62 42
-0.262887 1.047433 -0.573517 88 64 41
0.025506 0.788938 -0.587778 50 45 31
0.040171 0.775210 -0.594413 49 44 32
0.130837 0.816393 -0.552868 58 54 41
0.151906 0.815668 -0.555062 60 55 46
0.162416 0.828195 -0.553710 60 55 40
0.135618 0.791794 -0.556365 60 55 40
0.012067 0.975595 -0.569205 160 107 56
0.038753 0.975687 -0.570009 223 163 101
0.002289 0.982203 -0.570126 169 115 64
0.152345 0.845297 -0.554808 61 56 42
0.141870 0.827793 -0.553681 57 55 43
-0.246315 1.055909 -0.548596 68 32 9
-0.250456 1.059811 -0.556273 70 36 13
-0.230458 1.060880 -0.555900 75 39 12
-0.240349 1.065604 -0.562635 73 40 15
-0.237422 1.065949 -0.556941 76 39 12
0.024100 1.000959 -0.573599 230 164 100
0.062212 0.774687 -0.571497 54 47 36
0.038823 0.783744 -0.582706 49 40 25
0.062331 0.761126 -0.591195 51 44 31
0.049159 0.772514 -0.585139 52 45 34
0.045215 0.777934 -0.573532 53 46 34
0.068651 0.764456 -0.602600 53 43 28
-0.133452 1.014307 -0.557907 73 37 10
-0.125170 1.028000 -0.559918 81 42 12
-0.167322 1.026109 -0.554454 75 39 13
-0.217220 0.948376 -0.556935 50 31 17
-0.247461 0.960925 -0.557465 50 29 14
-0.237508 0.976904 -0.554964 51 27 12
-0.218023 0.963214 -0.555899 50 27 9
-0.220006 0.894085 -0.561325 36 29 19
-0.234354 0.899152 -0.563638 28 22 13
-0.219358 0.909450 -0.560638 36 26 13
-0.240386 0.911704 -0.562727 29 21 13
0.014566 0.835296 -0.556866 50 34 20
-0.144331 0.886862 -0.581675 68 51 34
0.004600 0.816864 -0.568638 46 41 28
-0.073855 0.835859 -0.577272 123 111 91
-0.090096 0.834071 -0.578934 125 113 93
-0.085886 0.853953 -0.562876 120 108 88
-0.084495 0.843119 -0.583102 93 83 64
-0.068082 0.841918 -0.579668 89 74 57
-0.094435 0.935070 -0.555773 68 34 10
-0.117223 0.971535 -0.555865 62 32 8
-0.087863 0.895219 -0.554883 57 39 23
-0.076852 0.899307 -0.555214 54 34 19
-0.212200 1.072275 -0.571264 102 57 20
-0.204320 1.072136 -0.572030 112 64 20
-0.207945 1.051483 -0.582209 93 58 26
-0.193975 1.069020 -0.582104 80 41 13
-0.079911 0.949170 -0.557999 64 32 12
-0.051752 0.939781 -0.558000 63 32 9
0.124059 0.757936 -0.604553 56 53 37
0.160893 0.794154 -0.564422 59 55 43
0.150214 0.765476 -0.579356 58 56 41
0.152838 0.781028 -0.576482 58 55 41
0.151849 0.772339 -0.573454 59 54 40
0.142503 0.785189 -0.574265 59 56 41
0.132287 0.760148 -0.572743 58 53 42
0.143430 0.769763 -0.585999 59 54 40
0.149431 0.977008 -0.566901 254 201 134
-0.251004 0.915986 -0.579984 52 37 24
-0.245902 0.901798 -0.579952 42 30 19
-0.231878 0.912845 -0.580867 42 31 19
-0.248964 0.902967 -0.568591 30 22 13
-0.244987 0.891559 -0.584918 59 48 35
-0.255574 0.895741 -0.578177 44 34 23
-0.041857 0.998242 -0.568556 137 87 39
0.237858 0.470302 -0.579084 83 78 58
0.226418 0.481225 -0.575170 82 78 58
0.246007 0.469242 -0.575360 82 79 58
-0.001234 0.822082 -0.583667 52 41 31
-0.033111 0.838876 -0.581166 72 59 42
-0.040855 0.835664 -0.574603 91 81 63
-0.021733 0.827508 -0.573438 74 64 48
-0.050328 0.842140 -0.576809 76 63 47
-0.050860 0.849647 -0.569646 85 76 58
-0.048810 0.872918 -0.558085 57 41 24
-0.047486 0.889547 -0.556100 51 31 15
-0.036880 0.876511 -0.555616 55 37 21
-0.127312 0.884274 -0.557925 107 97 78
-0.110294 0.879322 -0.556948 113 100 81
-0.092144 0.884212 -0.557769 93 81 63
-0.099133 0.871375 -0.559931 115 103 82
-0.061458 0.914441 -0.555591 58 29 7
-0.039391 0.927886 -0.557802 69 36 12
0.090550 0.831415 -0.548943 53 32 15
0.073941 0.851617 -0.552278 50 25 6
-0.344280 0.948660 -0.576588 96 82 66
-0.330456 0.958754 -0.569979 141 124 102
-0.333945 0.970024 -0.574700 149 131 110
-0.323261 0.978557 -0.575543 87 69 48
-0.317106 0.971368 -0.581759 57 38 19
-0.334491 0.960871 -0.594472 121 105 86
-0.321887 0.979243 -0.589449 64 47 29
-0.328047 0.967528 -0.587284 83 67 49
-0.337600 0.953722 -0.580290 141 126 104
-0.339586 0.960595 -0.589270 140 124 104
-0.324033 0.959088 -0.587213 101 87 69
-0.338526 0.948717 -0.592933 142 126 105
-0.332444 0.952265 -0.594784 128 113 94
-0.339144 0.954206 -0.596586 147 130 108
-0.198596 0.873157 -0.564762 100 90 76
0.074776 0.762834 -0.578143 53 48 34
0.069987 0.759127 -0.586264 53 47 33
0.073241 0.769180 -0.569318 50 46 32
0.088075 0.761555 -0.573578 52 48 33
-0.064167 1.004716 -0.566567 102 59 23
-0.043909 1.015143 -0.569528 113 70 28
0.123612 0.783630 -0.574159 56 51 35
0.125647 0.771869 -0.580895 55 50 38
0.129323 0.766175 -0.591776 61 55 41
-0.193315 1.013155 -0.551206 65 32 9
-0.169388 1.008977 -0.553830 67 33 10
-0.152419 0.993679 -0.554260 63 31 10
0.102278 0.817335 -0.547472 57 50 37
0.123211 0.805911 -0.553925 57 52 39
0.103690 0.807033 -0.549402 56 50 40
-0.063828 0.981610 -0.563843 86 46 14
-0.052134 0.963120 -0.562355 84 47 17
0.172834 0.862371 -0.576099 75 68 51
-0.107340 1.046089 -0.563512 154 94 40
-0.115859 1.074658 -0.563569 171 108 43
-0.110821 1.058383 -0.562918 182 116 49
-0.090436 1.074078 -0.567399 188 120 52
0.028593 1.039933 -0.576522 245 179 107
-0.163516 0.978283 -0.553809 59 30 7
-0.174550 0.953252 -0.554691 52 25 10
-0.176013 0.964359 -0.554840 55 26 10
-0.137141 0.904258 -0.560098 67 53 36
-0.153583 0.901964 -0.557446 86 72 54
-0.143840 0.892128 -0.560836 106 93 76
-0.219125 1.051837 -0.585224 74 48 24
0.105797 0.495425 -0.576833 52 45 35
0.113492 0.495869 -0.570947 50 45 35
0.115073 0.475730 -0.561469 53 44 36
-0.261185 0.914959 -0.578165 88 78 61
-0.253422 0.926429 -0.584393 109 97 78
-0.268474 0.921982 -0.568578 98 86 68
0.165799 0.495184 -0.575960 51 46 37
0.197497 0.922086 -0.587852 97 85 61
0.218792 0.922941 -0.585092 94 83 64
-0.251390 1.034887 -0.588176 73 63 52
-0.087147 1.054824 -0.566656 203 134 57
-0.347470 0.938455 -0.594023 95 85 68
-0.343106 0.942553 -0.595223 123 107 88
-0.332774 0.946680 -0.581370 103 89 71
-0.346051 0.946806 -0.584691 123 107 88
0.204098 0.880795 -0.564998 81 73 58
0.200336 0.861773 -0.565704 77 70 54
0.076174 0.921221 -0.561982 115 69 30
0.084887 0.933192 -0.564234 137 88 43
-0.255579 0.903797 -0.577774 51 40 28
-0.276644 0.909288 -0.578369 97 87 70
-0.265454 0.906341 -0.580280 71 61 47
0.114728 0.932170 -0.562587 249 191 125
0.032542 0.957043 -0.568171 172 120 70
0.083431 1.001092 -0.573729 249 189 124
0.093308 1.019099 -0.574896 249 190 123
0.109786 1.010910 -0.574360 249 189 123
0.139117 0.759678 -0.589109 58 55 40
0.132955 0.748447 -0.582646 58 55 40
0.130295 0.742946 -0.589154 56 53 39
-0.010284 0.850233 -0.557541 47 38 24
-0.031964 0.847052 -0.563804 50 42 30
0.001709 0.827421 -0.563997 48 38 25
-0.211378 0.881305 -0.564230 66 59 44
-0.196228 0.887304 -0.559387 97 86 69
-0.201119 0.900664 -0.558194 63 54 40
-0.185975 0.871491 -0.561513 90 80 65
-0.176856 0.870500 -0.568232 87 77 63
0.101930 0.763686 -0.568098 55 51 40
0.112956 0.762451 -0.567392 53 48 39
0.108628 0.781967 -0.559236 55 51 39
-0.575002 0.619937 -0.253663 254 218 144
-0.198170 1.018166 -0.248426 252 228 156
-0.215751 1.036314 -0.248457 254 228 154
-0.234348 1.083165 -0.316236 61 51 38
-0.311847 0.689212 -0.253731 254 220 146
-0.301542 0.726778 -0.253162 254 222 149
-0.296756 0.958313 -0.250273 255 225 152
-0.321271 1.100414 -0.302041 109 101 90
-0.318074 1.111518 -0.301751 101 97 82
-0.324666 1.083314 -0.285014 99 95 78
-0.331496 1.089544 -0.291860 111 102 88
-0.325290 1.108562 -0.289195 116 106 91
-0.338341 1.080406 -0.290687 111 103 87
-0.316886 1.074192 -0.284848 103 99 83
-0.335383 1.101734 -0.279686 107 99 84
-0.320415 1.092232 -0.286702 101 97 83
-0.317104 1.096868 -0.299507 99 97 81
-0.349365 1.086441 -0.279741 129 118 96
-0.326622 1.095187 -0.298712 107 98 83
-0.301517 0.576911 -0.254748 254 223 154
-0.479958 0.790977 -0.283680 118 110 99
-0.469836 0.806106 -0.283280 119 110 100
0.315834 0.541904 -0.249768 253 220 128
0.063391 0.895313 -0.271383 205 157 93
0.040401 0.911264 -0.271420 234 181 110
0.039655 0.917605 -0.280303 148 109 62
-0.163126 1.027540 -0.248202 253 227 154
-0.313584 1.017211 -0.283910 105 97 86
-0.291333 1.017148 -0.286805 150 138 107
-0.645101 0.869035 -0.261122 127 101 73
-0.670643 0.877553 -0.271323 162 122 73
-0.658700 0.886845 -0.266908 166 124 73
-0.666522 0.849155 -0.251807 167 124 75
-0.640414 0.876513 -0.255104 164 125 79
-0.670877 0.854343 -0.245778 176 133 85
-0.655569 0.859307 -0.276389 86 84 74
-0.666646 0.873639 -0.268510 170 131 78
-0.482417 0.525591 -0.254457 254 220 149
-0.247916 0.759654 -0.252685 254 225 156
-0.007205 0.472836 -0.254986 253 224 135
-0.016666 0.491435 -0.254768 253 226 136
-0.102405 1.022322 -0.246222 245 217 166
0.196208 0.509466 -0.252271 254 220 132
-0.322243 0.984898 -0.285862 114 102 91
-0.341468 0.984799 -0.284027 107 99 87
-0.346790 1.007421 -0.283311 108 101 89
-0.322218 1.007879 -0.284125 108 99 89
-0.469151 0.817790 -0.268161 253 216 143
-0.485159 0.811598 -0.279621 99 93 87
-0.463362 0.801990 -0.259690 254 217 144
-0.460073 0.829719 -0.266910 248 211 137
0.235128 0.792596 -0.263829 199 159 100
0.245466 0.791803 -0.259059 69 48 30
-0.378318 1.028219 -0.286666 103 98 85
