ply
format ascii 1.0
element vertex 1317
property float x
property float y
property float z
property uchar red
property uchar green
property uchar blue
end_header
0.667547 1.459193 -0.709244 0 255 0
0.653506 1.347676 -0.822250 0 255 0
0.721127 1.377227 -0.803244 0 255 0
0.741024 1.432356 -0.809244 0 255 0
0.676728 1.341499 -0.867244 0 255 0
0.622797 1.350114 -0.877244 0 255 0
0.610482 1.362954 -0.831244 0 255 0
0.649260 1.495795 -0.721244 0 255 0
0.721050 1.386481 -0.784069 0 255 0
0.746433 1.409711 -0.838053 0 255 0
0.693841 1.345048 -0.819244 0 255 0
0.715110 1.487932 -0.815244 0 255 0
0.644735 1.498801 -0.710048 0 255 0
0.684011 1.314611 -0.785244 0 255 0
0.651933 1.340280 -0.847244 0 255 0
0.640548 1.411770 -0.772098 0 255 0
0.701937 1.398721 -0.779244 0 255 0
0.743727 1.400061 -0.853244 0 255 0
0.679552 1.393256 -0.772110 0 255 0
0.591749 1.384201 -0.829244 0 255 0
0.636353 1.531254 -0.807244 0 255 0
0.737231 1.409621 -0.829244 0 255 0
0.691823 1.321129 -0.789244 0 255 0
0.742075 1.459708 -0.863244 0 255 0
0.590222 1.386630 -0.861244 0 255 0
0.663738 1.338101 -0.843244 0 255 0
0.690362 1.444120 -0.772277 0 255 0
0.736570 1.407717 -0.787244 0 255 0
0.672511 1.427468 -0.759810 0 255 0
0.657105 1.451188 -0.771491 0 255 0
0.735521 1.459058 -0.853244 0 255 0
0.618148 1.498774 -0.841244 0 255 0
0.747514 1.436062 -0.845244 0 255 0
0.736675 1.454723 -0.871244 0 255 0
0.728647 1.383748 -0.861244 0 255 0
0.722480 1.364350 -0.835244 0 255 0
0.613811 1.353317 -0.871244 0 255 0
0.744776 1.421151 -0.791244 0 255 0
0.726162 1.446734 -0.783244 0 255 0
0.605153 1.368177 -0.861244 0 255 0
0.685411 1.343869 -0.823244 0 255 0
0.662389 1.466423 -0.704680 0 255 0
0.668767 1.409860 -0.700295 0 255 0
0.649593 1.348508 -0.880229 0 255 0
0.694087 1.408569 -0.779244 0 255 0
0.719934 1.433745 -0.787244 0 255 0
0.663014 1.402906 -0.771244 0 255 0
0.644931 1.345815 -0.795244 0 255 0
0.668582 1.442615 -0.773244 0 255 0
0.748948 1.431158 -0.813244 0 255 0
0.643676 1.537875 -0.731244 0 255 0
0.599159 1.370959 -0.805244 0 255 0
0.739712 1.421363 -0.841244 0 255 0
0.740000 1.389063 -0.857244 0 255 0
0.727746 1.369888 -0.817244 0 255 0
0.725764 1.461131 -0.791244 0 255 0
0.707922 1.469013 -0.783363 0 255 0
0.679626 1.432090 -0.776121 0 255 0
0.707525 1.370952 -0.792133 0 255 0
0.631330 1.354433 -0.815244 0 255 0
0.668767 1.409860 -0.718251 0 255 0
0.698538 1.357527 -0.807244 0 255 0
0.748760 1.433751 -0.863244 0 255 0
0.601960 1.432239 -0.785588 0 255 0
0.604023 1.378639 -0.787244 0 255 0
0.717722 1.370829 -0.880192 0 255 0
0.665471 1.388070 -0.701244 0 255 0
0.663098 1.460139 -0.719884 0 255 0
0.638865 1.384612 -0.781244 0 255 0
0.749565 1.427447 -0.829244 0 255 0
0.610770 1.385384 -0.783244 0 255 0
0.697356 1.438544 -0.772109 0 255 0
0.705523 1.348887 -0.871244 0 255 0
0.640161 1.477282 -0.711358 0 255 0
0.662730 1.484752 -0.711244 0 255 0
0.653312 1.339537 -0.829244 0 255 0
0.701783 1.430514 -0.783244 0 255 0
0.668240 1.412018 -0.709244 0 255 0
0.718431 1.364546 -0.796971 0 255 0
0.733495 1.377701 -0.877587 0 255 0
0.682434 1.339482 -0.804103 0 255 0
0.717219 1.372981 -0.845244 0 255 0
0.746608 1.439392 -0.801244 0 255 0
0.700191 1.413406 -0.772321 0 255 0
0.732438 1.468918 -0.857244 0 255 0
0.626533 1.355454 -0.788599 0 255 0
0.682964 1.495886 -0.787244 0 255 0
0.677104 1.410599 -0.771244 0 255 0
0.682450 1.353791 -0.859244 0 255 0
0.641824 1.485108 -0.704089 0 255 0
0.736679 1.454722 -0.823244 0 255 0
0.701931 1.460064 -0.788197 0 255 0
0.655988 1.469828 -0.709244 0 255 0
0.748100 1.415490 -0.863244 0 255 0
0.608709 1.406269 -0.788200 0 255 0
0.600543 1.444810 -0.783016 0 255 0
0.590217 1.386606 -0.871244 0 255 0
0.715805 1.491874 -0.833244 0 255 0
0.683851 1.326913 -0.780525 0 255 0
0.739903 1.388606 -0.865782 0 255 0
0.718758 1.375701 -0.873244 0 255 0
0.621205 1.349622 -0.811244 0 255 0
0.597456 1.377990 -0.857244 0 255 0
0.624774 1.404899 -0.782119 0 255 0
0.643898 1.350580 -0.833244 0 255 0
0.625777 1.390373 -0.783674 0 255 0
0.715303 1.397925 -0.782869 0 255 0
0.654025 1.455933 -0.704142 0 255 0
0.710417 1.480750 -0.786386 0 255 0
0.745148 1.401805 -0.835244 0 255 0
0.735692 1.411994 -0.801244 0 255 0
0.730693 1.388520 -0.813244 0 255 0
0.655937 1.339882 -0.809244 0 255 0
0.645046 1.394457 -0.771724 0 255 0
0.671610 1.399033 -0.717244 0 255 0
0.742154 1.422888 -0.817244 0 255 0
0.739003 1.427646 -0.799244 0 255 0
0.721666 1.480405 -0.863244 0 255 0
0.606677 1.367852 -0.878214 0 255 0
0.670583 1.351069 -0.799244 0 255 0
0.694715 1.349160 -0.793244 0 255 0
0.604546 1.372394 -0.837244 0 255 0
0.690083 1.460537 -0.775244 0 255 0
0.738019 1.442168 -0.835244 0 255 0
0.672498 1.340832 -0.857244 0 255 0
0.637535 1.524867 -0.723244 0 255 0
0.737302 1.468902 -0.797244 0 255 0
0.668277 1.369072 -0.788157 0 255 0
0.710096 1.421523 -0.780403 0 255 0
0.734869 1.436704 -0.793244 0 255 0
0.619370 1.350613 -0.825244 0 255 0
0.740149 1.466720 -0.829244 0 255 0
0.680969 1.380687 -0.788209 0 255 0
0.663257 1.470329 -0.775244 0 255 0
0.736181 1.387353 -0.793244 0 255 0
0.669470 1.417890 -0.773244 0 255 0
0.655946 1.407257 -0.767244 0 255 0
0.710247 1.499190 -0.819505 0 255 0
0.643821 1.531710 -0.709244 0 255 0
0.648380 1.461222 -0.771244 0 255 0
0.642915 1.525769 -0.779244 0 255 0
0.670403 1.350218 -0.870221 0 255 0
0.668498 1.427828 -0.701244 0 255 0
0.604149 1.365575 -0.821244 0 255 0
0.712960 1.463853 -0.788221 0 255 0
0.666764 1.438913 -0.723646 0 255 0
0.744513 1.448767 -0.809244 0 255 0
0.723369 1.365540 -0.851244 0 255 0
0.691025 1.312561 -0.789244 0 255 0
0.684819 1.355333 -0.795244 0 255 0
0.716325 1.489303 -0.797244 0 255 0
0.634598 1.345302 -0.821244 0 255 0
0.654403 1.404735 -0.703244 0 255 0
0.681848 1.355963 -0.785958 0 255 0
0.709098 1.352216 -0.851244 0 255 0
0.640535 1.344373 -0.857244 0 255 0
0.706429 1.442750 -0.781330 0 255 0
0.686791 1.348778 -0.789244 0 255 0
0.679070 1.403581 -0.707244 0 255 0
0.700068 1.417520 -0.783244 0 255 0
0.710316 1.499518 -0.843244 0 255 0
0.738513 1.468644 -0.877877 0 255 0
0.655651 1.348150 -0.841244 0 255 0
0.665148 1.402451 -0.700842 0 255 0
0.616947 1.358454 -0.857244 0 255 0
0.646305 1.342657 -0.863244 0 255 0
0.619885 1.420252 -0.775244 0 255 0
0.637746 1.485162 -0.785244 0 255 0
0.655664 1.348213 -0.805244 0 255 0
0.675515 1.383890 -0.722980 0 255 0
0.748369 1.413388 -0.825244 0 255 0
0.663904 1.348504 -0.833244 0 255 0
0.628686 1.355964 -0.837244 0 255 0
0.744905 1.403900 -0.861244 0 255 0
0.624776 1.356807 -0.849244 0 255 0
0.714765 1.385772 -0.790183 0 255 0
0.712251 1.354711 -0.837244 0 255 0
0.647788 1.426588 -0.764154 0 255 0
0.635473 1.397513 -0.781244 0 255 0
0.636755 1.533212 -0.789244 0 255 0
0.595643 1.373655 -0.873244 0 255 0
0.613312 1.352130 -0.843244 0 255 0
0.695300 1.375595 -0.787244 0 255 0
0.734395 1.395911 -0.815244 0 255 0
0.666104 1.430875 -0.713244 0 255 0
0.687706 1.383527 -0.781244 0 255 0
0.666373 1.422639 -0.717244 0 255 0
0.691261 1.323292 -0.780431 0 255 0
0.659193 1.479370 -0.719244 0 255 0
0.687500 1.401790 -0.778210 0 255 0
0.694258 1.289296 -0.777244 0 255 0
0.667228 1.412234 -0.760794 0 255 0
0.621372 1.350415 -0.803140 0 255 0
0.636770 1.533210 -0.739244 0 255 0
0.741859 1.431130 -0.871244 0 255 0
0.651739 1.348984 -0.861244 0 255 0
0.701487 1.390639 -0.788205 0 255 0
0.742023 1.457676 -0.829244 0 255 0
0.640005 1.351498 -0.843244 0 255 0
0.631824 1.534261 -0.752305 0 255 0
0.638608 1.522596 -0.711244 0 255 0
0.735017 1.471432 -0.844331 0 255 0
0.714425 1.422648 -0.788177 0 255 0
0.640424 1.353465 -0.867244 0 255 0
0.649899 1.349951 -0.787244 0 255 0
0.669450 1.350421 -0.807244 0 255 0
0.592150 1.377074 -0.841244 0 255 0
0.636610 1.422830 -0.771244 0 255 0
0.669770 1.395335 -0.724216 0 255 0
0.728230 1.472874 -0.829244 0 255 0
0.643847 1.359952 -0.784268 0 255 0
0.740094 1.386522 -0.841244 0 255 0
0.627072 1.367606 -0.782924 0 255 0
0.627809 1.428790 -0.776220 0 255 0
0.615334 1.370102 -0.790047 0 255 0
0.615410 1.360840 -0.811244 0 255 0
0.677248 1.377389 -0.711244 0 255 0
0.706897 1.428337 -0.777244 0 255 0
0.623043 1.348653 -0.857244 0 255 0
0.728918 1.413878 -0.783244 0 255 0
0.741702 1.420940 -0.865244 0 255 0
0.623868 1.362153 -0.794204 0 255 0
0.700624 1.453921 -0.781244 0 255 0
0.724527 1.479797 -0.878226 0 255 0
0.692657 1.345487 -0.837244 0 255 0
0.587034 1.382251 -0.817244 0 255 0
0.652020 1.484985 -0.782975 0 255 0
0.656690 1.449232 -0.700545 0 255 0
0.749520 1.429500 -0.821244 0 255 0
0.652040 1.388880 -0.772176 0 255 0
0.729029 1.370472 -0.865244 0 255 0
0.593818 1.376720 -0.803244 0 255 0
0.662126 1.382647 -0.717244 0 255 0
0.668550 1.456935 -0.771711 0 255 0
0.648072 1.508315 -0.715244 0 255 0
0.632592 1.355106 -0.855244 0 255 0
0.662349 1.441896 -0.709244 0 255 0
0.741897 1.431122 -0.827244 0 255 0
0.630634 1.355504 -0.829244 0 255 0
0.650173 1.428199 -0.703244 0 255 0
0.703768 1.406511 -0.777244 0 255 0
0.674098 1.396459 -0.710113 0 255 0
0.640011 1.510029 -0.711244 0 255 0
0.681782 1.480704 -0.782952 0 255 0
0.635634 1.379037 -0.787244 0 255 0
0.738074 1.447335 -0.861244 0 255 0
0.725335 1.477579 -0.855244 0 255 0
0.705388 1.500221 -0.859244 0 255 0
0.632492 1.450822 -0.771244 0 255 0
0.605242 1.370725 -0.799244 0 255 0
0.605335 1.419255 -0.788141 0 255 0
0.738603 1.380705 -0.829244 0 255 0
0.633554 1.417345 -0.776157 0 255 0
0.684410 1.353375 -0.839244 0 255 0
0.700480 1.357051 -0.839244 0 255 0
0.705369 1.365277 -0.797244 0 255 0
0.745261 1.442674 -0.848952 0 255 0
0.659100 1.373995 -0.783244 0 255 0
0.665335 1.465797 -0.713244 0 255 0
0.731946 1.394387 -0.849244 0 255 0
0.682375 1.423325 -0.761244 0 255 0
0.638516 1.536885 -0.767244 0 255 0
0.709018 1.397217 -0.788177 0 255 0
0.661510 1.491146 -0.782748 0 255 0
0.626593 1.442310 -0.775244 0 255 0
0.603142 1.452436 -0.787244 0 255 0
0.617167 1.359489 -0.878226 0 255 0
0.731246 1.386358 -0.880214 0 255 0
0.605317 1.371070 -0.811244 0 255 0
0.590526 1.379464 -0.875244 0 255 0
0.605581 1.439649 -0.786110 0 255 0
0.659374 1.360740 -0.789244 0 255 0
0.741019 1.432337 -0.841244 0 255 0
0.670772 1.380810 -0.788163 0 255 0
0.683048 1.308682 -0.777244 0 255 0
0.636765 1.538268 -0.723244 0 255 0
0.728534 1.421694 -0.790230 0 255 0
0.734966 1.471192 -0.817244 0 255 0
0.621156 1.397489 -0.782871 0 255 0
0.648085 1.341409 -0.811244 0 255 0
0.695580 1.395983 -0.775244 0 255 0
0.618156 1.359278 -0.821244 0 255 0
0.635225 1.540639 -0.785244 0 255 0
0.685200 1.419834 -0.775244 0 255 0
0.647051 1.365404 -0.790239 0 255 0
0.716504 1.358821 -0.823244 0 255 0
0.651350 1.476948 -0.705244 0 255 0
0.609980 1.358971 -0.803244 0 255 0
0.728918 1.425701 -0.783244 0 255 0
0.713778 1.357355 -0.803244 0 255 0
0.664905 1.449401 -0.703244 0 255 0
0.705555 1.348880 -0.813244 0 255 0
0.706108 1.383522 -0.783057 0 255 0
0.696185 1.471509 -0.788193 0 255 0
0.661711 1.338186 -0.861244 0 255 0
0.726838 1.475216 -0.845244 0 255 0
0.723630 1.365484 -0.811244 0 255 0
0.683480 1.339259 -0.795244 0 255 0
0.633173 1.399025 -0.771244 0 255 0
0.691446 1.302807 -0.777244 0 255 0
0.675790 1.471753 -0.782642 0 255 0
0.620078 1.373183 -0.783802 0 255 0
0.745431 1.424236 -0.880046 0 255 0
0.720073 1.482787 -0.821244 0 255 0
0.710757 1.443875 -0.788159 0 255 0
0.678232 1.464009 -0.775244 0 255 0
0.585736 1.404002 -0.791244 0 255 0
0.749334 1.417272 -0.853244 0 255 0
0.734980 1.452018 -0.803244 0 255 0
0.672321 1.392749 -0.779244 0 255 0
0.735759 1.450828 -0.853244 0 255 0
0.746735 1.428048 -0.795244 0 255 0
0.636315 1.353375 -0.880197 0 255 0
0.734916 1.465319 -0.823244 0 255 0
0.716268 1.358872 -0.811244 0 255 0
0.647609 1.416127 -0.761244 0 255 0
0.660527 1.448043 -0.763244 0 255 0
0.592186 1.376638 -0.829244 0 255 0
0.655225 1.490437 -0.788237 0 255 0
0.674145 1.367824 -0.783542 0 255 0
0.717948 1.487328 -0.877643 0 255 0
0.584156 1.386953 -0.865753 0 255 0
0.676036 1.492149 -0.788114 0 255 0
0.742785 1.459557 -0.877244 0 255 0
0.657984 1.426465 -0.764119 0 255 0
0.678173 1.377153 -0.701244 0 255 0
0.684890 1.326691 -0.791244 0 255 0
0.615407 1.415068 -0.785244 0 255 0
0.648355 1.515838 -0.713244 0 255 0
0.647313 1.420555 -0.769244 0 255 0
0.666858 1.381642 -0.775092 0 255 0
0.660914 1.344055 -0.880084 0 255 0
0.683075 1.457937 -0.776191 0 255 0
0.735636 1.401781 -0.805244 0 255 0
0.608879 1.387831 -0.790229 0 255 0
0.632128 1.530106 -0.773244 0 255 0
0.686062 1.340756 -0.787244 0 255 0
0.662946 1.382472 -0.786111 0 255 0
0.629028 1.367191 -0.790238 0 255 0
0.659157 1.393502 -0.772062 0 255 0
0.626709 1.356281 -0.821244 0 255 0
0.678303 1.387388 -0.786135 0 255 0
0.631989 1.530136 -0.801244 0 255 0
0.710813 1.367179 -0.845244 0 255 0
0.725035 1.367231 -0.803244 0 255 0
0.668227 1.349604 -0.861244 0 255 0
0.727873 1.399342 -0.792202 0 255 0
0.682997 1.370992 -0.787244 0 255 0
0.716082 1.377312 -0.793244 0 255 0
0.745525 1.443908 -0.865244 0 255 0
0.719973 1.376486 -0.857244 0 255 0
0.727494 1.383065 -0.837244 0 255 0
0.606250 1.363854 -0.867244 0 255 0
0.691796 1.345046 -0.871244 0 255 0
0.735430 1.377178 -0.853244 0 255 0
0.746429 1.440381 -0.839244 0 255 0
0.593082 1.428949 -0.785244 0 255 0
0.728336 1.372664 -0.875664 0 255 0
0.737299 1.448456 -0.819244 0 255 0
0.649328 1.347265 -0.847244 0 255 0
0.657181 1.485933 -0.703244 0 255 0
0.694448 1.453726 -0.773244 0 255 0
0.592509 1.378152 -0.813244 0 255 0
0.675703 1.480966 -0.787244 0 255 0
0.717809 1.486672 -0.845244 0 255 0
0.748228 1.431821 -0.837244 0 255 0
0.674459 1.340445 -0.875244 0 255 0
0.684910 1.447324 -0.776181 0 255 0
0.704255 1.490239 -0.792147 0 255 0
0.644242 1.525343 -0.805244 0 255 0
0.632874 1.346804 -0.849244 0 255 0
0.587152 1.391426 -0.807244 0 255 0
0.678427 1.397585 -0.702927 0 255 0
0.631944 1.525206 -0.729244 0 255 0
0.658524 1.438619 -0.761762 0 255 0
0.740968 1.466079 -0.813244 0 255 0
0.744605 1.401107 -0.873244 0 255 0
0.663000 1.344245 -0.789244 0 255 0
0.603743 1.364386 -0.847244 0 255 0
0.617376 1.360467 -0.833244 0 255 0
0.742127 1.455609 -0.815244 0 255 0
0.695986 1.422477 -0.771914 0 255 0
0.735066 1.457110 -0.841244 0 255 0
0.688189 1.491609 -0.790236 0 255 0
0.660635 1.434081 -0.723244 0 255 0
0.690438 1.482952 -0.788241 0 255 0
0.745002 1.446819 -0.827244 0 255 0
0.728661 1.383813 -0.849244 0 255 0
0.636486 1.344562 -0.835244 0 255 0
0.606997 1.427079 -0.784062 0 255 0
0.729892 1.384600 -0.823244 0 255 0
0.682784 1.466178 -0.784229 0 255 0
0.661736 1.337747 -0.835244 0 255 0
0.659797 1.338802 -0.819244 0 255 0
0.694600 1.449353 -0.779244 0 255 0
0.731766 1.373978 -0.801244 0 255 0
0.725378 1.387604 -0.792172 0 255 0
0.726701 1.432307 -0.790235 0 255 0
0.682141 1.347722 -0.880181 0 255 0
0.636789 1.533205 -0.731244 0 255 0
0.666754 1.486965 -0.787244 0 255 0
0.613671 1.362276 -0.866260 0 255 0
0.733354 1.463608 -0.872243 0 255 0
0.668417 1.405846 -0.767244 0 255 0
0.703418 1.500641 -0.815244 0 255 0
0.664119 1.349509 -0.818245 0 255 0
0.630371 1.527419 -0.785244 0 255 0
0.708235 1.364668 -0.870284 0 255 0
0.692877 1.359753 -0.794222 0 255 0
0.651606 1.483029 -0.718264 0 255 0
0.748857 1.417373 -0.807244 0 255 0
0.660038 1.383091 -0.703244 0 255 0
0.696306 1.481705 -0.782708 0 255 0
0.733110 1.395127 -0.831244 0 255 0
0.692564 1.464099 -0.781752 0 255 0
0.680960 1.342169 -0.817244 0 255 0
0.742455 1.457584 -0.855244 0 255 0
0.745187 1.403842 -0.809405 0 255 0
0.610296 1.375262 -0.792165 0 255 0
0.713253 1.455611 -0.788159 0 255 0
0.648052 1.350879 -0.826252 0 255 0
0.646322 1.467794 -0.704122 0 255 0
0.637694 1.533013 -0.814196 0 255 0
0.642009 1.524458 -0.795244 0 255 0
0.743526 1.455311 -0.803244 0 255 0
0.722358 1.484347 -0.801244 0 255 0
0.657691 1.434706 -0.700419 0 255 0
0.704520 1.414530 -0.788159 0 255 0
0.684426 1.353371 -0.803244 0 255 0
0.673908 1.376323 -0.719244 0 255 0
0.646229 1.342300 -0.821244 0 255 0
0.738292 1.381027 -0.867244 0 255 0
0.696790 1.358921 -0.786063 0 255 0
0.635512 1.532366 -0.759244 0 255 0
0.605422 1.361951 -0.811244 0 255 0
0.636204 1.526008 -0.751244 0 255 0
0.688916 1.389220 -0.776121 0 255 0
0.625190 1.406855 -0.775152 0 255 0
0.653486 1.443780 -0.704082 0 255 0
0.633737 1.345743 -0.813244 0 255 0
0.650111 1.341330 -0.869244 0 255 0
0.652560 1.497139 -0.706461 0 255 0
0.676882 1.351838 -0.811244 0 255 0
0.742177 1.396302 -0.809244 0 255 0
0.621372 1.350415 -0.832306 0 255 0
0.631644 1.533406 -0.709244 0 255 0
0.644077 1.527567 -0.731244 0 255 0
0.749268 1.421376 -0.839244 0 255 0
0.685321 1.343442 -0.839244 0 255 0
0.592643 1.407640 -0.785847 0 255 0
0.694890 1.494274 -0.789927 0 255 0
0.731308 1.473225 -0.799244 0 255 0
0.743261 1.398116 -0.821244 0 255 0
0.666348 1.436957 -0.700530 0 255 0
0.693491 1.410740 -0.772179 0 255 0
0.689209 1.380979 -0.788077 0 255 0
0.736886 1.407651 -0.873244 0 255 0
0.691781 1.431551 -0.771566 0 255 0
0.718705 1.452409 -0.783441 0 255 0
0.736857 1.407656 -0.821244 0 255 0
0.712809 1.386187 -0.783057 0 255 0
0.691705 1.392718 -0.788138 0 255 0
0.706919 1.483538 -0.792156 0 255 0
0.626853 1.414681 -0.776130 0 255 0
0.596750 1.374051 -0.851244 0 255 0
0.711645 1.365988 -0.879244 0 255 0
0.601640 1.373012 -0.878171 0 255 0
0.736857 1.407656 -0.841244 0 255 0
0.682203 1.501922 -0.791244 0 255 0
0.710757 1.491976 -0.863244 0 255 0
0.680043 1.434046 -0.767865 0 255 0
0.642401 1.343528 -0.807244 0 255 0
0.632647 1.345739 -0.863244 0 255 0
0.596065 1.390555 -0.791244 0 255 0
0.654856 1.459845 -0.774026 0 255 0
0.661561 1.476823 -0.783244 0 255 0
0.652141 1.350874 -0.797244 0 255 0
0.735629 1.459035 -0.817244 0 255 0
0.637269 1.367483 -0.788071 0 255 0
0.665612 1.375773 -0.788215 0 255 0
0.665857 1.396167 -0.704219 0 255 0
0.669846 1.434169 -0.764175 0 255 0
0.661283 1.374647 -0.711994 0 255 0
0.749557 1.423360 -0.849244 0 255 0
0.724327 1.478854 -0.831244 0 255 0
0.732692 1.441256 -0.786192 0 255 0
0.622772 1.433951 -0.771976 0 255 0
0.627309 1.349481 -0.799244 0 255 0
0.624530 1.384505 -0.788167 0 255 0
0.698331 1.346935 -0.827244 0 255 0
0.712728 1.491623 -0.809244 0 255 0
0.694001 1.355426 -0.876215 0 255 0
0.668525 1.444672 -0.715244 0 255 0
0.740123 1.466594 -0.805244 0 255 0
0.638299 1.535863 -0.711244 0 255 0
0.594859 1.419437 -0.783244 0 255 0
0.669456 1.350419 -0.877244 0 255 0
0.645126 1.529502 -0.785244 0 255 0
0.691821 1.354782 -0.863244 0 255 0
0.617098 1.359163 -0.789244 0 255 0
0.705446 1.361171 -0.812255 0 255 0
0.693630 1.288029 -0.769244 0 255 0
0.654460 1.472197 -0.717244 0 255 0
0.663731 1.415022 -0.776207 0 255 0
0.736727 1.450622 -0.838252 0 255 0
0.711023 1.368164 -0.804225 0 255 0
0.617167 1.359489 -0.850229 0 255 0
0.655834 1.459637 -0.719244 0 255 0
0.746663 1.413750 -0.797244 0 255 0
0.706883 1.362911 -0.825244 0 255 0
0.597633 1.383020 -0.801244 0 255 0
0.657228 1.461386 -0.700353 0 255 0
0.709803 1.352806 -0.867244 0 255 0
0.677845 1.365988 -0.789244 0 255 0
0.620863 1.357638 -0.807244 0 255 0
0.730808 1.476416 -0.821244 0 255 0
0.724735 1.379563 -0.809244 0 255 0
0.636153 1.535384 -0.746268 0 255 0
0.673219 1.421182 -0.704224 0 255 0
0.599461 1.377565 -0.817244 0 255 0
0.643956 1.525547 -0.763244 0 255 0
0.658469 1.419129 -0.763244 0 255 0
0.606822 1.464731 -0.785244 0 255 0
0.732592 1.396294 -0.787244 0 255 0
0.679412 1.411688 -0.711244 0 255 0
0.724368 1.479047 -0.839244 0 255 0
0.745065 1.446806 -0.873244 0 255 0
0.635926 1.524700 -0.737244 0 255 0
0.712323 1.492614 -0.821244 0 255 0
0.739913 1.436752 -0.831244 0 255 0
0.658278 1.418225 -0.703634 0 255 0
0.672574 1.449946 -0.771244 0 255 0
0.668890 1.420058 -0.764118 0 255 0
0.660396 1.380093 -0.777244 0 255 0
0.673831 1.404695 -0.701244 0 255 0
0.650939 1.412556 -0.775244 0 255 0
0.739845 1.466316 -0.863244 0 255 0
0.692163 1.346778 -0.879244 0 255 0
0.588679 1.385990 -0.823244 0 255 0
0.715245 1.487903 -0.871244 0 255 0
0.604569 1.364210 -0.835244 0 255 0
0.652694 1.401578 -0.771244 0 255 0
0.668447 1.350633 -0.789609 0 255 0
0.698455 1.293139 -0.773244 0 255 0
0.721323 1.474344 -0.791981 0 255 0
0.698709 1.435291 -0.779244 0 255 0
0.592956 1.385082 -0.813244 0 255 0
0.739605 1.439787 -0.807244 0 255 0
0.652087 1.360245 -0.790175 0 255 0
0.710814 1.367184 -0.859244 0 255 0
0.698534 1.357511 -0.823244 0 255 0
0.610316 1.365733 -0.799244 0 255 0
0.686074 1.322351 -0.785244 0 255 0
0.700105 1.432243 -0.771244 0 255 0
0.737345 1.434292 -0.787244 0 255 0
0.712979 1.367748 -0.787904 0 255 0
0.723161 1.410568 -0.789244 0 255 0
0.737586 1.460663 -0.793244 0 255 0
0.590224 1.386638 -0.853244 0 255 0
0.732819 1.374517 -0.815244 0 255 0
0.675761 1.404286 -0.721409 0 255 0
0.717346 1.484493 -0.809244 0 255 0
0.629614 1.350709 -0.878167 0 255 0
0.668015 1.338985 -0.873244 0 255 0
0.672142 1.396876 -0.771112 0 255 0
0.691577 1.401737 -0.771244 0 255 0
0.682338 1.387131 -0.707244 0 255 0
0.610138 1.358938 -0.815244 0 255 0
0.647409 1.501768 -0.717244 0 255 0
0.709958 1.497832 -0.833244 0 255 0
0.719971 1.362173 -0.869257 0 255 0
0.709981 1.497944 -0.803244 0 255 0
0.690428 1.335737 -0.789244 0 255 0
0.588901 1.390033 -0.798164 0 255 0
0.671432 1.403160 -0.776098 0 255 0
0.679961 1.414428 -0.761244 0 255 0
0.598853 1.371560 -0.833244 0 255 0
0.686258 1.295730 -0.775244 0 255 0
0.680799 1.399125 -0.714307 0 255 0
0.719465 1.487006 -0.829244 0 255 0
0.648278 1.467377 -0.776225 0 255 0
0.690599 1.300942 -0.784186 0 255 0
0.604028 1.365008 -0.855244 0 255 0
0.679060 1.352466 -0.844233 0 255 0
0.661869 1.358166 -0.782994 0 255 0
0.596005 1.380345 -0.871244 0 255 0
0.717704 1.466933 -0.784441 0 255 0
0.674467 1.427051 -0.708567 0 255 0
0.742144 1.428005 -0.855244 0 255 0
0.728343 1.386975 -0.799244 0 255 0
0.680506 1.407366 -0.776154 0 255 0
0.632304 1.392226 -0.785244 0 255 0
0.628221 1.353773 -0.809244 0 255 0
0.715972 1.372216 -0.817244 0 255 0
0.626740 1.356426 -0.865244 0 255 0
0.732229 1.467935 -0.832228 0 255 0
0.692045 1.355840 -0.808248 0 255 0
0.739025 1.413329 -0.860211 0 255 0
0.718985 1.419634 -0.783244 0 255 0
0.703037 1.503745 -0.873244 0 255 0
0.671497 1.388835 -0.705244 0 255 0
0.672058 1.406101 -0.713244 0 255 0
0.608832 1.368367 -0.845244 0 255 0
0.655648 1.348139 -0.877244 0 255 0
0.697390 1.356749 -0.833244 0 255 0
0.647174 1.375602 -0.782740 0 255 0
0.610554 1.381342 -0.789244 0 255 0
0.656423 1.484049 -0.723244 0 255 0
0.737739 1.393156 -0.879244 0 255 0
0.739856 1.417242 -0.787565 0 255 0
0.650283 1.438327 -0.760509 0 255 0
0.739911 1.436737 -0.857244 0 255 0
0.686039 1.394922 -0.785244 0 255 0
0.616827 1.396365 -0.788200 0 255 0
0.725111 1.436733 -0.783244 0 255 0
0.730292 1.372247 -0.839560 0 255 0
0.729147 1.472679 -0.808192 0 255 0
0.743230 1.455374 -0.847244 0 255 0
0.740803 1.447712 -0.791244 0 255 0
0.739903 1.388606 -0.809776 0 255 0
0.720185 1.363175 -0.827244 0 255 0
0.713912 1.482053 -0.793244 0 255 0
0.704396 1.404332 -0.785914 0 255 0
0.703234 1.350766 -0.795244 0 255 0
0.744919 1.446837 -0.859244 0 255 0
0.637345 1.406317 -0.776186 0 255 0
0.638006 1.351715 -0.857244 0 255 0
0.647826 1.349819 -0.853244 0 255 0
0.638022 1.351792 -0.829244 0 255 0
0.610351 1.365896 -0.825244 0 255 0
0.743058 1.398160 -0.845244 0 255 0
0.645859 1.350178 -0.811244 0 255 0
0.703531 1.500616 -0.843244 0 255 0
0.740554 1.415049 -0.831244 0 255 0
0.675441 1.345058 -0.879959 0 255 0
0.680799 1.399125 -0.776184 0 255 0
0.702488 1.376113 -0.790243 0 255 0
0.703412 1.472017 -0.787244 0 255 0
0.740935 1.417012 -0.847244 0 255 0
0.745616 1.411928 -0.877244 0 255 0
0.657170 1.345673 -0.869244 0 255 0
0.665951 1.338896 -0.855562 0 255 0
0.614133 1.354831 -0.827244 0 255 0
0.643384 1.386632 -0.786146 0 255 0
0.617430 1.408825 -0.783244 0 255 0
0.661953 1.348943 -0.849244 0 255 0
0.734370 1.395917 -0.843244 0 255 0
0.690833 1.369374 -0.789244 0 255 0
0.629090 1.348243 -0.835244 0 255 0
0.704806 1.348538 -0.855244 0 255 0
0.686656 1.471489 -0.783244 0 255 0
0.687923 1.355691 -0.873244 0 255 0
0.681214 1.425617 -0.775244 0 255 0
0.668986 1.362787 -0.790192 0 255 0
0.695230 1.457399 -0.788228 0 255 0
0.730415 1.469016 -0.791244 0 255 0
0.674931 1.352281 -0.821244 0 255 0
0.674509 1.350294 -0.855244 0 255 0
0.722003 1.400591 -0.783662 0 255 0
0.684170 1.332978 -0.789244 0 255 0
0.645519 1.531349 -0.718683 0 255 0
0.738905 1.417444 -0.803244 0 255 0
0.699355 1.423806 -0.781244 0 255 0
0.733864 1.375578 -0.861244 0 255 0
0.631614 1.528171 -0.765244 0 255 0
0.688707 1.354505 -0.819244 0 255 0
0.730531 1.406956 -0.793244 0 255 0
0.646346 1.341018 -0.843244 0 255 0
0.650661 1.483229 -0.707244 0 255 0
0.679258 1.353396 -0.869244 0 255 0
0.670605 1.351168 -0.835244 0 255 0
0.685543 1.354110 -0.853244 0 255 0
0.721757 1.380195 -0.786024 0 255 0
0.683821 1.378035 -0.713244 0 255 0
0.733978 1.461429 -0.859244 0 255 0
0.639467 1.348968 -0.793244 0 255 0
0.611063 1.356696 -0.849244 0 255 0
0.611742 1.430160 -0.788182 0 255 0
0.738394 1.468077 -0.849244 0 255 0
0.726289 1.382271 -0.855244 0 255 0
0.737311 1.448454 -0.869244 0 255 0
0.619240 1.350000 -0.845244 0 255 0
0.736216 1.377123 -0.809244 0 255 0
0.733438 1.449277 -0.797244 0 255 0
0.703515 1.448281 -0.779244 0 255 0
0.658864 1.401743 -0.776224 0 255 0
0.688350 1.309599 -0.781296 0 255 0
0.693123 1.380149 -0.782820 0 255 0
0.714554 1.410352 -0.783244 0 255 0
0.643979 1.533722 -0.755740 0 255 0
0.669627 1.481242 -0.782800 0 255 0
0.663650 1.424261 -0.705244 0 255 0
0.669457 1.499680 -0.786487 0 255 0
0.738796 1.383402 -0.853244 0 255 0
0.662926 1.478577 -0.713926 0 255 0
0.677494 1.335479 -0.785244 0 255 0
0.715168 1.435770 -0.783244 0 255 0
0.656182 1.341027 -0.797244 0 255 0
0.716583 1.490524 -0.857244 0 255 0
0.741714 1.464465 -0.841244 0 255 0
0.632380 1.402197 -0.777244 0 255 0
0.640883 1.524156 -0.773244 0 255 0
0.712338 1.355616 -0.861244 0 255 0
0.655688 1.463759 -0.706241 0 255 0
0.708596 1.433706 -0.781244 0 255 0
0.687642 1.315883 -0.779623 0 255 0
0.701743 1.357869 -0.865244 0 255 0
0.748358 1.415435 -0.871244 0 255 0
0.680363 1.344012 -0.799244 0 255 0
0.667143 1.416341 -0.719244 0 255 0
0.679259 1.353400 -0.827244 0 255 0
0.638631 1.537420 -0.805244 0 255 0
0.743577 1.453255 -0.875244 0 255 0
0.723176 1.367626 -0.877667 0 255 0
0.674350 1.341201 -0.829244 0 255 0
0.702858 1.358616 -0.873244 0 255 0
0.696156 1.404040 -0.784206 0 255 0
0.675163 1.410547 -0.719244 0 255 0
0.702330 1.442704 -0.787244 0 255 0
0.713437 1.494959 -0.847244 0 255 0
0.659790 1.348385 -0.856257 0 255 0
0.743428 1.453287 -0.860021 0 255 0
0.744870 1.434579 -0.797244 0 255 0
0.667691 1.385554 -0.714251 0 255 0
0.739140 1.437842 -0.821244 0 255 0
0.593815 1.374676 -0.819075 0 255 0
0.717857 1.360577 -0.849244 0 255 0
0.657743 1.348371 -0.787244 0 255 0
0.740797 1.396596 -0.797244 0 255 0
0.748472 1.435858 -0.877244 0 255 0
0.698972 1.475004 -0.783472 0 255 0
0.694201 1.346747 -0.799244 0 255 0
0.613017 1.359199 -0.839244 0 255 0
0.654917 1.479371 -0.787244 0 255 0
0.733581 1.474294 -0.865244 0 255 0
0.670226 1.416721 -0.713244 0 255 0
0.702351 1.442805 -0.775244 0 255 0
0.655292 1.365698 -0.788244 0 255 0
0.657624 1.347812 -0.817244 0 255 0
0.733519 1.459482 -0.867244 0 255 0
0.741127 1.455820 -0.797244 0 255 0
0.724232 1.430313 -0.783244 0 255 0
0.669965 1.374848 -0.705244 0 255 0
0.707324 1.350763 -0.819244 0 255 0
0.592350 1.415880 -0.788039 0 255 0
0.718316 1.489051 -0.839244 0 255 0
0.715970 1.372205 -0.805244 0 255 0
0.658617 1.381348 -0.710397 0 255 0
0.673947 1.429207 -0.773244 0 255 0
0.725821 1.457030 -0.784674 0 255 0
0.692414 1.386432 -0.785812 0 255 0
0.654968 1.354555 -0.785244 0 255 0
0.635984 1.524973 -0.759244 0 255 0
0.643816 1.525577 -0.707244 0 255 0
0.683087 1.342551 -0.849244 0 255 0
0.632534 1.527975 -0.720285 0 255 0
0.673223 1.440440 -0.765244 0 255 0
0.585429 1.386681 -0.803244 0 255 0
0.603719 1.382794 -0.792156 0 255 0
0.640701 1.503749 -0.709244 0 255 0
0.592370 1.377498 -0.861244 0 255 0
0.672375 1.340257 -0.843244 0 255 0
0.742782 1.457514 -0.869244 0 255 0
0.685888 1.414400 -0.771244 0 255 0
0.737283 1.385074 -0.799244 0 255 0
0.626265 1.354191 -0.871244 0 255 0
0.620584 1.350583 -0.871244 0 255 0
0.650377 1.381056 -0.785946 0 255 0
0.670388 1.340531 -0.815244 0 255 0
0.746958 1.411643 -0.849244 0 255 0
0.723593 1.417684 -0.787244 0 255 0
0.717623 1.360627 -0.837244 0 255 0
0.729541 1.450105 -0.791244 0 255 0
0.681859 1.425481 -0.767244 0 255 0
0.638271 1.352958 -0.816212 0 255 0
0.722368 1.479264 -0.809244 0 255 0
0.668111 1.339432 -0.829244 0 255 0
0.652090 1.408352 -0.761244 0 255 0
0.597448 1.377992 -0.865244 0 255 0
0.638394 1.363156 -0.783414 0 255 0
0.641932 1.350949 -0.803244 0 255 0
0.670378 1.340482 -0.807244 0 255 0
0.585608 1.384163 -0.831244 0 255 0
0.666585 1.457309 -0.715244 0 255 0
0.716012 1.391640 -0.783710 0 255 0
0.749053 1.431648 -0.869244 0 255 0
0.654413 1.390421 -0.780136 0 255 0
0.640888 1.374893 -0.783352 0 255 0
0.686934 1.461206 -0.781244 0 255 0
0.679250 1.488034 -0.783244 0 255 0
0.673295 1.460016 -0.776075 0 255 0
0.713697 1.359418 -0.797244 0 255 0
0.734400 1.463385 -0.839244 0 255 0
0.639112 1.520444 -0.718198 0 255 0
0.666565 1.389882 -0.772379 0 255 0
0.644691 1.529482 -0.743244 0 255 0
0.698869 1.368704 -0.784207 0 255 0
0.689093 1.452568 -0.777244 0 255 0
0.603256 1.409474 -0.785789 0 255 0
0.678988 1.342514 -0.861244 0 255 0
0.728548 1.370573 -0.851244 0 255 0
0.750515 1.425199 -0.805244 0 255 0
0.632599 1.355132 -0.803244 0 255 0
0.632565 1.345355 -0.871244 0 255 0
0.717458 1.446540 -0.788213 0 255 0
0.683587 1.402622 -0.771614 0 255 0
0.690117 1.423725 -0.776132 0 255 0
0.745034 1.446811 -0.815244 0 255 0
0.749845 1.419208 -0.817244 0 255 0
0.650146 1.341492 -0.835244 0 255 0
0.661928 1.377684 -0.721244 0 255 0
0.739147 1.423527 -0.787811 0 255 0
0.731983 1.447541 -0.785756 0 255 0
0.625070 1.348569 -0.863244 0 255 0
0.635916 1.524650 -0.789244 0 255 0
0.671972 1.415314 -0.700677 0 255 0
0.704719 1.463559 -0.783513 0 255 0
0.666764 1.438913 -0.759921 0 255 0
0.626707 1.356270 -0.843244 0 255 0
0.657118 1.465500 -0.717244 0 255 0
0.747539 1.411519 -0.831244 0 255 0
0.625267 1.349498 -0.827244 0 255 0
0.633261 1.425586 -0.776118 0 255 0
0.646295 1.400326 -0.776192 0 255 0
0.736835 1.407661 -0.807244 0 255 0
0.725457 1.474557 -0.801244 0 255 0
0.645878 1.350271 -0.869244 0 255 0
0.657618 1.347782 -0.835244 0 255 0
0.730313 1.386555 -0.867244 0 255 0
0.732419 1.396332 -0.801244 0 255 0
0.585181 1.391772 -0.851244 0 255 0
0.736045 1.403740 -0.831244 0 255 0
0.739136 1.437843 -0.869244 0 255 0
0.627051 1.348272 -0.813244 0 255 0
0.700484 1.357064 -0.813244 0 255 0
0.659647 1.448603 -0.717244 0 255 0
0.735181 1.399833 -0.863244 0 255 0
0.732798 1.465770 -0.851244 0 255 0
0.737229 1.409621 -0.815244 0 255 0
0.736027 1.403744 -0.853244 0 255 0
0.706939 1.387435 -0.788177 0 255 0
0.675005 1.439205 -0.776057 0 255 0
0.605505 1.400817 -0.788168 0 255 0
0.657857 1.339292 -0.845244 0 255 0
0.679873 1.452483 -0.776175 0 255 0
0.741749 1.420930 -0.833244 0 255 0
0.736830 1.407663 -0.865244 0 255 0
0.603800 1.373554 -0.829244 0 255 0
0.643814 1.525577 -0.723244 0 255 0
0.695542 1.353052 -0.788345 0 255 0
0.587224 1.388345 -0.841244 0 255 0
0.720990 1.482397 -0.795244 0 255 0
0.625237 1.378219 -0.783700 0 255 0
0.679796 1.413650 -0.776060 0 255 0
0.615206 1.353771 -0.799244 0 255 0
0.734858 1.441824 -0.797244 0 255 0
0.682042 1.347743 -0.785244 0 255 0
0.738290 1.442112 -0.789244 0 255 0
0.642892 1.345842 -0.880147 0 255 0
0.644340 1.381512 -0.781244 0 255 0
0.633387 1.347862 -0.799244 0 255 0
0.687388 1.336384 -0.799244 0 255 0
0.636137 1.437244 -0.773244 0 255 0
0.747668 1.433984 -0.825244 0 255 0
0.601840 1.373952 -0.859244 0 255 0
0.708741 1.429990 -0.787244 0 255 0
0.706986 1.358800 -0.788959 0 255 0
0.634773 1.355747 -0.787426 0 255 0
0.723454 1.365523 -0.865244 0 255 0
0.627290 1.447303 -0.771244 0 255 0
0.696103 1.346071 -0.805244 0 255 0
0.694149 1.345171 -0.849244 0 255 0
0.697856 1.460140 -0.783244 0 255 0
0.669183 1.411817 -0.724188 0 255 0
0.679722 1.374818 -0.783504 0 255 0
0.743216 1.451288 -0.831244 0 255 0
0.724399 1.479195 -0.817244 0 255 0
0.687740 1.485572 -0.783244 0 255 0
0.721295 1.406874 -0.783391 0 255 0
0.594404 1.382729 -0.807244 0 255 0
0.712114 1.359753 -0.879244 0 255 0
0.704907 1.349017 -0.877463 0 255 0
0.616288 1.384211 -0.788218 0 255 0
0.641866 1.389113 -0.771244 0 255 0
0.594188 1.395674 -0.787244 0 255 0
0.713238 1.494023 -0.815244 0 255 0
0.675441 1.345058 -0.790222 0 255 0
0.731889 1.475951 -0.857244 0 255 0
0.712471 1.355738 -0.847244 0 255 0
0.665399 1.437157 -0.713244 0 255 0
0.662776 1.352813 -0.795244 0 255 0
0.718338 1.373726 -0.837244 0 255 0
0.587979 1.398408 -0.789244 0 255 0
0.744018 1.417582 -0.879244 0 255 0
0.749563 1.423358 -0.875244 0 255 0
0.742984 1.426800 -0.843244 0 255 0
0.703546 1.496524 -0.796220 0 255 0
0.638436 1.344114 -0.841244 0 255 0
0.708014 1.363629 -0.835244 0 255 0
0.741935 1.427024 -0.812245 0 255 0
0.675388 1.388007 -0.717244 0 255 0
0.598306 1.376569 -0.841244 0 255 0
0.601846 1.373987 -0.847244 0 255 0
0.680628 1.390982 -0.715244 0 255 0
0.736524 1.449661 -0.875244 0 255 0
0.746318 1.409161 -0.821244 0 255 0
0.726294 1.382296 -0.879244 0 255 0
0.640958 1.428040 -0.763244 0 255 0
0.726291 1.382288 -0.843244 0 255 0
0.733742 1.398095 -0.874246 0 255 0
0.738977 1.446055 -0.809244 0 255 0
0.739224 1.414271 -0.825244 0 255 0
0.618194 1.364320 -0.795244 0 255 0
0.655536 1.386092 -0.786236 0 255 0
0.728899 1.478867 -0.811244 0 255 0
0.704906 1.363331 -0.857244 0 255 0
0.687007 1.361002 -0.784494 0 255 0
0.633356 1.354004 -0.841244 0 255 0
0.675978 1.357211 -0.784587 0 255 0
0.731959 1.394385 -0.837244 0 255 0
0.653758 1.339246 -0.855244 0 255 0
0.724352 1.377599 -0.875244 0 255 0
0.686819 1.475544 -0.788168 0 255 0
0.650593 1.343591 -0.797244 0 255 0
0.671201 1.373214 -0.783244 0 255 0
0.629566 1.379345 -0.788178 0 255 0
0.648751 1.392640 -0.779244 0 255 0
0.645368 1.453684 -0.702300 0 255 0
0.740102 1.437637 -0.876238 0 255 0
0.722348 1.378025 -0.815244 0 255 0
0.694873 1.441117 -0.777244 0 255 0
0.713685 1.490279 -0.827244 0 255 0
0.612950 1.354251 -0.859244 0 255 0
0.702673 1.347448 -0.807244 0 255 0
0.685440 1.344003 -0.859244 0 255 0
0.650897 1.489312 -0.718268 0 255 0
0.748816 1.427605 -0.863244 0 255 0
0.654392 1.486524 -0.712183 0 255 0
0.723149 1.478044 -0.849244 0 255 0
0.676178 1.340811 -0.849244 0 255 0
0.613158 1.356251 -0.865244 0 255 0
0.662852 1.391648 -0.777244 0 255 0
0.615407 1.360823 -0.827244 0 255 0
0.643043 1.538941 -0.737244 0 255 0
0.646217 1.342245 -0.849244 0 255 0
0.654488 1.429253 -0.759934 0 255 0
0.642046 1.524635 -0.737244 0 255 0
0.738471 1.380732 -0.821244 0 255 0
0.598303 1.376549 -0.829244 0 255 0
0.635530 1.532449 -0.795244 0 255 0
0.659894 1.454685 -0.776077 0 255 0
0.665143 1.349292 -0.867244 0 255 0
0.643457 1.406220 -0.775244 0 255 0
0.737658 1.445379 -0.847244 0 255 0
0.709100 1.493796 -0.793244 0 255 0
0.706552 1.452946 -0.783819 0 255 0
0.590581 1.378706 -0.847244 0 255 0
0.683147 1.352461 -0.875244 0 255 0
0.691252 1.327385 -0.791244 0 255 0
0.707601 1.409786 -0.785876 0 255 0
0.725495 1.445871 -0.789244 0 255 0
0.714098 1.357288 -0.873244 0 255 0
0.658160 1.494631 -0.713244 0 255 0
0.721122 1.377202 -0.831244 0 255 0
0.678303 1.387388 -0.771069 0 255 0
0.704157 1.359401 -0.849244 0 255 0
0.592390 1.383157 -0.841244 0 255 0
0.738440 1.381720 -0.835244 0 255 0
0.651772 1.339523 -0.823244 0 255 0
0.671413 1.422308 -0.721244 0 255 0
0.680259 1.386972 -0.720745 0 255 0
0.610090 1.367128 -0.789244 0 255 0
0.664099 1.445613 -0.722036 0 255 0
0.639594 1.397660 -0.776209 0 255 0
0.735915 1.471242 -0.811244 0 255 0
0.694511 1.300111 -0.772644 0 255 0
0.639306 1.516312 -0.711244 0 255 0
0.602546 1.415758 -0.783732 0 255 0
0.642282 1.535358 -0.777244 0 255 0
0.740845 1.462014 -0.835244 0 255 0
0.609880 1.363684 -0.857244 0 255 0
0.741254 1.437392 -0.813244 0 255 0
0.699013 1.489310 -0.789244 0 255 0
0.696449 1.395798 -0.785961 0 255 0
0.702591 1.347741 -0.847244 0 255 0
0.707212 1.475298 -0.783855 0 255 0
0.625134 1.425830 -0.771244 0 255 0
0.655756 1.339024 -0.803244 0 255 0
0.664902 1.382056 -0.724196 0 255 0
0.734574 1.402007 -0.787531 0 255 0
0.744875 1.401862 -0.867244 0 255 0
0.741179 1.437408 -0.837244 0 255 0
0.698497 1.448525 -0.785244 0 255 0
0.647399 1.492100 -0.726218 0 255 0
0.741964 1.392257 -0.823244 0 255 0
0.738141 1.380313 -0.841244 0 255 0
0.727484 1.464854 -0.786684 0 255 0
0.644376 1.343203 -0.869244 0 255 0
0.698895 1.378444 -0.783244 0 255 0
0.732460 1.379966 -0.791244 0 255 0
0.605937 1.364368 -0.873244 0 255 0
0.709940 1.488128 -0.795244 0 255 0
0.691757 1.344867 -0.809244 0 255 0
0.646928 1.355208 -0.786346 0 255 0
0.643289 1.513421 -0.707244 0 255 0
0.739295 1.419407 -0.813244 0 255 0
0.685911 1.432798 -0.772102 0 255 0
0.605798 1.392576 -0.788164 0 255 0
0.642013 1.524474 -0.749244 0 255 0
0.620860 1.357620 -0.837244 0 255 0
0.650944 1.460677 -0.700451 0 255 0
0.636631 1.345241 -0.807244 0 255 0
0.746433 1.409711 -0.863438 0 255 0
0.734167 1.414363 -0.795244 0 255 0
0.677104 1.352883 -0.792151 0 255 0
0.748449 1.415416 -0.839244 0 255 0
0.719537 1.456321 -0.788172 0 255 0
0.697823 1.346434 -0.869244 0 255 0
0.640553 1.344458 -0.821244 0 255 0
0.745755 1.444999 -0.803244 0 255 0
0.634325 1.526782 -0.743244 0 255 0
0.609833 1.401942 -0.784152 0 255 0
0.664487 1.380100 -0.700525 0 255 0
0.636559 1.344907 -0.829244 0 255 0
0.600514 1.377341 -0.791946 0 255 0
0.678797 1.338210 -0.799244 0 255 0
0.659534 1.438404 -0.705244 0 255 0
0.674807 1.390176 -0.723977 0 255 0
0.687454 1.343861 -0.833244 0 255 0
0.659600 1.414830 -0.771244 0 255 0
0.742516 1.424855 -0.823244 0 255 0
0.724735 1.379563 -0.823244 0 255 0
0.608840 1.368409 -0.853244 0 255 0
0.702604 1.347797 -0.839244 0 255 0
0.598095 1.404435 -0.788211 0 255 0
0.621619 1.370810 -0.790158 0 255 0
0.668222 1.349577 -0.823244 0 255 0
0.743427 1.398082 -0.815244 0 255 0
0.697385 1.356751 -0.853244 0 255 0
0.733953 1.375559 -0.831244 0 255 0
0.649423 1.366946 -0.783996 0 255 0
0.732079 1.390270 -0.787654 0 255 0
0.740214 1.386496 -0.847244 0 255 0
0.735518 1.459059 -0.811244 0 255 0
0.697621 1.362835 -0.792163 0 255 0
0.739914 1.386560 -0.817244 0 255 0
0.735587 1.459044 -0.847244 0 255 0
0.608840 1.368410 -0.839244 0 255 0
0.658024 1.349694 -0.797244 0 255 0
0.737344 1.448447 -0.825244 0 255 0
0.710812 1.367176 -0.865244 0 255 0
0.735074 1.457107 -0.835244 0 255 0
0.738063 1.413533 -0.843244 0 255 0
0.715974 1.372219 -0.823244 0 255 0
0.735610 1.401788 -0.819244 0 255 0
0.644758 1.354618 -0.799244 0 255 0
0.696477 1.463267 -0.788175 0 255 0
0.650774 1.479116 -0.782916 0 255 0
0.709263 1.364450 -0.817244 0 255 0
0.730134 1.371504 -0.823244 0 255 0
0.664779 1.371859 -0.783753 0 255 0
0.742260 1.394240 -0.855244 0 255 0
0.594847 1.379534 -0.797244 0 255 0
0.712327 1.489737 -0.803244 0 255 0
0.746171 1.440437 -0.827244 0 255 0
0.653728 1.416065 -0.765244 0 255 0
0.673549 1.345783 -0.797244 0 255 0
0.663996 1.339311 -0.877656 0 255 0
0.640944 1.509831 -0.720242 0 255 0
0.644531 1.343930 -0.801244 0 255 0
0.737572 1.378878 -0.873244 0 255 0
0.697354 1.414008 -0.779244 0 255 0
0.664685 1.429130 -0.764016 0 255 0
0.661145 1.454419 -0.717244 0 255 0
0.747330 1.436101 -0.807244 0 255 0
0.709898 1.372494 -0.786005 0 255 0
0.708998 1.499455 -0.865244 0 255 0
0.641768 1.425823 -0.771244 0 255 0
0.645028 1.490560 -0.700387 0 255 0
0.724617 1.470598 -0.795244 0 255 0
0.659817 1.406225 -0.701244 0 255 0
0.630932 1.534450 -0.777244 0 255 0
0.701268 1.437712 -0.784174 0 255 0
0.593414 1.387029 -0.795244 0 255 0
0.620249 1.354745 -0.880080 0 255 0
0.648245 1.342166 -0.827244 0 255 0
0.676676 1.341250 -0.837244 0 255 0
0.728118 1.419738 -0.783896 0 255 0
0.668714 1.354666 -0.785244 0 255 0
0.632771 1.384797 -0.788210 0 255 0
0.750474 1.425208 -0.817244 0 255 0
0.625823 1.361737 -0.786545 0 255 0
0.659245 1.446645 -0.705244 0 255 0
0.611203 1.418008 -0.788237 0 255 0
0.653458 1.376312 -0.783653 0 255 0
0.584381 1.388012 -0.813244 0 255 0
0.694436 1.324662 -0.785244 0 255 0
0.586609 1.417729 -0.789244 0 255 0
0.683197 1.343069 -0.869244 0 255 0
0.718120 1.468890 -0.790015 0 255 0
0.680478 1.339897 -0.790181 0 255 0
0.707371 1.350985 -0.835244 0 255 0
0.675110 1.430074 -0.765244 0 255 0
0.637533 1.522639 -0.783244 0 255 0
0.584023 1.386328 -0.849244 0 255 0
0.602531 1.372823 -0.865244 0 255 0
0.584454 1.423693 -0.791244 0 255 0
0.739667 1.439773 -0.849244 0 255 0
0.635903 1.524589 -0.795244 0 255 0
0.605689 1.366018 -0.795244 0 255 0
0.649534 1.502143 -0.707244 0 255 0
0.628272 1.402111 -0.772363 0 255 0
0.681061 1.342643 -0.827244 0 255 0
0.698102 1.355480 -0.861244 0 255 0
0.611082 1.364872 -0.809244 0 255 0
0.738954 1.446059 -0.841244 0 255 0
0.655991 1.368987 -0.783244 0 255 0
0.686023 1.327513 -0.797244 0 255 0
0.683110 1.342665 -0.809244 0 255 0
0.683008 0.851590 -0.673244 255 125 0
0.823062 0.769794 -0.873590 255 125 0
0.647444 0.727381 -0.813244 255 125 0
0.822714 0.768156 -0.707244 255 125 0
0.789280 0.880207 -0.787244 255 125 0
0.699569 0.734704 -0.703244 255 125 0
0.622396 0.816537 -0.756232 255 125 0
0.750222 0.758697 -0.795244 255 125 0
0.709815 0.746839 -0.878225 255 125 0
0.794701 0.857610 -0.876150 255 125 0
0.768975 0.871257 -0.698833 255 125 0
0.755100 0.751525 -0.647244 255 125 0
0.829741 0.719302 -0.815244 255 125 0
0.805198 0.806307 -0.771244 255 125 0
0.709625 0.861380 -0.742189 255 125 0
0.638552 0.772208 -0.701244 255 125 0
0.757618 0.760108 -0.727244 255 125 0
0.649754 0.723999 -0.747244 255 125 0
0.647553 0.723268 -0.876146 255 125 0
0.795134 0.811551 -0.833244 255 125 0
0.766393 0.753298 -0.855244 255 125 0
0.628510 0.835684 -0.698389 255 125 0
0.705576 0.736521 -0.763244 255 125 0
0.797252 0.821522 -0.713244 255 125 0
0.703501 0.736378 -0.821244 255 125 0
0.733886 0.858268 -0.657244 255 125 0
0.822083 0.772048 -0.809244 255 125 0
0.659831 0.848362 -0.739244 255 125 0
0.649116 0.774053 -0.751244 255 125 0
0.790055 0.758796 -0.765244 255 125 0
0.796622 0.863335 -0.741244 255 125 0
0.651881 0.724392 -0.698918 255 125 0
0.709598 0.740751 -0.657244 255 125 0
0.790019 0.858606 -0.829244 255 125 0
0.752909 0.872627 -0.744197 255 125 0
0.807487 0.811953 -0.876167 255 125 0
0.724566 0.864339 -0.700353 255 125 0
0.787616 0.838670 -0.791244 255 125 0
0.785111 0.757415 -0.819244 255 125 0
0.672255 0.738465 -0.847244 255 125 0
0.822576 0.773988 -0.747244 255 125 0
0.669891 0.736923 -0.781244 255 125 0
0.785228 0.759434 -0.699244 255 125 0
0.690087 0.846414 -0.711244 255 125 0
0.636318 0.805084 -0.721244 255 125 0
0.735980 0.754499 -0.831244 255 125 0
0.736078 0.745346 -0.699088 255 125 0
0.742589 0.747119 -0.759244 255 125 0
0.681658 0.739420 -0.735244 255 125 0
0.718660 0.749971 -0.731244 255 125 0
0.788463 0.828265 -0.748245 255 125 0
0.808869 0.779974 -0.841244 255 125 0
0.702893 0.850544 -0.643244 255 125 0
0.792238 0.769068 -0.731244 255 125 0
0.651421 0.751081 -0.725244 255 125 0
0.717530 0.749288 -0.793244 255 125 0
0.622102 0.839091 -0.731244 255 125 0
0.797043 0.855067 -0.707244 255 125 0
0.799274 0.797343 -0.803244 255 125 0
0.657884 0.848825 -0.705244 255 125 0
0.808187 0.801582 -0.737244 255 125 0
0.792464 0.880576 -0.853244 255 125 0
0.801830 0.837692 -0.851244 255 125 0
0.790807 0.762337 -0.874230 255 125 0
0.741209 0.746300 -0.873244 255 125 0
0.813236 0.775973 -0.779244 255 125 0
0.805701 0.793931 -0.700964 255 125 0
0.716293 0.738837 -0.849244 255 125 0
0.684138 0.731849 -0.874060 255 125 0
0.675386 0.738780 -0.811244 255 125 0
0.641495 0.839058 -0.760222 255 125 0
0.788347 0.770006 -0.793244 255 125 0
0.796659 0.855149 -0.769244 255 125 0
0.748697 0.862426 -0.717244 255 125 0
0.647049 0.725420 -0.845244 255 125 0
0.789271 0.880162 -0.717244 255 125 0
0.797575 0.834508 -0.817244 255 125 0
0.686444 0.845862 -0.747244 255 125 0
0.763171 0.762078 -0.771244 255 125 0
0.694751 0.733682 -0.792257 255 125 0
0.792081 0.758708 -0.847244 255 125 0
0.646013 0.725641 -0.774193 255 125 0
0.673231 0.738256 -0.709253 255 125 0
0.647542 0.780934 -0.725244 255 125 0
0.794147 0.880220 -0.813244 255 125 0
0.794308 0.880184 -0.761244 255 125 0
0.632968 0.793843 -0.745244 255 125 0
0.759895 0.751580 -0.821244 255 125 0
0.673881 0.727895 -0.757244 255 125 0
0.759048 0.757214 -0.701244 255 125 0
0.729501 0.752877 -0.646322 255 125 0
0.651165 0.749881 -0.699244 255 125 0
0.774893 0.754802 -0.745244 255 125 0
0.811548 0.802204 -0.853244 255 125 0
0.639048 0.798684 -0.697038 255 125 0
0.788486 0.842573 -0.727244 255 125 0
0.644632 0.834573 -0.721244 255 125 0
0.657820 0.723466 -0.723244 255 125 0
0.712826 0.852522 -0.719244 255 125 0
0.712913 0.740046 -0.683244 255 125 0
0.796685 0.857188 -0.805244 255 125 0
0.733690 0.859162 -0.737244 255 125 0
0.738028 0.857389 -0.681244 255 125 0
0.770476 0.868893 -0.727244 255 125 0
0.797822 0.830365 -0.771244 255 125 0
0.798979 0.834210 -0.875244 255 125 0
0.735763 0.745413 -0.809244 255 125 0
0.809303 0.782017 -0.721244 255 125 0
0.799745 0.817689 -0.791244 255 125 0
0.805022 0.785897 -0.757244 255 125 0
0.811805 0.794678 -0.823244 255 125 0
0.664434 0.725729 -0.829244 255 125 0
0.809797 0.788971 -0.873244 255 125 0
0.693903 0.744087 -0.853244 255 125 0
0.788626 0.857895 -0.853244 255 125 0
0.742693 0.757229 -0.853244 255 125 0
0.623935 0.814164 -0.704211 255 125 0
0.737172 0.745112 -0.781244 255 125 0
0.740222 0.745605 -0.725244 255 125 0
0.806226 0.763149 -0.825244 255 125 0
0.824681 0.767406 -0.851244 255 125 0
0.677055 0.842818 -0.693244 255 125 0
0.772862 0.754873 -0.799244 255 125 0
0.762881 0.756006 -0.667792 255 125 0
0.621470 0.816734 -0.733244 255 125 0
0.721045 0.751579 -0.755244 255 125 0
0.716280 0.748399 -0.709244 255 125 0
0.702842 0.736053 -0.741244 255 125 0
0.671077 0.840948 -0.721244 255 125 0
0.705943 0.851940 -0.697244 255 125 0
0.665509 0.846222 -0.760241 255 125 0
0.665082 0.725677 -0.863244 255 125 0
0.661706 0.724349 -0.797244 255 125 0
0.777029 0.755230 -0.719244 255 125 0
0.692517 0.857846 -0.729244 255 125 0
0.788860 0.878227 -0.875244 255 125 0
0.769165 0.756715 -0.876225 255 125 0
0.686769 0.731289 -0.833244 255 125 0
0.801044 0.762207 -0.713244 255 125 0
0.810045 0.764383 -0.761244 255 125 0
0.794115 0.874092 -0.697693 255 125 0
0.698241 0.745209 -0.721244 255 125 0
0.797565 0.818153 -0.857244 255 125 0
0.791646 0.814378 -0.733244 255 125 0
0.688369 0.742140 -0.773244 255 125 0
0.791837 0.815281 -0.812245 255 125 0
0.768456 0.763000 -0.836195 255 125 0
0.643234 0.736454 -0.713244 255 125 0
0.795537 0.808359 -0.753244 255 125 0
0.807446 0.763659 -0.797244 255 125 0
0.788155 0.879449 -0.833244 255 125 0
0.755671 0.760566 -0.749244 255 125 0
0.640015 0.764754 -0.735244 255 125 0
0.718671 0.750026 -0.821244 255 125 0
0.811535 0.794736 -0.787244 255 125 0
0.798927 0.800538 -0.719244 255 125 0
0.805849 0.765765 -0.861244 255 125 0
0.787892 0.859058 -0.787244 255 125 0
0.788798 0.839460 -0.835244 255 125 0
0.622427 0.835922 -0.751244 255 125 0
0.822609 0.767663 -0.727244 255 125 0
0.829736 0.719304 -0.835244 255 125 0
0.640191 0.832917 -0.741244 255 125 0
0.729517 0.868387 -0.719244 255 125 0
0.824080 0.769578 -0.831244 255 125 0
0.685766 0.850095 -0.653244 255 125 0
0.722996 0.751133 -0.863244 255 125 0
0.787754 0.848863 -0.751244 255 125 0
0.796411 0.836799 -0.700247 255 125 0
0.688368 0.742134 -0.753244 255 125 0
0.663605 0.736213 -0.741244 255 125 0
0.744252 0.870377 -0.700314 255 125 0
0.779640 0.756532 -0.781244 255 125 0
0.738359 0.756077 -0.741244 255 125 0
0.753367 0.749731 -0.839244 255 125 0
0.716516 0.749504 -0.774254 255 125 0
0.703733 0.747088 -0.837244 255 125 0
0.794631 0.770708 -0.751244 255 125 0
0.788353 0.861004 -0.723244 255 125 0
0.772180 0.876710 -0.744141 255 125 0
0.647417 0.835755 -0.697244 255 125 0
0.634820 0.788415 -0.713244 255 125 0
0.701349 0.745492 -0.805244 255 125 0
0.796569 0.770205 -0.811244 255 125 0
0.817500 0.783245 -0.857244 255 125 0
0.626619 0.826788 -0.717244 255 125 0
0.792644 0.880539 -0.735244 255 125 0
0.656922 0.733545 -0.761244 255 125 0
0.801005 0.762214 -0.780179 255 125 0
0.742688 0.757205 -0.711244 255 125 0
0.701186 0.735106 -0.867244 255 125 0
0.733607 0.743336 -0.845244 255 125 0
0.640829 0.763546 -0.717244 255 125 0
0.808583 0.783096 -0.739244 255 125 0
0.807554 0.764174 -0.739244 255 125 0
0.808114 0.781151 -0.801244 255 125 0
0.718257 0.859545 -0.645244 255 125 0
0.759817 0.876263 -0.713244 255 125 0
