ply
format ascii 1.0
element vertex 1283
property float x
property float y
property float z
property uchar red
property uchar green
property uchar blue
end_header
-0.512332 0.705320 0.192588 255 125 0
-0.580428 0.662543 0.311549 255 125 0
-0.599328 0.700054 0.197549 255 125 0
-0.519987 0.688545 0.198187 255 125 0
-0.592029 0.667054 0.320882 255 125 0
-0.541435 0.635734 0.241549 255 125 0
-0.538018 0.642193 0.313549 255 125 0
-0.551005 0.706144 0.305549 255 125 0
-0.525701 0.646822 0.305549 255 125 0
-0.518097 0.697437 0.283549 255 125 0
-0.582200 0.636339 0.198355 255 125 0
-0.565745 0.704138 0.309549 255 125 0
-0.578411 0.625310 0.196585 255 125 0
-0.515580 0.651561 0.255549 255 125 0
-0.585452 0.659522 0.290552 255 125 0
-0.514856 0.669053 0.291549 255 125 0
-0.583618 0.648909 0.252963 255 125 0
-0.570377 0.658362 0.219549 255 125 0
-0.533989 0.714013 0.279549 255 125 0
-0.611466 0.700664 0.199549 255 125 0
-0.548282 0.651621 0.216542 255 125 0
-0.584327 0.655194 0.241399 255 125 0
-0.514040 0.693415 0.249549 255 125 0
-0.526319 0.716472 0.198276 255 125 0
-0.544165 0.651750 0.197549 255 125 0
-0.543532 0.718086 0.233549 255 125 0
-0.521773 0.670523 0.232538 255 125 0
-0.532068 0.646130 0.251549 255 125 0
-0.579790 0.722512 0.198602 255 125 0
-0.557428 0.647071 0.211549 255 125 0
-0.551921 0.740316 0.256635 255 125 0
-0.545324 0.636680 0.197739 255 125 0
-0.516906 0.683801 0.254543 255 125 0
-0.524485 0.705859 0.246193 255 125 0
-0.525511 0.710651 0.297549 255 125 0
-0.590056 0.680947 0.305549 255 125 0
-0.527935 0.680011 0.214556 255 125 0
-0.513915 0.652495 0.315549 255 125 0
-0.539058 0.733493 0.307621 255 125 0
-0.567891 0.636322 0.311549 255 125 0
-0.506761 0.683689 0.289549 255 125 0
-0.569414 0.638779 0.323549 255 125 0
-0.525035 0.640546 0.259549 255 125 0
-0.540676 0.735502 0.255549 255 125 0
-0.541333 0.607206 0.197549 255 125 0
-0.568054 0.619020 0.201549 255 125 0
-0.500329 0.627116 0.201941 255 125 0
-0.536913 0.634892 0.319550 255 125 0
-0.512870 0.693167 0.198073 255 125 0
-0.548943 0.629270 0.275458 255 125 0
-0.604306 0.675798 0.199549 255 125 0
-0.514662 0.694359 0.321549 255 125 0
-0.508372 0.675853 0.192652 255 125 0
-0.585224 0.660591 0.237549 255 125 0
-0.534177 0.698739 0.219549 255 125 0
-0.516699 0.698070 0.253549 255 125 0
-0.566720 0.651451 0.194824 255 125 0
-0.487439 0.687761 0.202395 255 125 0
-0.605893 0.688403 0.194773 255 125 0
-0.567164 0.663813 0.201549 255 125 0
-0.519970 0.706944 0.279549 255 125 0
-0.494644 0.648399 0.195549 255 125 0
-0.517993 0.673809 0.317549 255 125 0
-0.547648 0.635365 0.237549 255 125 0
-0.564289 0.643648 0.253549 255 125 0
-0.537943 0.709883 0.303549 255 125 0
-0.578008 0.675302 0.195549 255 125 0
-0.515859 0.688724 0.303549 255 125 0
-0.542594 0.630285 0.269549 255 125 0
-0.522788 0.650292 0.235549 255 125 0
-0.525742 0.646830 0.291549 255 125 0
-0.494555 0.683140 0.192623 255 125 0
-0.568186 0.644554 0.261549 255 125 0
-0.524079 0.654656 0.245549 255 125 0
-0.509674 0.688966 0.265549 255 125 0
-0.509205 0.680119 0.251549 255 125 0
-0.533518 0.711462 0.321549 255 125 0
-0.515469 0.685540 0.277549 255 125 0
-0.528539 0.671961 0.209549 255 125 0
-0.577506 0.706522 0.197549 255 125 0
-0.519306 0.614792 0.195021 255 125 0
-0.554804 0.745988 0.289549 255 125 0
-0.575383 0.702365 0.307549 255 125 0
-0.553570 0.707952 0.325549 255 125 0
-0.516858 0.655165 0.197934 255 125 0
-0.539358 0.626269 0.193549 255 125 0
-0.585626 0.651380 0.311549 255 125 0
-0.548254 0.642135 0.327549 255 125 0
-0.572496 0.643518 0.235549 255 125 0
-0.500641 0.721237 0.199549 255 125 0
-0.489571 0.677728 0.201549 255 125 0
-0.496587 0.644722 0.201767 255 125 0
-0.604981 0.663836 0.201549 255 125 0
-0.496338 0.674752 0.199549 255 125 0
-0.481399 0.668075 0.201844 255 125 0
-0.543401 0.741921 0.289549 255 125 0
-0.515914 0.699948 0.305549 255 125 0
-0.557477 0.637218 0.192580 255 125 0
-0.591217 0.662792 0.263549 255 125 0
-0.561118 0.629709 0.281549 255 125 0
-0.579096 0.684752 0.193549 255 125 0
-0.539597 0.721339 0.241991 255 125 0
-0.594987 0.681996 0.286533 255 125 0
-0.511876 0.654106 0.193549 255 125 0
-0.591015 0.656615 0.301549 255 125 0
-0.534870 0.632413 0.277549 255 125 0
-0.565983 0.712635 0.197772 255 125 0
-0.518811 0.704653 0.265549 255 125 0
-0.528688 0.712886 0.273549 255 125 0
-0.550518 0.631479 0.261549 255 125 0
-0.536620 0.708438 0.197549 255 125 0
-0.536270 0.736989 0.202788 255 125 0
-0.539181 0.723295 0.309330 255 125 0
-0.519864 0.698743 0.241854 255 125 0
-0.536639 0.706397 0.226370 255 125 0
-0.577488 0.639271 0.293549 255 125 0
-0.544757 0.716302 0.243085 255 125 0
-0.500622 0.635357 0.194701 255 125 0
-0.524608 0.695662 0.313369 255 125 0
-0.506973 0.679645 0.279549 255 125 0
-0.589241 0.670551 0.330028 255 125 0
-0.546090 0.726809 0.317549 255 125 0
-0.558984 0.639750 0.231550 255 125 0
-0.557940 0.635042 0.329549 255 125 0
-0.545104 0.733909 0.315549 255 125 0
-0.509555 0.718384 0.201549 255 125 0
-0.539616 0.750107 0.285549 255 125 0
-0.485602 0.657925 0.195549 255 125 0
-0.580584 0.643942 0.317549 255 125 0
-0.549077 0.629299 0.197549 255 125 0
-0.572712 0.642501 0.192566 255 125 0
-0.530675 0.647879 0.322585 255 125 0
-0.553225 0.714942 0.307549 255 125 0
-0.588481 0.651987 0.295549 255 125 0
-0.506708 0.683678 0.301299 255 125 0
-0.519653 0.686429 0.321549 255 125 0
-0.551479 0.715686 0.325549 255 125 0
-0.524467 0.656783 0.217549 255 125 0
-0.563168 0.735500 0.193549 255 125 0
-0.577967 0.694735 0.306884 255 125 0
-0.593034 0.675446 0.309549 255 125 0
-0.618216 0.659289 0.199549 255 125 0
-0.560689 0.631730 0.311549 255 125 0
-0.554806 0.745980 0.265549 255 125 0
-0.579711 0.664436 0.197549 255 125 0
-0.591419 0.669923 0.281549 255 125 0
-0.527458 0.657418 0.225549 255 125 0
-0.585567 0.692261 0.307549 255 125 0
-0.536616 0.634829 0.255549 255 125 0
-0.564178 0.634553 0.323865 255 125 0
-0.550233 0.632823 0.321549 255 125 0
-0.592976 0.663166 0.273549 255 125 0
-0.587918 0.715253 0.197470 255 125 0
-0.591689 0.630177 0.194765 255 125 0
-0.508112 0.673753 0.309549 255 125 0
-0.546401 0.612373 0.202441 255 125 0
-0.553719 0.710028 0.197549 255 125 0
-0.581522 0.681178 0.313549 255 125 0
-0.529349 0.651686 0.215549 255 125 0
-0.546373 0.631743 0.313549 255 125 0
-0.556990 0.629894 0.293549 255 125 0
-0.518020 0.663591 0.251549 255 125 0
-0.501605 0.669209 0.193549 255 125 0
-0.542806 0.706242 0.311549 255 125 0
-0.515434 0.683488 0.329549 255 125 0
-0.510205 0.686466 0.198252 255 125 0
-0.593391 0.671433 0.301549 255 125 0
-0.532893 0.637444 0.249549 255 125 0
-0.566097 0.654383 0.223549 255 125 0
-0.594496 0.722785 0.202105 255 125 0
-0.587867 0.655946 0.257549 255 125 0
-0.495018 0.709819 0.202254 255 125 0
-0.597142 0.633381 0.202003 255 125 0
-0.546863 0.702437 0.205549 255 125 0
-0.514897 0.677240 0.227549 255 125 0
-0.500594 0.702825 0.199572 255 125 0
-0.508470 0.667695 0.251549 255 125 0
-0.583917 0.675553 0.321549 255 125 0
-0.594865 0.692193 0.197956 255 125 0
-0.519511 0.676176 0.235549 255 125 0
-0.532725 0.640136 0.237549 255 125 0
-0.576189 0.639151 0.267549 255 125 0
-0.519911 0.727378 0.202484 255 125 0
-0.537376 0.645214 0.192582 255 125 0
-0.598947 0.711463 0.202082 255 125 0
-0.508403 0.661547 0.285549 255 125 0
-0.507222 0.669475 0.283549 255 125 0
-0.599391 0.642038 0.201864 255 125 0
-0.512777 0.652253 0.297549 255 125 0
-0.611054 0.683366 0.202270 255 125 0
-0.568220 0.644395 0.227549 255 125 0
-0.518813 0.659670 0.311549 255 125 0
-0.599023 0.672630 0.192658 255 125 0
-0.514426 0.671006 0.277549 255 125 0
-0.560772 0.640957 0.289549 255 125 0
-0.531649 0.729873 0.202715 255 125 0
-0.579376 0.659246 0.239549 255 125 0
-0.548616 0.640429 0.291549 255 125 0
-0.506879 0.702116 0.192660 255 125 0
-0.546675 0.639944 0.263549 255 125 0
-0.595158 0.700434 0.192557 255 125 0
-0.514280 0.681198 0.285549 255 125 0
-0.502843 0.711482 0.192690 255 125 0
-0.587871 0.686617 0.192620 255 125 0
-0.563904 0.722416 0.192710 255 125 0
-0.566380 0.614574 0.194737 255 125 0
-0.549347 0.737724 0.249549 255 125 0
-0.518087 0.692231 0.259549 255 125 0
-0.605014 0.663680 0.192570 255 125 0
-0.513583 0.674916 0.297549 255 125 0
-0.554093 0.643522 0.243549 255 125 0
-0.517229 0.667512 0.315549 255 125 0
-0.579262 0.717502 0.192584 255 125 0
-0.548405 0.641424 0.192660 255 125 0
-0.562315 0.643316 0.301549 255 125 0
-0.515491 0.685545 0.293549 255 125 0
-0.587531 0.649740 0.192646 255 125 0
-0.593447 0.679623 0.192560 255 125 0
-0.494016 0.695293 0.194892 255 125 0
-0.565189 0.639415 0.239549 255 125 0
-0.517222 0.645019 0.275549 255 125 0
-0.520532 0.672304 0.217549 255 125 0
-0.583735 0.646889 0.305549 255 125 0
-0.536871 0.695687 0.207549 255 125 0
-0.518153 0.677932 0.205129 255 125 0
-0.612657 0.673483 0.197549 255 125 0
-0.508495 0.665656 0.198304 255 125 0
-0.571076 0.638064 0.317549 255 125 0
-0.539172 0.646383 0.209549 255 125 0
-0.536204 0.612250 0.197001 255 125 0
-0.544771 0.629660 0.283549 255 125 0
-0.553291 0.724250 0.198247 255 125 0
-0.558328 0.729410 0.192579 255 125 0
-0.553291 0.724250 0.314676 255 125 0
-0.544048 0.710017 0.192626 255 125 0
-0.542385 0.717842 0.192626 255 125 0
-0.509996 0.674153 0.323549 255 125 0
-0.582541 0.673216 0.222605 255 125 0
-0.584210 0.646124 0.271549 255 125 0
-0.548301 0.747725 0.292526 255 125 0
-0.566966 0.631056 0.197411 255 125 0
-0.592861 0.663141 0.307748 255 125 0
-0.510601 0.626889 0.201549 255 125 0
-0.546665 0.736182 0.305549 255 125 0
-0.580755 0.691238 0.192558 255 125 0
-0.531460 0.615331 0.201712 255 125 0
-0.530275 0.711179 0.291549 255 125 0
-0.585021 0.692145 0.329549 255 125 0
-0.581444 0.687995 0.323549 255 125 0
-0.568039 0.635628 0.259549 255 125 0
-0.566427 0.643210 0.270494 255 125 0
-0.497636 0.687884 0.198060 255 125 0
-0.583222 0.698868 0.313549 255 125 0
-0.589336 0.727822 0.198769 255 125 0
-0.525591 0.614083 0.194717 255 125 0
-0.519487 0.696618 0.197549 255 125 0
-0.572259 0.663871 0.193549 255 125 0
-0.601624 0.683406 0.197549 255 125 0
-0.519376 0.657745 0.285549 255 125 0
-0.555925 0.745257 0.277549 255 125 0
-0.518529 0.661654 0.259549 255 125 0
-0.565180 0.649079 0.215609 255 125 0
-0.549802 0.639676 0.285549 255 125 0
-0.573452 0.699910 0.329549 255 125 0
-0.545832 0.643906 0.321549 255 125 0
-0.580629 0.653350 0.273549 255 125 0
-0.521506 0.642921 0.315549 255 125 0
-0.526101 0.669398 0.218576 255 125 0
-0.550087 0.729703 0.242635 255 125 0
-0.553981 0.634430 0.198236 255 125 0
-0.531800 0.652207 0.192646 255 125 0
-0.550437 0.713420 0.193549 255 125 0
-0.515488 0.671232 0.264498 255 125 0
-0.526006 0.612127 0.201990 255 125 0
-0.539988 0.738736 0.197549 255 125 0
-0.515855 0.667220 0.227549 255 125 0
-0.509660 0.663859 0.265549 255 125 0
-0.509871 0.686395 0.255549 255 125 0
-0.584327 0.655194 0.192584 255 125 0
-0.568725 0.702994 0.323549 255 125 0
-0.493575 0.716608 0.193549 255 125 0
-0.517493 0.665524 0.243549 255 125 0
-0.505103 0.648577 0.193549 255 125 0
-0.484649 0.678989 0.195549 255 125 0
-0.576390 0.649417 0.267549 255 125 0
-0.559283 0.715300 0.192686 255 125 0
-0.604148 0.641004 0.197549 255 125 0
-0.570895 0.656428 0.207549 255 125 0
-0.543680 0.740609 0.295855 255 125 0
-0.532017 0.699281 0.194910 255 125 0
-0.520906 0.703461 0.255549 255 125 0
-0.538086 0.699590 0.195549 255 125 0
-0.592322 0.675295 0.278537 255 125 0
-0.523559 0.652500 0.226224 255 125 0
-0.516671 0.636807 0.197549 255 125 0
-0.575670 0.657443 0.198986 255 125 0
-0.548247 0.733401 0.197549 255 125 0
-0.554250 0.633161 0.249549 255 125 0
-0.530820 0.651999 0.233549 255 125 0
-0.579070 0.641446 0.307549 255 125 0
-0.584788 0.701121 0.197549 255 125 0
-0.532874 0.647153 0.243549 255 125 0
-0.584493 0.659318 0.265549 255 125 0
-0.535835 0.642842 0.328871 255 125 0
-0.561352 0.657466 0.211549 255 125 0
-0.553102 0.609707 0.201970 255 125 0
-0.524977 0.665070 0.192642 255 125 0
-0.577163 0.631179 0.198023 255 125 0
-0.503968 0.715811 0.197413 255 125 0
-0.582493 0.644580 0.192598 255 125 0
-0.576577 0.614697 0.197073 255 125 0
-0.504657 0.625991 0.196994 255 125 0
-0.593016 0.677487 0.301549 255 125 0
-0.579554 0.641911 0.281549 255 125 0
-0.544445 0.611957 0.194787 255 125 0
-0.519477 0.694571 0.329549 255 125 0
-0.527717 0.632937 0.197125 255 125 0
-0.614996 0.664820 0.197549 255 125 0
-0.553798 0.635290 0.237549 255 125 0
-0.509206 0.691169 0.279549 255 125 0
-0.575175 0.640532 0.253549 255 125 0
-0.526735 0.714516 0.192573 255 125 0
-0.530770 0.705150 0.197202 255 125 0
-0.523566 0.656591 0.237549 255 125 0
-0.583244 0.708386 0.197549 255 125 0
-0.572074 0.635881 0.277549 255 125 0
-0.545031 0.628439 0.192573 255 125 0
-0.526362 0.691945 0.193549 255 125 0
-0.510082 0.676216 0.329549 255 125 0
-0.586335 0.698559 0.321549 255 125 0
-0.522808 0.670743 0.207549 255 125 0
-0.557497 0.733322 0.198724 255 125 0
-0.511282 0.662159 0.323924 255 125 0
-0.568213 0.625188 0.192593 255 125 0
-0.519700 0.655769 0.299549 255 125 0
-0.579008 0.689838 0.201549 255 125 0
-0.538251 0.745589 0.267549 255 125 0
-0.581199 0.621814 0.201676 255 125 0
-0.518523 0.695430 0.271549 255 125 0
-0.591559 0.659645 0.287549 255 125 0
-0.582600 0.653698 0.295549 255 125 0
-0.518969 0.688329 0.247549 255 125 0
-0.591906 0.677251 0.262452 255 125 0
-0.582856 0.729448 0.197549 255 125 0
-0.520866 0.713268 0.198278 255 125 0
-0.595417 0.637104 0.195549 255 125 0
-0.574007 0.665268 0.212392 255 125 0
-0.540389 0.739909 0.261549 255 125 0
-0.582208 0.673145 0.307549 255 125 0
-0.547231 0.747498 0.275549 255 125 0
-0.508386 0.671767 0.303549 255 125 0
-0.536058 0.632172 0.289549 255 125 0
-0.519769 0.655784 0.291549 255 125 0
-0.524656 0.705056 0.295549 255 125 0
-0.576715 0.652525 0.315549 255 125 0
-0.508666 0.671826 0.257549 255 125 0
-0.507520 0.677717 0.273549 255 125 0
-0.577543 0.670109 0.207549 255 125 0
-0.524333 0.662888 0.227549 255 125 0
-0.509455 0.657681 0.277549 255 125 0
-0.574039 0.636260 0.289549 255 125 0
-0.551283 0.647122 0.231550 255 125 0
-0.523143 0.654457 0.192622 255 125 0
-0.490888 0.661913 0.194572 255 125 0
-0.595233 0.661601 0.198054 255 125 0
-0.537884 0.652441 0.199549 255 125 0
-0.551577 0.655360 0.205549 255 125 0
-0.525294 0.648780 0.313549 255 125 0
-0.533260 0.645339 0.303549 255 125 0
-0.573642 0.647746 0.289549 255 125 0
-0.575614 0.648087 0.299549 255 125 0
-0.532093 0.660448 0.212524 255 125 0
-0.599316 0.680871 0.192572 255 125 0
-0.525338 0.648789 0.281549 255 125 0
-0.510621 0.684510 0.192607 255 125 0
-0.611905 0.644698 0.195549 255 125 0
-0.521586 0.695019 0.251549 255 125 0
-0.515359 0.724366 0.197549 255 125 0
-0.588532 0.664266 0.197898 255 125 0
-0.512273 0.686359 0.243549 255 125 0
-0.524675 0.638425 0.291549 255 125 0
-0.556476 0.622693 0.192663 255 125 0
-0.581901 0.660812 0.325549 255 125 0
-0.485649 0.673068 0.195549 255 125 0
-0.528518 0.692403 0.211549 255 125 0
-0.590148 0.627805 0.202217 255 125 0
-0.514349 0.699615 0.293549 255 125 0
-0.529468 0.711274 0.259549 255 125 0
-0.587587 0.664065 0.303549 255 125 0
-0.565860 0.722832 0.198322 255 125 0
-0.595744 0.716916 0.196614 255 125 0
-0.550517 0.708442 0.319550 255 125 0
-0.516023 0.691792 0.283549 255 125 0
-0.590782 0.672923 0.256448 255 125 0
-0.590490 0.656504 0.271549 255 125 0
-0.551464 0.723226 0.243549 255 125 0
-0.588543 0.673838 0.237549 255 125 0
-0.525823 0.689945 0.327549 255 125 0
-0.515925 0.646788 0.287549 255 125 0
-0.512486 0.654236 0.267549 255 125 0
-0.519705 0.641775 0.283549 255 125 0
-0.570183 0.650142 0.235549 255 125 0
-0.586088 0.661702 0.309549 255 125 0
-0.588996 0.690945 0.198158 255 125 0
-0.572024 0.713074 0.195549 255 125 0
-0.574961 0.651158 0.225263 255 125 0
-0.563176 0.620027 0.196584 255 125 0
-0.524531 0.701779 0.307549 255 125 0
-0.531832 0.701286 0.315549 255 125 0
-0.584438 0.667485 0.229549 255 125 0
-0.517534 0.645086 0.293549 255 125 0
-0.514686 0.684627 0.231550 255 125 0
-0.592540 0.722369 0.196572 255 125 0
-0.544736 0.644733 0.211549 255 125 0
-0.520068 0.697781 0.277549 255 125 0
-0.537669 0.653455 0.216474 255 125 0
-0.535195 0.713190 0.307549 255 125 0
-0.592568 0.654900 0.192622 255 125 0
-0.530718 0.637664 0.321549 255 125 0
-0.555786 0.712512 0.329917 255 125 0
-0.538083 0.635140 0.197549 255 125 0
-0.543557 0.750806 0.264250 255 125 0
-0.588778 0.643871 0.192586 255 125 0
-0.541373 0.741844 0.305549 255 125 0
-0.519113 0.696538 0.265549 255 125 0
-0.262522 0.928254 0.196782 255 255 0
-0.167402 0.865926 0.203549 255 255 0
-0.174414 0.948374 0.196764 255 255 0
-0.292918 0.852588 0.203549 255 255 0
-0.231420 0.872570 0.207878 255 255 0
-0.213615 0.917858 0.198838 255 255 0
-0.303048 0.901127 0.199549 255 255 0
-0.168777 0.907553 0.203549 255 255 0
-0.267758 0.884383 0.200615 255 255 0
-0.299075 0.939054 0.195549 255 255 0
-0.197917 0.885896 0.206278 255 255 0
-0.232330 0.945244 0.195549 255 255 0
-0.242288 0.903506 0.199549 255 255 0
-0.257454 0.855903 0.207549 255 255 0
-0.203465 0.946371 0.198456 255 255 0
-0.207276 0.861103 0.203549 255 255 0
-0.187644 0.924606 0.196563 255 255 0
-0.278834 0.909229 0.202154 255 255 0
-0.293728 0.877636 0.206216 255 255 0
-0.220561 0.894798 0.204919 255 255 0
-0.175358 0.886215 0.197549 255 255 0
-0.240587 0.925636 0.201072 255 255 0
-0.276043 0.864645 0.199549 255 255 0
-0.187550 0.867335 0.208890 255 255 0
-0.195715 0.905875 0.200754 255 255 0
-0.247779 0.882181 0.200550 255 255 0
-0.294978 0.919855 0.197549 255 255 0
-0.280099 0.938124 0.197549 255 255 0
-0.251171 0.943178 0.195549 255 255 0
-0.260396 0.909399 0.198606 255 255 0
-0.284533 0.892038 0.200621 255 255 0
-0.214106 0.877069 0.208405 255 255 0
-0.171484 0.931394 0.201549 255 255 0
-0.218113 0.935172 0.199483 255 255 0
-0.243696 0.862911 0.198640 255 255 0
-0.228972 0.912944 0.203070 255 255 0
-0.259167 0.872334 0.207549 255 255 0
-0.202879 0.929889 0.200167 255 255 0
-0.188230 0.941088 0.200018 255 255 0
-0.183158 0.897613 0.205549 255 255 0
-0.255066 0.895998 0.204280 255 255 0
-0.234378 0.887512 0.205850 255 255 0
-0.221839 0.864400 0.199549 255 255 0
-0.277880 0.923339 0.196850 255 255 0
-0.174782 0.917783 0.194881 255 255 0
-0.277602 0.876549 0.207549 255 255 0
-0.200621 0.873177 0.199549 255 255 0
-0.265697 0.942177 0.195549 255 255 0
-0.209623 0.902697 0.199549 255 255 0
-0.168573 0.879658 0.208227 255 255 0
-0.278135 0.854801 0.209549 255 255 0
-0.184417 0.882072 0.207549 255 255 0
-0.268760 0.898909 0.204150 255 255 0
-0.179281 0.935096 0.190573 255 255 0
-0.233926 0.858790 0.207549 255 255 0
-0.301846 0.887540 0.200621 255 255 0
-0.184089 0.912476 0.203549 255 255 0
-0.226477 0.924681 0.196697 255 255 0
-0.288398 0.864234 0.208457 255 255 0
-0.252032 0.919890 0.196607 255 255 0
-0.178477 0.871540 0.198568 255 255 0
-0.245946 0.871568 0.208257 255 255 0
-0.167756 0.893122 0.205549 255 255 0
-0.290279 0.903483 0.198552 255 255 0
-0.209439 0.889409 0.201549 255 255 0
-0.197133 0.918444 0.202430 255 255 0
-0.230928 0.899046 0.199549 255 255 0
-0.174612 0.899344 0.196668 255 255 0
-0.223056 0.883060 0.202682 255 255 0
-0.240464 0.935833 0.194590 255 255 0
-0.251493 0.932043 0.200227 255 255 0
-0.261920 0.863749 0.199549 255 255 0
-0.288786 0.929747 0.194698 255 255 0
-0.303514 0.927793 0.195549 255 255 0
-0.217793 0.946301 0.195549 255 255 0
-0.268930 0.917347 0.201601 255 255 0
-0.245856 0.859281 0.209549 255 255 0
-0.257560 0.884261 0.206243 255 255 0
-0.303699 0.912470 0.197549 255 255 0
-0.221374 0.905194 0.199549 255 255 0
-0.269544 0.866361 0.208574 255 255 0
-0.240914 0.914479 0.197549 255 255 0
-0.216601 0.865331 0.209445 255 255 0
-0.201707 0.896925 0.204668 255 255 0
-0.198299 0.864863 0.209549 255 255 0
-0.267793 0.855361 0.203549 255 255 0
-0.243435 0.893526 0.205549 255 255 0
-0.298005 0.862187 0.203549 255 255 0
-0.228311 0.935294 0.194604 255 255 0
-0.233083 0.864745 0.198605 255 255 0
-0.249783 0.911233 0.202677 255 255 0
-0.189090 0.869707 0.198574 255 255 0
-0.285317 0.859490 0.198558 255 255 0
-0.211441 0.870368 0.200574 255 255 0
-0.285071 0.879885 0.200562 255 255 0
-0.176937 0.869168 0.208731 255 255 0
-0.192341 0.892889 0.200708 255 255 0
-0.197303 0.936882 0.194612 255 255 0
-0.285828 0.914805 0.196554 255 255 0
-0.204665 0.911866 0.198601 255 255 0
-0.271888 0.932289 0.194699 255 255 0
-0.190896 0.947788 0.192557 255 255 0
-0.294314 0.894117 0.203359 255 255 0
-0.238413 0.878146 0.202671 255 255 0
-0.208526 0.937223 0.195549 255 255 0
-0.276466 0.888279 0.205549 255 255 0
-0.193712 0.876823 0.207814 255 255 0
-0.302935 0.877548 0.201549 255 255 0
-0.181653 0.933556 0.201383 255 255 0
-0.212518 0.927848 0.195549 255 255 0
-0.267881 0.874186 0.202598 255 255 0
-0.277001 0.898616 0.198558 255 255 0
-0.204325 0.874990 0.208505 255 255 0
-0.176691 0.889563 0.206905 255 255 0
-0.179819 0.922943 0.202022 255 255 0
-0.253291 0.865871 0.203549 255 255 0
-0.177834 0.908208 0.195549 255 255 0
-0.192266 0.931722 0.200790 255 255 0
-0.170038 0.920863 0.202370 255 255 0
-0.170945 0.878118 0.198792 255 255 0
-0.221223 0.872447 0.204697 255 255 0
-0.176202 0.926263 0.191549 255 255 0
-0.286121 0.923046 0.200952 255 255 0
-0.213966 0.909754 0.203549 255 255 0
-0.292528 0.912140 0.202142 255 255 0
-0.283238 0.869272 0.202647 255 255 0
-0.223836 0.860151 0.207549 255 255 0
-0.258487 0.937619 0.198547 255 255 0
-0.183920 0.889055 0.201549 255 255 0
-0.251446 0.903408 0.198585 255 255 0
-0.260273 0.919597 0.200874 255 255 0
-0.271425 0.905610 0.198654 255 255 0
-0.292065 0.885461 0.200643 255 255 0
-0.262182 0.891377 0.200659 255 255 0
-0.218236 0.924974 0.201657 255 255 0
-0.238952 0.865992 0.208536 255 255 0
-0.196206 0.865085 0.200888 255 255 0
-0.278201 0.864112 0.208029 255 255 0
-0.204542 0.922064 0.196616 255 255 0
-0.211964 0.896767 0.205549 255 255 0
-0.174121 0.940133 0.199658 255 255 0
-0.227677 0.890177 0.200596 255 255 0
-0.233594 0.920060 0.198743 255 255 0
-0.181530 0.943753 0.194744 255 255 0
-0.177693 0.904088 0.203648 255 255 0
-0.205034 0.881274 0.202614 255 255 0
-0.224228 0.916024 0.196569 255 255 0
-0.209750 0.945662 0.192562 255 255 0
-0.283966 0.900097 0.203549 255 255 0
-0.293435 0.869395 0.202571 255 255 0
-0.175614 0.913870 0.203416 255 255 0
-0.277908 0.855871 0.200918 255 255 0
-0.167548 0.885575 0.201549 255 255 0
-0.287350 0.855833 0.209549 255 255 0
-0.188599 0.910496 0.196583 255 255 0
-0.233471 0.930257 0.200360 255 255 0
-0.236089 0.908322 0.203317 255 255 0
-0.251399 0.874772 0.202599 255 255 0
-0.250510 0.888896 0.205549 255 255 0
-0.275630 0.914682 0.196687 255 255 0
-0.181988 0.864108 0.203549 255 255 0
-0.207954 0.867534 0.209549 255 255 0
-0.184950 0.903586 0.199549 255 255 0
-0.187522 0.934803 0.194579 255 255 0
-0.269223 0.925588 0.200968 255 255 0
-0.296611 0.931410 0.198308 255 255 0
-0.177230 0.877409 0.208224 255 255 0
-0.262135 0.862741 0.208829 255 255 0
-0.260103 0.901158 0.198559 255 255 0
-0.233764 0.938498 0.200057 255 255 0
-0.190576 0.901194 0.205549 255 255 0
-0.246163 0.918642 0.202341 255 255 0
-0.214815 0.883353 0.202712 255 255 0
-0.195640 0.944707 0.200148 255 255 0
-0.185015 0.874975 0.203549 255 255 0
-0.243035 0.885262 0.206436 255 255 0
-0.229757 0.880395 0.207137 255 255 0
-0.297688 0.907103 0.198631 255 255 0
-0.248412 0.927299 0.194559 255 255 0
-0.250813 0.858290 0.203291 255 255 0
-0.282501 0.930456 0.199561 255 255 0
-0.188892 0.918737 0.202682 255 255 0
-0.237043 0.894212 0.200757 255 255 0
-0.303018 0.920504 0.198485 255 255 0
-0.190508 0.882276 0.202621 255 255 0
-0.224691 0.942704 0.196501 255 255 0
-0.284224 0.885839 0.205549 255 255 0
-0.203956 0.905582 0.204083 255 255 0
-0.196909 0.924530 0.197549 255 255 0
-0.267144 0.935370 0.200071 255 255 0
-0.168280 0.871417 0.208939 255 255 0
-0.268467 0.890668 0.205056 255 255 0
-0.271304 0.858556 0.209549 255 255 0
-0.168785 0.900150 0.201549 255 255 0
-0.175069 0.897192 0.205549 255 255 0
-0.215476 0.861003 0.203276 255 255 0
-0.285903 0.875972 0.206927 255 255 0
-0.270546 0.880887 0.206657 255 255 0
-0.200998 0.890640 0.200646 255 255 0
-0.227923 0.869782 0.200556 255 255 0
-0.287354 0.936485 0.197549 255 255 0
-0.230220 0.907075 0.198686 255 255 0
-0.171947 0.892644 0.198895 255 255 0
-0.219900 0.917149 0.202663 255 255 0
-0.207330 0.918567 0.202606 255 255 0
-0.268979 0.864196 0.201549 255 255 0
-0.265140 0.906318 0.203242 255 255 0
-0.248781 0.896707 0.200712 255 255 0
-0.226383 0.867410 0.208672 255 255 0
-0.223274 0.930134 0.200914 255 255 0
-0.255802 0.906378 0.203549 255 255 0
-0.272409 0.939458 0.195549 255 255 0
-0.243252 0.932336 0.200570 255 255 0
-0.225598 0.899958 0.204343 255 255 0
-0.260764 0.878808 0.202762 255 255 0
-0.248705 0.935540 0.194564 255 255 0
-0.281083 0.917886 0.201171 255 255 0
-0.191217 0.888561 0.206497 255 255 0
-0.274581 0.871521 0.202679 255 255 0
-0.237752 0.900497 0.204266 255 255 0
-0.242449 0.868780 0.202620 255 255 0
-0.256653 0.927006 0.200695 255 255 0
-0.255822 0.930919 0.194638 255 255 0
-0.239017 0.942642 0.197549 255 255 0
-0.178354 0.881738 0.202697 255 255 0
-0.204032 0.866749 0.200700 255 255 0
-0.294853 0.901201 0.203549 255 255 0
-0.202294 0.937943 0.199549 255 255 0
-0.183023 0.917489 0.198638 255 255 0
-0.293558 0.859197 0.208164 255 255 0
-0.173412 0.933849 0.195218 255 255 0
-0.215524 0.889638 0.205730 255 255 0
-0.171736 0.870107 0.199549 255 255 0
-0.171789 0.911012 0.197549 255 255 0
-0.248525 0.878673 0.207549 255 255 0
-0.172034 0.925377 0.197549 255 255 0
-0.296393 0.884336 0.205875 255 255 0
-0.253989 0.862585 0.209549 255 255 0
-0.238706 0.886387 0.200630 255 255 0
-0.166025 0.875027 0.203549 255 255 0
-0.180319 0.930210 0.195549 255 255 0
-0.197208 0.879611 0.202643 255 255 0
-0.275460 0.896244 0.204778 255 255 0
-0.190205 0.908793 0.203549 255 255 0
-0.284278 0.854758 0.203549 255 255 0
-0.242626 0.858329 0.203549 255 255 0
-0.240171 0.927592 0.194584 255 255 0
-0.216941 0.902208 0.203717 255 255 0
-0.290998 0.861621 0.201549 255 255 0
-0.179772 0.894307 0.200604 255 255 0
-0.285535 0.906564 0.202395 255 255 0
-0.256150 0.914631 0.197549 255 255 0
-0.209145 0.876014 0.203549 255 255 0
-0.276415 0.882134 0.202821 255 255 0
-0.189185 0.863593 0.203549 255 255 0
-0.267805 0.913019 0.196600 255 255 0
-0.221931 0.878732 0.207644 255 255 0
-0.263231 0.934538 0.194668 255 255 0
-0.194052 0.913700 0.198649 255 255 0
-0.219852 0.888514 0.200623 255 255 0
-0.220901 0.931675 0.194578 255 255 0
-0.266142 0.920844 0.196720 255 255 0
-0.254773 0.887757 0.200629 255 255 0
-0.246116 0.890007 0.200659 255 255 0
-0.198710 0.911025 0.203549 255 255 0
-0.215326 0.938668 0.194677 255 255 0
-0.298643 0.892993 0.198570 255 255 0
-0.176077 0.940549 0.193030 255 255 0
-0.229103 0.894569 0.205549 255 255 0
-0.208011 0.924984 0.201549 255 255 0
-0.208530 0.884062 0.207366 255 255 0
-0.275800 0.933121 0.199831 255 255 0
-0.194338 0.873877 0.201549 255 255 0
-0.263792 0.869228 0.203549 255 255 0
-0.247118 0.904532 0.203761 255 255 0
-0.190678 0.900714 0.198573 255 255 0
-0.297225 0.880423 0.200600 255 255 0
-0.227309 0.920769 0.201773 255 255 0
-0.256682 0.859538 0.200897 255 255 0
-0.212660 0.931968 0.200742 255 255 0
-0.297858 0.925541 0.200659 255 255 0
-0.298085 0.857141 0.199549 255 255 0
-0.196915 0.871370 0.208991 255 255 0
-0.227214 0.863498 0.202928 255 255 0
-0.191557 0.925437 0.201831 255 255 0
-0.204911 0.891472 0.205686 255 255 0
-0.214692 0.893551 0.200732 255 255 0
-0.276088 0.902511 0.203549 255 255 0
-0.219068 0.921062 0.196666 255 255 0
-0.223765 0.889345 0.205868 255 255 0
-0.252255 0.870741 0.207549 255 255 0
-0.297981 0.915344 0.201283 255 255 0
-0.286121 0.923046 0.194570 255 255 0
-0.196254 0.893721 0.205674 255 255 0
-0.291574 0.926250 0.199838 255 255 0
-0.192143 0.941920 0.194718 255 255 0
-0.194931 0.938423 0.200931 255 255 0
-0.201121 0.880443 0.207729 255 255 0
-0.239661 0.872277 0.207490 255 255 0
-0.243791 0.920183 0.196636 255 255 0
-0.226676 0.875651 0.202688 255 255 0
-0.263477 0.914144 0.202323 255 255 0
-0.226307 0.906243 0.203757 255 255 0
-0.213397 0.870784 0.207980 255 255 0
-0.272134 0.911894 0.201972 255 255 0
-0.207992 0.896216 0.200645 255 255 0
-0.171238 0.886359 0.207217 255 255 0
-0.246872 0.924927 0.200798 255 255 0
-0.245114 0.875481 0.202762 255 255 0
-0.243498 0.911942 0.202840 255 255 0
-0.190848 0.919153 0.196570 255 255 0
-0.182390 0.872372 0.208729 255 255 0
-0.218019 0.877900 0.202720 255 255 0
-0.272427 0.920135 0.196621 255 255 0
-0.216819 0.912405 0.198590 255 255 0
-0.272795 0.889543 0.200581 255 255 0
-0.279060 0.870428 0.207549 255 255 0
-0.184857 0.928103 0.200947 255 255 0
-0.289570 0.897198 0.200745 255 255 0
-0.188939 0.947373 0.198456 255 255 0
-0.263307 0.895705 0.204983 255 255 0
-0.188647 0.894149 0.205549 255 255 0
-0.236797 0.914607 0.202206 255 255 0
-0.242496 0.897416 0.200714 255 255 0
-0.177147 0.928509 0.201549 255 255 0
-0.289107 0.870519 0.206824 255 255 0
-0.180274 0.940042 0.199549 255 255 0
-0.222150 0.911494 0.203549 255 255 0
-0.299079 0.874683 0.205549 255 255 0
-0.294842 0.865604 0.207549 255 255 0
-0.272190 0.926219 0.195549 255 255 0
-0.236380 0.868475 0.203549 255 255 0
-0.264386 0.885711 0.205549 255 255 0
-0.254895 0.877560 0.206780 255 255 0
-0.175396 0.866796 0.203160 255 255 0
-0.251937 0.862619 0.198559 255 255 0
-0.208578 0.912698 0.203734 255 255 0
-0.282763 0.861887 0.203549 255 255 0
-0.200535 0.917122 0.197549 255 255 0
-0.287368 0.917177 0.202012 255 255 0
-0.245237 0.865284 0.208755 255 255 0
-0.289556 0.882883 0.205549 255 255 0
-0.302064 0.934614 0.198438 255 255 0
-0.280986 0.903553 0.199549 255 255 0
-0.217726 0.869659 0.200603 255 255 0
-0.244414 0.940762 0.195549 255 255 0
-0.196594 0.930598 0.196715 255 255 0
-0.237827 0.861664 0.200732 255 255 0
-0.223982 0.936419 0.200132 255 255 0
-0.216866 0.941040 0.200072 255 255 0
-0.197378 0.898049 0.200638 255 255 0
-0.261827 0.854569 0.203549 255 255 0
-0.202170 0.923604 0.201985 255 255 0
-0.263382 0.856872 0.209234 255 255 0
-0.172675 0.905067 0.197549 255 255 0
-0.235625 0.881643 0.206831 255 255 0
-0.232667 0.866701 0.207983 255 255 0
-0.198012 0.943167 0.194619 255 255 0
-0.193589 0.887020 0.200617 255 255 0
-0.246286 0.908445 0.198685 255 255 0
-0.278248 0.892747 0.200792 255 255 0
-0.278173 0.931580 0.194551 255 255 0
-0.240261 0.919432 0.201549 255 255 0
-0.297395 0.898862 0.198684 255 255 0
-0.211148 0.862127 0.207951 255 255 0
-0.289277 0.888957 0.205183 255 255 0
-0.198503 0.902378 0.204668 255 255 0
-0.254404 0.918349 0.201828 255 255 0
-0.182730 0.909249 0.198763 255 255 0
-0.276878 0.908813 0.196574 255 255 0
-0.279496 0.886878 0.200659 255 255 0
-0.178714 0.922708 0.195549 255 255 0
-0.294484 0.912556 0.196579 255 255 0
-0.203852 0.901470 0.199549 255 255 0
-0.283887 0.912348 0.201549 255 255 0
-0.210403 0.942590 0.197549 255 255 0
-0.228925 0.884308 0.202850 255 255 0
-0.232346 0.925929 0.196601 255 255 0
-0.295486 0.927082 0.194551 255 255 0
-0.188259 0.873619 0.208211 255 255 0
-0.224474 0.895630 0.200589 255 255 0
-0.185641 0.895554 0.200684 255 255 0
-0.314784 0.692003 0.207549 0 0 255
-0.458217 0.714265 0.203549 0 0 255
-0.386467 0.701058 0.194621 0 0 255
-0.277564 0.742056 0.223549 0 0 255
-0.349364 0.740943 0.223549 0 0 255
-0.266739 0.702190 0.193549 0 0 255
-0.359202 0.685040 0.234351 0 0 255
-0.272757 0.697335 0.240802 0 0 255
-0.315256 0.718637 0.240466 0 0 255
-0.425120 0.692363 0.199549 0 0 255
-0.349413 0.697272 0.193549 0 0 255
-0.290528 0.674532 0.223549 0 0 255
-0.290070 0.712075 0.215549 0 0 255
-0.341233 0.709846 0.223549 0 0 255
-0.314392 0.741941 0.219549 0 0 255
-0.332485 0.673227 0.225549 0 0 255
-0.417038 0.720765 0.201549 0 0 255
-0.360911 0.720162 0.239549 0 0 255
-0.366180 0.704925 0.213549 0 0 255
-0.293356 0.696619 0.191549 0 0 255
-0.328138 0.696510 0.241549 0 0 255
-0.297653 0.700583 0.237549 0 0 255
-0.318044 0.715140 0.216604 0 0 255
-0.276122 0.691122 0.213549 0 0 255
-0.289286 0.725385 0.235892 0 0 255
-0.275393 0.723411 0.199549 0 0 255
-0.449472 0.693229 0.199549 0 0 255
-0.346148 0.688738 0.215549 0 0 255
-0.335051 0.728978 0.235549 0 0 255
-0.271624 0.715497 0.227549 0 0 255
-0.353258 0.722625 0.210573 0 0 255
-0.405321 0.698932 0.205092 0 0 255
-0.435791 0.709498 0.207019 0 0 255
-0.313079 0.685459 0.231550 0 0 255
-0.328071 0.696825 0.192622 0 0 255
-0.348153 0.701093 0.241549 0 0 255
-0.296886 0.733134 0.215549 0 0 255
-0.296237 0.692103 0.213549 0 0 255
-0.332740 0.732577 0.216715 0 0 255
-0.325699 0.698365 0.221887 0 0 255
-0.265469 0.708054 0.211549 0 0 255
-0.367807 0.699137 0.195549 0 0 255
-0.389219 0.716971 0.203549 0 0 255
-0.363493 0.703329 0.231550 0 0 255
-0.305622 0.730902 0.231550 0 0 255
-0.284525 0.690066 0.229549 0 0 255
-0.302861 0.713958 0.227549 0 0 255
-0.341204 0.687348 0.233549 0 0 255
-0.336423 0.700645 0.207549 0 0 255
-0.334942 0.712598 0.240249 0 0 255
-0.349048 0.672658 0.223549 0 0 255
-0.280629 0.727634 0.214775 0 0 255
-0.282143 0.710890 0.239549 0 0 255
-0.350261 0.724033 0.227549 0 0 255
-0.305816 0.705334 0.211549 0 0 255
-0.309633 0.696995 0.192595 0 0 255
-0.278332 0.690342 0.197436 0 0 255
-0.319275 0.680493 0.217549 0 0 255
-0.321646 0.727053 0.227549 0 0 255
-0.420140 0.706171 0.206305 0 0 255
-0.358317 0.689205 0.203549 0 0 255
-0.350927 0.704733 0.211549 0 0 255
-0.311548 0.701491 0.229549 0 0 255
-0.443723 0.720275 0.199549 0 0 255
-0.272236 0.699786 0.225549 0 0 255
-0.307942 0.724190 0.209549 0 0 255
-0.286243 0.701221 0.205549 0 0 255
-0.412731 0.702551 0.192550 0 0 255
-0.376783 0.708142 0.203549 0 0 255
-0.404367 0.713042 0.200744 0 0 255
-0.306091 0.675183 0.223549 0 0 255
-0.299143 0.688631 0.227977 0 0 255
-0.331673 0.687367 0.213549 0 0 255
-0.324054 0.712328 0.229549 0 0 255
-0.276652 0.677716 0.221549 0 0 255
-0.286499 0.704346 0.227549 0 0 255
-0.339354 0.689000 0.199549 0 0 255
-0.276301 0.728759 0.231062 0 0 255
-0.350213 0.699486 0.227549 0 0 255
-0.301332 0.687950 0.199549 0 0 255
-0.359207 0.733113 0.217549 0 0 255
-0.449192 0.704167 0.208088 0 0 255
-0.391939 0.704176 0.207549 0 0 255
-0.327720 0.686527 0.231550 0 0 255
-0.339281 0.721045 0.213549 0 0 255
-0.437870 0.699716 0.196710 0 0 255
-0.265040 0.714398 0.199549 0 0 255
-0.348926 0.714146 0.237549 0 0 255
-0.266302 0.695963 0.205549 0 0 255
-0.277255 0.714649 0.212837 0 0 255
-0.429799 0.718448 0.198555 0 0 255
-0.308366 0.693334 0.219549 0 0 255
-0.302277 0.712362 0.241549 0 0 255
-0.357293 0.713259 0.224566 0 0 255
-0.399579 0.701801 0.193549 0 0 255
-0.320539 0.703402 0.210599 0 0 255
-0.290680 0.742039 0.223549 0 0 255
-0.337355 0.701249 0.233549 0 0 255
-0.298507 0.701242 0.223549 0 0 255
-0.291859 0.722900 0.223549 0 0 255
-0.379438 0.695652 0.203549 0 0 255
-0.332863 0.722379 0.224294 0 0 255
-0.330430 0.711639 0.217549 0 0 255
-0.345079 0.732246 0.215549 0 0 255
-0.298604 0.700785 0.202554 0 0 255
-0.291901 0.722703 0.209549 0 0 255
-0.315909 0.696284 0.241549 0 0 255
-0.325647 0.688993 0.201549 0 0 255
-0.394128 0.693877 0.201549 0 0 255
-0.325208 0.739154 0.224244 0 0 255
-0.272927 0.715774 0.190564 0 0 255
-0.337369 0.696756 0.219549 0 0 255
-0.358398 0.731896 0.231550 0 0 255
-0.359589 0.702460 0.203549 0 0 255
-0.312878 0.728355 0.219549 0 0 255
-0.273972 0.705772 0.203549 0 0 255
-0.288946 0.688508 0.202466 0 0 255
-0.292613 0.713824 0.233549 0 0 255
-0.424679 0.704057 0.195549 0 0 255
-0.270454 0.711159 0.241549 0 0 255
-0.412955 0.691878 0.197549 0 0 255
-0.286363 0.698183 0.217549 0 0 255
-0.287014 0.686053 0.217549 0 0 255
-0.301146 0.717683 0.216504 0 0 255
-0.319218 0.699997 0.199549 0 0 255
-0.359911 0.691324 0.224612 0 0 255
-0.313588 0.718282 0.227549 0 0 255
-0.303659 0.740708 0.223549 0 0 255
-0.339923 0.679544 0.219549 0 0 255
-0.459585 0.698198 0.201549 0 0 255
-0.285576 0.698015 0.237549 0 0 255
-0.432001 0.698469 0.206297 0 0 255
-0.346850 0.733531 0.232531 0 0 255
-0.358831 0.696402 0.213549 0 0 255
-0.302347 0.683178 0.216861 0 0 255
-0.293288 0.735413 0.233549 0 0 255
-0.314008 0.705273 0.219549 0 0 255
-0.355460 0.683407 0.217549 0 0 255
-0.348220 0.717465 0.218747 0 0 255
-0.280336 0.719393 0.222434 0 0 255
-0.335774 0.741400 0.223549 0 0 255
-0.321102 0.734192 0.215549 0 0 255
-0.319122 0.690833 0.192695 0 0 255
-0.282759 0.698375 0.191549 0 0 255
-0.315134 0.728834 0.236063 0 0 255
-0.368861 0.697316 0.206010 0 0 255
-0.274112 0.689445 0.227549 0 0 255
-0.358364 0.698599 0.239549 0 0 255
-0.448166 0.703949 0.197549 0 0 255
-0.293970 0.683442 0.235549 0 0 255
-0.283710 0.732378 0.223661 0 0 255
-0.347543 0.691793 0.205549 0 0 255
-0.358366 0.703264 0.221549 0 0 255
-0.319236 0.690294 0.223549 0 0 255
-0.360870 0.720154 0.217549 0 0 255
-0.350274 0.688566 0.227549 0 0 255
-0.274958 0.706218 0.233549 0 0 255
-0.326258 0.734216 0.233549 0 0 255
-0.278291 0.704646 0.215549 0 0 255
-0.268183 0.718854 0.208421 0 0 255
-0.318144 0.724289 0.211549 0 0 255
-0.329114 0.720778 0.237549 0 0 255
-0.269494 0.698686 0.215549 0 0 255
-0.341185 0.707791 0.213549 0 0 255
-0.338269 0.696948 0.192628 0 0 255
-0.309016 0.699899 0.203549 0 0 255
-0.356173 0.689671 0.193549 0 0 255
-0.442614 0.696635 0.206312 0 0 255
-0.323014 0.710998 0.239549 0 0 255
-0.322853 0.692515 0.213549 0 0 255
-0.304007 0.683531 0.235549 0 0 255
-0.322479 0.673145 0.225549 0 0 255
-0.294044 0.703000 0.211549 0 0 255
-0.325283 0.700321 0.231649 0 0 255
-0.341813 0.728371 0.224625 0 0 255
-0.268102 0.690374 0.197549 0 0 255
-0.354628 0.706559 0.234562 0 0 255
-0.447112 0.713949 0.206371 0 0 255
-0.364132 0.714713 0.231550 0 0 255
-0.361285 0.723336 0.227549 0 0 255
-0.363375 0.713503 0.209549 0 0 255
-0.312930 0.710344 0.233549 0 0 255
-0.298492 0.720552 0.237549 0 0 255
-0.283090 0.735296 0.233549 0 0 255
-0.453489 0.722428 0.201549 0 0 255
-0.333580 0.714353 0.229549 0 0 255
-0.283540 0.713940 0.230397 0 0 255
-0.344294 0.724809 0.235549 0 0 255
-0.329589 0.680066 0.219549 0 0 255
-0.278283 0.709813 0.223549 0 0 255
-0.345384 0.706639 0.231550 0 0 255
-0.294569 0.710150 0.224916 0 0 255
-0.344138 0.698195 0.212403 0 0 255
-0.297111 0.727048 0.230523 0 0 255
-0.307251 0.717821 0.235549 0 0 255
-0.311464 0.688384 0.199549 0 0 255
-0.415935 0.697098 0.204741 0 0 255
-0.309062 0.713231 0.219549 0 0 255
-0.305579 0.722714 0.225549 0 0 255
-0.315879 0.734945 0.225549 0 0 255
-0.304634 0.691657 0.209549 0 0 255
-0.306825 0.696398 0.239549 0 0 255
-0.411697 0.707417 0.201549 0 0 255
-0.329427 0.700068 0.201549 0 0 255
-0.404197 0.694604 0.196992 0 0 255
-0.274292 0.714019 0.199549 0 0 255
-0.375656 0.703827 0.195549 0 0 255
-0.283928 0.683258 0.235549 0 0 255
-0.349810 0.700366 0.203549 0 0 255
-0.284379 0.724342 0.199549 0 0 255
-0.427134 0.711747 0.205067 0 0 255
-0.351913 0.695758 0.219549 0 0 255
-0.351569 0.730569 0.221549 0 0 255
-0.342085 0.691625 0.225549 0 0 255
-0.358473 0.698091 0.195549 0 0 255
-0.397373 0.707466 0.200575 0 0 255
-0.350100 0.708621 0.219549 0 0 255
-0.302564 0.730252 0.221825 0 0 255
-0.333399 0.702046 0.225549 0 0 255
-0.291815 0.691163 0.223549 0 0 255
-0.331275 0.691372 0.225010 0 0 255
-0.326369 0.727133 0.219549 0 0 255
-0.386165 0.707128 0.201549 0 0 255
-0.329612 0.699197 0.212959 0 0 255
-0.312128 0.685257 0.215705 0 0 255
-0.339516 0.691079 0.210331 0 0 255
-0.357929 0.710266 0.215549 0 0 255
-0.337853 0.698904 0.241931 0 0 255
-0.267581 0.721683 0.195549 0 0 255
-0.321238 0.719352 0.223549 0 0 255
-0.354798 0.724997 0.235732 0 0 255
-0.435407 0.692064 0.201549 0 0 255
-0.313284 0.699057 0.213549 0 0 255
-0.331691 0.689415 0.195170 0 0 255
-0.299824 0.709223 0.217549 0 0 255
-0.366782 0.707097 0.204590 0 0 255
-0.270677 0.707117 0.218737 0 0 255
-0.341765 0.699735 0.200546 0 0 255
-0.273699 0.697536 0.195549 0 0 255
-0.273562 0.707730 0.193549 0 0 255
-0.294941 0.681604 0.221549 0 0 255
-0.301632 0.696159 0.195549 0 0 255
-0.322699 0.707951 0.217549 0 0 255
-0.288914 0.729395 0.217549 0 0 255
-0.281358 0.690985 0.205549 0 0 255
-0.339344 0.720745 0.229549 0 0 255
-0.300976 0.699244 0.214980 0 0 255
-0.313315 0.679672 0.223549 0 0 255
-0.296109 0.735014 0.225549 0 0 255
-0.457941 0.706027 0.205549 0 0 255
-0.284249 0.720225 0.212204 0 0 255
-0.330513 0.730059 0.227549 0 0 255
-0.280534 0.699221 0.223549 0 0 255
-0.348078 0.689276 0.197549 0 0 255
-0.310639 0.711499 0.241549 0 0 255
-0.303657 0.705870 0.229549 0 0 255
-0.275839 0.730705 0.221549 0 0 255
-0.357367 0.712913 0.241549 0 0 255
-0.291750 0.704174 0.219549 0 0 255
-0.289532 0.704990 0.235423 0 0 255
-0.279227 0.719157 0.205549 0 0 255
-0.265870 0.704050 0.203549 0 0 255
-0.343605 0.702171 0.221549 0 0 255
-0.373709 0.703364 0.209549 0 0 255
-0.346823 0.714422 0.227549 0 0 255
-0.347671 0.681570 0.221549 0 0 255
-0.387206 0.697583 0.205549 0 0 255
-0.364030 0.691185 0.195549 0 0 255
-0.422389 0.714828 0.198581 0 0 255
-0.432710 0.704753 0.200687 0 0 255
-0.323510 0.726525 0.235549 0 0 255
-0.279482 0.698765 0.209549 0 0 255
-0.430460 0.696097 0.194561 0 0 255
-0.288747 0.737538 0.216560 0 0 255
-0.300268 0.692959 0.220718 0 0 255
-0.306477 0.731084 0.214681 0 0 255
-0.355983 0.715026 0.233549 0 0 255
-0.341150 0.673024 0.225549 0 0 255
-0.280378 0.699959 0.199549 0 0 255
-0.284257 0.726361 0.229549 0 0 255
-0.327410 0.719176 0.216817 0 0 255
-0.442491 0.706833 0.202619 0 0 255
-0.317587 0.698052 0.221549 0 0 255
-0.322300 0.704740 0.225549 0 0 255
-0.351517 0.682719 0.233549 0 0 255
-0.298402 0.725278 0.213549 0 0 255
-0.403658 0.706757 0.205969 0 0 255
-0.272464 0.689094 0.204189 0 0 255
-0.286158 0.692005 0.195044 0 0 255
-0.423760 0.698762 0.205284 0 0 255
-0.296462 0.691623 0.205549 0 0 255
-0.418477 0.713996 0.205803 0 0 255
-0.316920 0.710812 0.224545 0 0 255
-0.452811 0.696758 0.205890 0 0 255
-0.342805 0.738805 0.219549 0 0 255
-0.273016 0.715352 0.219549 0 0 255
-0.298445 0.674170 0.225549 0 0 255
-0.288393 0.691106 0.211549 0 0 255
-0.344732 0.698321 0.233549 0 0 255
-0.287664 0.713779 0.223549 0 0 255
-0.353821 0.690030 0.213549 0 0 255
-0.290779 0.699121 0.198573 0 0 255
-0.280582 0.698999 0.231523 0 0 255
-0.364552 0.712758 0.221549 0 0 255
-0.279473 0.684975 0.219549 0 0 255
-0.406658 0.702261 0.197549 0 0 255
-0.305704 0.705858 0.221549 0 0 255
-0.341303 0.721150 0.221549 0 0 255
-0.333649 0.704144 0.217549 0 0 255
-0.438456 0.716198 0.203723 0 0 255
-0.309558 0.735828 0.220535 0 0 255
-0.419847 0.697930 0.194779 0 0 255
-0.270364 0.698871 0.233549 0 0 255
-0.341881 0.714073 0.233549 0 0 255
-0.333385 0.691066 0.205549 0 0 255
-0.451857 0.710868 0.200693 0 0 255
-0.284740 0.679436 0.222073 0 0 255
-0.381723 0.704139 0.207904 0 0 255
-0.310718 0.720747 0.219549 0 0 255
-0.277917 0.692298 0.221061 0 0 255
-0.285203 0.706115 0.212667 0 0 255
-0.297134 0.741366 0.219549 0 0 255
-0.292587 0.700235 0.229549 0 0 255
-0.374811 0.696536 0.197549 0 0 255
-0.317839 0.716105 0.233549 0 0 255
-0.333469 0.683659 0.235549 0 0 255
-0.313423 0.708024 0.212568 0 0 255
-0.356411 0.698170 0.231550 0 0 255
-0.325489 0.686052 0.217549 0 0 255
-0.275806 0.721468 0.229549 0 0 255
-0.282902 0.711760 0.217549 0 0 255
-0.328065 0.716096 0.223549 0 0 255
-0.338392 0.686750 0.216638 0 0 255
-0.414355 0.714149 0.199549 0 0 255
-0.353966 0.728910 0.214561 0 0 255
-0.417642 0.703595 0.199549 0 0 255
-0.397080 0.699225 0.205843 0 0 255
-0.337518 0.715190 0.219549 0 0 255
-0.307724 0.725215 0.235667 0 0 255
-0.355057 0.694382 0.207549 0 0 255
-0.325038 0.720716 0.229612 0 0 255
-0.295278 0.716435 0.220566 0 0 255
-0.346106 0.723150 0.211549 0 0 255
-0.293271 0.697016 0.219549 0 0 255
-0.327949 0.707022 0.212568 0 0 255
-0.352764 0.715330 0.213549 0 0 255
-0.393168 0.698393 0.194823 0 0 255
-0.272629 0.711621 0.207549 0 0 255
-0.443030 0.694679 0.196645 0 0 255
-0.300022 0.713354 0.234790 0 0 255
-0.294597 0.690781 0.195549 0 0 255
-0.323058 0.701174 0.239549 0 0 255
-0.351290 0.736519 0.217549 0 0 255
-0.353214 0.706258 0.227549 0 0 255
-0.319687 0.688171 0.231550 0 0 255
-0.301314 0.699316 0.231550 0 0 255
-0.275764 0.722511 0.215549 0 0 255
-0.280506 0.737831 0.218661 0 0 255
-0.333971 0.710347 0.223549 0 0 255
-0.281045 0.725678 0.235822 0 0 255
-0.311637 0.726046 0.227064 0 0 255
-0.293321 0.716019 0.240227 0 0 255
-0.290411 0.729713 0.228728 0 0 255
-0.339547 0.734023 0.233549 0 0 255
-0.342352 0.716217 0.240241 0 0 255
-0.372235 0.710301 0.208471 0 0 255
-0.318261 0.700873 0.231550 0 0 255
-0.277671 0.712693 0.234052 0 0 255
-0.293690 0.685427 0.215469 0 0 255
-0.330925 0.724012 0.231550 0 0 255
-0.439283 0.702687 0.207549 0 0 255
-0.291195 0.697165 0.241663 0 0 255
-0.359372 0.703478 0.214561 0 0 255
-0.356754 0.725413 0.222659 0 0 255
-0.385178 0.694650 0.199549 0 0 255
-0.395939 0.714216 0.201549 0 0 255
-0.337152 0.706934 0.229549 0 0 255
-0.346296 0.726517 0.219549 0 0 255
-0.308822 0.710432 0.227549 0 0 255
-0.279750 0.702911 0.237276 0 0 255
-0.328657 0.713307 0.236305 0 0 255
-0.328903 0.692912 0.218716 0 0 255
-0.312837 0.691542 0.225802 0 0 255
-0.329121 0.739986 0.218628 0 0 255
-0.331017 0.699495 0.235549 0 0 255
-0.318013 0.734528 0.233549 0 0 255
-0.363442 0.693950 0.203549 0 0 255
-0.304906 0.699997 0.225549 0 0 255
-0.302933 0.699660 0.208463 0 0 255
-0.357764 0.691803 0.233549 0 0 255
-0.339835 0.699200 0.227549 0 0 255
-0.392154 0.703163 0.199549 0 0 255
-0.306968 0.690294 0.194845 0 0 255
-0.286470 0.719392 0.219549 0 0 255
-0.353196 0.677629 0.221549 0 0 255
-0.338893 0.732491 0.219549 0 0 255
-0.361456 0.708010 0.225549 0 0 255
-0.320880 0.740279 0.218556 0 0 255
-0.300122 0.722504 0.221549 0 0 255
-0.312884 0.720177 0.213166 0 0 255
-0.349514 0.701758 0.217549 0 0 255
-0.318224 0.688597 0.199549 0 0 255
-0.304870 0.691893 0.225549 0 0 255
-0.345017 0.694058 0.219549 0 0 255
-0.334694 0.694528 0.213549 0 0 255
-0.290118 0.721472 0.229905 0 0 255
-0.342767 0.714261 0.214567 0 0 255
-0.342347 0.691680 0.193549 0 0 255
-0.271464 0.693799 0.209549 0 0 255
-0.317581 0.688461 0.212853 0 0 255
-0.307999 0.680290 0.219549 0 0 255
-0.306571 0.710657 0.235549 0 0 255
-0.284009 0.705861 0.221549 0 0 255
-0.265463 0.708053 0.197549 0 0 255
-0.315317 0.699111 0.205549 0 0 255
-0.269424 0.713014 0.213549 0 0 255
-0.351045 0.698724 0.236050 0 0 255
-0.273635 0.722058 0.192561 0 0 255
-0.315918 0.696286 0.194678 0 0 255
-0.287274 0.715612 0.237549 0 0 255
-0.331909 0.736489 0.225749 0 0 255
-0.382243 0.711314 0.205549 0 0 255
-0.305272 0.688656 0.231550 0 0 255
-0.364673 0.702560 0.219549 0 0 255
-0.310465 0.693082 0.213147 0 0 255
-0.284424 0.742754 0.221549 0 0 255
-0.327624 0.708551 0.223549 0 0 255
-0.270266 0.709052 0.227549 0 0 255
-0.311174 0.699367 0.220232 0 0 255
-0.284201 0.691589 0.223179 0 0 255
-0.334063 0.687875 0.229801 0 0 255
-0.345555 0.710764 0.242034 0 0 255
-0.326287 0.734078 0.219549 0 0 255
-0.426528 0.705484 0.207549 0 0 255
-0.324253 0.700102 0.205549 0 0 255
-0.269723 0.721227 0.202538 0 0 255
-0.323580 0.717954 0.239549 0 0 255
-0.288688 0.699340 0.223549 0 0 255
-0.320908 0.730062 0.221549 0 0 255
-0.279348 0.704802 0.227549 0 0 255
-0.297018 0.704537 0.231550 0 0 255
-0.301345 0.726368 0.235549 0 0 255
-0.273881 0.701664 0.190558 0 0 255
-0.303420 0.689540 0.215549 0 0 255
-0.363928 0.700357 0.209549 0 0 255
-0.273912 0.701518 0.219549 0 0 255
-0.380756 0.699068 0.197549 0 0 255
-0.336763 0.727298 0.229549 0 0 255
-0.300732 0.678745 0.221549 0 0 255
-0.355630 0.721085 0.229678 0 0 255
-0.284265 0.720149 0.227549 0 0 255
-0.266256 0.710266 0.205549 0 0 255
-0.327263 0.691010 0.207549 0 0 255
-0.354089 0.718712 0.238472 0 0 255
-0.354505 0.716756 0.219940 0 0 255
-0.353771 0.729830 0.227549 0 0 255
-0.355875 0.700690 0.208500 0 0 255
-0.412731 0.702551 0.205903 0 0 255
-0.334155 0.697062 0.197549 0 0 255
-0.325178 0.691196 0.195549 0 0 255
-0.316077 0.724393 0.231550 0 0 255
-0.325249 0.690866 0.227549 0 0 255
-0.350512 0.706685 0.239549 0 0 255
-0.288631 0.699609 0.211549 0 0 255
-0.453936 0.701086 0.200864 0 0 255
-0.339267 0.701873 0.215549 0 0 255
-0.392629 0.710547 0.205583 0 0 255
-0.421681 0.708543 0.200595 0 0 255
-0.275143 0.714964 0.239549 0 0 255
-0.306652 0.692272 0.203549 0 0 255
-0.292074 0.721888 0.215854 0 0 255
-0.365909 0.701582 0.201549 0 0 255
-0.296535 0.710521 0.239549 0 0 255
-0.292535 0.700481 0.205549 0 0 255
-0.289163 0.735582 0.224021 0 0 255
-0.282084 0.689095 0.211549 0 0 255
