ply
format ascii 1.0
element vertex 1216
property float x
property float y
property float z
property uchar red
property uchar green
property uchar blue
end_header
-0.358940 0.735881 -0.398818 200 185 138
-0.342786 0.754302 -0.399216 196 179 132
-0.351753 0.729888 -0.409637 254 249 185
-0.377761 0.728641 -0.410401 246 238 180
-0.381895 0.738867 -0.407913 224 209 157
-0.367316 0.745572 -0.406588 204 186 140
-0.199231 0.204900 -0.397227 251 243 178
-0.191204 0.342615 -0.399141 255 255 202
-0.245203 0.351239 -0.398587 255 255 202
0.014297 0.582489 -0.399275 255 255 185
-0.322621 0.201306 -0.398398 158 132 103
-0.355708 0.196937 -0.398888 113 88 67
-0.332913 0.187132 -0.398790 118 98 77
0.034850 0.149323 -0.399908 255 255 199
-0.612662 0.881459 -0.238577 84 78 70
-0.636288 0.889186 -0.241973 68 61 55
-0.638576 0.884402 -0.254361 66 59 52
0.087251 0.503241 -0.637834 26 24 21
0.093683 0.514100 -0.641045 27 24 23
0.096252 0.525100 -0.643456 28 24 24
-0.698433 0.913083 -0.215131 64 58 55
-0.683214 0.906640 -0.225609 67 62 59
-0.655680 0.905067 -0.223164 64 60 57
-0.723092 0.862504 -0.379731 93 83 65
-0.750230 0.866941 -0.355844 73 63 62
-0.759981 0.865481 -0.376264 77 63 57
-0.636408 0.868503 -0.286916 70 61 59
-0.660912 0.883007 -0.270521 71 63 60
-0.635269 0.877581 -0.266732 67 60 54
-0.645627 0.884362 -0.257832 75 68 64
-0.635012 0.899207 -0.229263 66 59 52
-0.666025 0.911602 -0.211647 66 60 57
-0.639262 0.909009 -0.205938 72 64 57
-0.054667 0.373271 -0.399455 255 255 194
0.001906 0.947982 -0.259229 89 87 83
-0.878191 0.929590 -0.422613 62 53 51
-0.888615 0.930084 -0.418218 62 53 51
-0.873073 0.920957 -0.417959 62 56 52
-0.862996 0.922996 -0.414706 62 55 52
-0.266724 0.604814 -0.640286 37 34 32
-0.276906 0.621578 -0.627338 26 23 20
-0.258933 0.616431 -0.641568 25 22 21
-0.261217 0.626066 -0.641533 26 23 21
-0.249645 0.631959 -0.641329 27 23 25
-0.271352 0.591608 -0.631336 38 34 32
-0.838204 0.670865 -0.390273 255 255 209
-0.791704 0.656615 -0.392397 255 255 209
-0.796704 0.681553 -0.391241 255 255 208
0.068609 0.141740 -0.400649 255 255 200
0.053546 0.171240 -0.400302 255 255 200
0.076622 0.163352 -0.401045 255 255 199
-0.645618 0.962813 -0.243916 90 85 78
-0.631575 0.949954 -0.232073 101 97 89
-0.650908 0.956480 -0.242565 80 76 70
-0.646726 0.962783 -0.227880 80 76 70
-0.638162 0.964522 -0.239884 103 98 90
-0.638636 0.950180 -0.249342 91 87 79
-0.638666 0.953027 -0.253478 78 73 67
-0.625771 0.960734 -0.248220 81 76 67
-0.646134 0.953649 -0.252897 87 83 76
-0.645007 0.972736 -0.221530 114 107 99
-0.642083 0.971473 -0.230149 120 113 105
-0.651845 0.965529 -0.235198 87 83 76
-0.760579 0.233365 -0.396609 255 255 190
-0.109641 0.418553 -0.399261 255 255 193
-0.110454 0.437428 -0.399611 255 255 190
-0.138453 0.417803 -0.399272 255 255 195
-0.482954 0.497928 -0.397126 255 255 205
-0.773560 0.909783 -0.222240 74 66 65
-0.772700 0.921103 -0.212014 70 62 60
-0.064893 0.759408 -0.649177 48 46 46
-0.057204 0.776385 -0.644532 47 45 47
-0.308342 0.157233 -0.398444 125 102 80
-0.321262 0.167227 -0.398432 123 101 72
-0.314494 0.177983 -0.399165 138 112 90
0.098491 0.592117 -0.440485 41 34 28
0.078346 0.591654 -0.441271 41 33 29
0.088053 0.598046 -0.426445 45 36 28
0.094828 0.584087 -0.449760 37 29 20
-0.481204 0.675115 -0.395935 255 249 169
-0.753006 0.967315 -0.211726 80 71 69
-0.754232 0.952224 -0.196923 90 82 77
-0.258010 0.659851 -0.432768 33 27 23
0.023793 0.825592 -0.641423 86 65 51
-0.397502 0.703313 -0.398420 254 246 167
-0.382459 0.711998 -0.397321 255 247 170
-0.392827 0.719742 -0.413028 254 248 171
-0.400343 0.706677 -0.416065 253 249 169
-0.388056 0.691386 -0.415114 253 251 172
-0.391074 0.707620 -0.413540 253 250 172
-0.372616 0.709586 -0.412283 254 247 170
-0.403527 0.721475 -0.396670 254 242 171
0.065991 0.248243 -0.399953 255 255 195
-0.153825 0.980984 -0.286701 84 79 75
-0.178305 0.981480 -0.270604 64 59 55
-0.181163 0.978897 -0.258058 56 50 47
-0.180928 0.969021 -0.287058 58 50 48
-0.181934 0.977782 -0.276571 60 52 50
-0.180521 0.953791 -0.261772 94 90 86
-0.180812 0.968235 -0.262210 88 82 79
-0.591543 0.162892 -0.397584 255 255 187
0.135296 0.311615 -0.400180 255 255 193
-0.833902 0.863235 -0.349000 238 212 169
-0.866864 0.858729 -0.344870 203 175 144
-0.833769 0.865749 -0.325218 198 176 150
-0.191454 0.150365 -0.397171 193 164 120
-0.215409 0.162442 -0.394399 146 120 86
-0.190204 0.167989 -0.396534 191 165 117
-0.224283 0.181818 -0.392871 121 98 68
0.117296 0.925671 -0.393690 125 124 118
0.132851 0.917886 -0.408146 59 53 50
0.123441 0.920100 -0.395899 131 131 123
0.125336 0.925707 -0.394453 118 117 112
-0.752045 0.809211 -0.399654 238 216 153
-0.751484 0.819514 -0.417930 236 214 144
-0.723957 0.813187 -0.415525 237 214 149
-0.727596 0.804950 -0.401869 229 205 144
-0.779079 0.598240 -0.393427 255 255 211
-0.777754 0.575355 -0.393443 255 255 212
-0.239142 0.657274 -0.427730 43 33 28
-0.218491 0.660272 -0.421464 231 230 167
-0.225296 0.653141 -0.431867 37 31 28
-0.452266 0.456771 -0.397823 255 255 205
-0.421079 0.459990 -0.398033 255 255 205
-0.344694 0.676015 -0.398356 255 249 173
-0.563891 0.617552 -0.395930 255 255 199
-0.069067 0.391622 -0.398918 255 255 193
-0.076704 0.185615 -0.399817 255 255 200
-0.007704 0.192615 -0.399811 255 255 198
-0.285954 0.303678 -0.398864 255 255 198
-0.842579 0.397496 -0.394010 255 255 191
-0.270651 0.667670 -0.422214 50 41 32
-0.255465 0.661266 -0.425812 29 27 25
-0.252343 0.667069 -0.420826 201 201 144
-0.512329 0.688365 -0.395566 255 249 169
-0.518993 0.882755 -0.321473 26 24 21
-0.781954 0.340115 -0.395050 255 255 191
-0.760704 0.373053 -0.395217 255 255 192
-0.685357 0.885445 -0.269117 82 74 68
0.089042 0.614751 -0.417568 253 253 182
0.094460 0.601583 -0.420689 244 243 174
0.072619 0.617769 -0.418800 248 249 177
-0.805726 0.390932 -0.394706 255 255 189
-0.790245 0.398852 -0.394445 254 255 187
-0.779891 0.439803 -0.394474 255 255 188
-0.810391 0.376740 -0.394376 254 255 188
-0.520704 0.429115 -0.397345 255 255 209
-0.266654 0.712188 -0.410026 254 251 186
-0.284319 0.724509 -0.409829 254 249 180
-0.261641 0.695567 -0.413927 254 255 181
-0.233716 0.699151 -0.411549 255 254 182
-0.282546 0.705420 -0.412454 255 254 183
-0.271825 0.719249 -0.398419 153 140 106
-0.265197 0.707026 -0.397681 200 189 142
-0.532968 0.285511 -0.398086 255 255 186
-0.543329 0.307865 -0.397703 255 255 187
-0.579204 0.567615 -0.396484 255 255 204
-0.634095 0.588645 -0.395270 255 255 204
-0.602704 0.595614 -0.396209 255 255 205
-0.314104 0.272815 -0.398995 255 255 195
-0.520757 0.855225 -0.385861 115 108 99
-0.507968 0.867471 -0.375957 66 59 54
-0.508755 0.869853 -0.366410 65 59 54
-0.514209 0.858989 -0.393026 112 106 98
-0.675999 0.830683 -0.397909 83 74 64
-0.647034 0.837790 -0.409725 58 45 36
-0.678767 0.845073 -0.409718 63 53 44
-0.682267 0.835640 -0.393943 79 68 60
-0.682432 0.844114 -0.405495 69 59 52
-0.686483 0.851450 -0.388057 64 59 55
-0.846018 0.774280 -0.388450 255 255 202
-0.845204 0.730615 -0.388600 255 255 203
-0.143660 0.675161 -0.643280 87 81 80
-0.133976 0.690297 -0.644315 89 83 84
-0.766579 0.203896 -0.396191 255 255 188
-0.643411 0.820498 -0.439016 115 91 51
-0.640590 0.825315 -0.437909 135 109 68
-0.888370 0.923463 -0.179156 85 79 74
-0.857027 0.925724 -0.184085 78 71 68
-0.853877 0.921890 -0.187164 88 78 77
-0.891589 0.945507 -0.186898 70 63 60
-0.886754 0.931020 -0.178341 114 105 101
-0.853229 0.934391 -0.183651 102 93 88
-0.885325 0.939292 -0.181267 102 92 87
-0.872168 0.946052 -0.186599 71 63 61
-0.255614 0.243124 -0.399956 255 255 195
-0.253788 0.255796 -0.398264 255 255 195
-0.281834 0.276752 -0.398749 255 255 198
-0.235649 0.258587 -0.397207 255 255 197
-0.219994 0.266655 -0.398353 255 255 197
-0.821329 0.950387 -0.193091 73 65 62
-0.270738 0.743338 -0.399507 234 203 139
-0.301650 0.742617 -0.398705 234 203 139
-0.302801 0.761059 -0.398757 219 188 128
-0.287033 0.731328 -0.398092 196 178 135
-0.275773 0.734203 -0.407459 189 174 132
-0.310858 0.712775 -0.411076 255 253 182
-0.815845 0.872772 -0.303679 84 75 68
-0.198610 0.451303 -0.398712 255 255 192
-0.260828 0.451990 -0.398607 255 255 195
-0.692048 0.359756 -0.396329 255 255 188
-0.651716 0.916646 -0.427399 63 61 55
-0.868704 0.655615 -0.388667 255 255 209
-0.901454 0.647115 -0.388177 255 255 208
0.054292 0.598274 -0.439148 43 39 37
0.068677 0.595358 -0.437755 43 37 33
0.067168 0.589869 -0.447767 34 33 29
-0.232699 0.674196 -0.644185 28 26 26
-0.217782 0.693707 -0.642998 31 28 27
-0.226277 0.683821 -0.645313 31 28 27
-0.214158 0.677350 -0.642156 30 27 28
-0.259953 0.324365 -0.398837 255 255 201
-0.312953 0.463052 -0.398411 255 255 199
-0.275459 0.657287 -0.434177 35 28 25
-0.285189 0.671067 -0.421612 226 226 160
-0.184704 0.181615 -0.397096 255 254 193
-0.171391 0.202115 -0.398405 255 255 197
-0.157704 0.229614 -0.399809 255 255 198
-0.460300 0.220183 -0.398733 241 220 158
-0.463229 0.236542 -0.398894 202 176 129
-0.581962 0.854056 -0.292161 64 60 56
-0.590941 0.842034 -0.321926 61 58 55
-0.558294 0.859838 -0.310062 64 59 57
-0.599251 0.847041 -0.309024 63 57 55
-0.585533 0.849231 -0.301355 89 85 80
-0.213704 0.637115 -0.399127 254 255 184
-0.202579 0.665303 -0.398037 254 254 183
0.055305 0.947678 -0.282561 83 79 74
-0.511829 0.170239 -0.398233 255 255 186
-0.580704 0.249614 -0.398098 255 255 188
-0.005180 0.418009 -0.399805 255 255 189
-0.582360 0.480114 -0.396644 255 255 211
-0.625704 0.521865 -0.396354 255 255 211
-0.731239 1.009392 -0.234292 79 74 69
-0.716141 1.005903 -0.234954 79 74 69
-0.719241 0.994045 -0.225090 75 69 66
-0.235090 0.661451 -0.421996 199 198 144
-0.233796 0.674217 -0.415838 199 198 144
-0.218296 0.670398 -0.415170 199 198 145
-0.223327 0.662467 -0.421427 142 140 105
-0.456704 0.516614 -0.396565 255 255 204
-0.488704 0.527615 -0.396582 255 255 203
-0.446454 0.526740 -0.396914 255 255 202
-0.561068 0.844241 -0.347964 59 55 51
-0.567921 0.847651 -0.327252 57 52 52
-0.539127 0.854874 -0.343599 57 54 52
-0.078767 0.580115 -0.399151 255 255 189
-0.639871 0.829816 -0.427760 105 93 67
-0.657844 0.838474 -0.418257 78 60 33
-0.650832 0.827919 -0.438201 84 65 44
-0.201895 0.980335 -0.255847 110 102 96
-0.221076 0.981261 -0.224096 120 114 110
-0.200204 0.980690 -0.237257 126 117 111
-0.191782 0.980700 -0.223883 85 82 79
-0.187250 0.979025 -0.254665 78 71 67
-0.209846 0.953130 -0.258115 95 91 87
-0.210761 0.969501 -0.258219 103 99 95
0.073704 0.972562 -0.273793 82 74 71
-0.795204 0.705115 -0.390711 255 255 207
-0.785891 0.917258 -0.466815 48 39 38
-0.785564 0.922148 -0.454862 48 43 42
-0.175995 0.964538 -0.217034 56 54 52
-0.176803 0.971499 -0.225268 55 53 51
-0.166784 0.977602 -0.222306 59 57 55
-0.170920 0.979785 -0.196942 100 97 93
-0.164870 0.977401 -0.203631 81 77 74
-0.165017 0.962765 -0.210603 60 58 57
-0.176109 0.972197 -0.213871 59 56 55
-0.179286 0.972614 -0.206213 61 57 55
-0.169924 0.977664 -0.212576 64 61 58
-0.180048 0.977205 -0.206261 64 60 57
-0.008703 0.385615 -0.399274 255 255 191
-0.193573 0.590019 -0.635411 27 24 25
-0.208031 0.590733 -0.640730 27 26 25
-0.199452 0.580544 -0.637697 28 25 25
-0.126691 0.845526 -0.636883 158 138 101
-0.127940 0.849592 -0.620733 97 79 59
-0.141236 0.850116 -0.640216 152 133 97
-0.397475 0.286761 -0.399512 255 255 192
-0.390704 0.313365 -0.398474 255 255 196
0.069728 0.508855 -0.643824 26 22 22
0.049461 0.510185 -0.643646 27 23 23
-0.875628 0.880073 -0.260311 88 80 75
-0.127208 0.981200 -0.294172 89 81 78
-0.130984 0.978776 -0.252236 90 83 80
-0.109914 0.978404 -0.263534 90 84 80
-0.645067 0.928749 -0.193050 73 69 64
-0.156584 0.986753 -0.194072 123 120 116
-0.152104 0.997808 -0.192799 136 133 130
-0.858899 0.234513 -0.394421 255 255 190
-0.679901 0.949273 -0.206625 76 69 65
-0.649739 0.935634 -0.198455 89 83 74
-0.666879 0.934035 -0.193126 97 89 86
-0.677028 0.942382 -0.198136 87 81 76
-0.694098 0.938879 -0.193368 83 76 73
-0.691209 0.920617 -0.202362 74 67 63
-0.189454 0.245615 -0.398324 255 255 198
-0.586954 0.188615 -0.397975 255 255 186
-0.539704 0.180614 -0.397831 255 255 187
-0.576704 0.230365 -0.397959 255 255 186
-0.460204 0.188115 -0.398348 255 255 185
-0.498704 0.198615 -0.397527 255 255 185
-0.827704 0.895507 -0.239894 94 84 79
-0.828422 0.886562 -0.256260 87 79 72
-0.795399 0.900356 -0.239248 91 84 78
-0.812283 0.904734 -0.229019 94 86 83
-0.671725 0.872509 -0.297050 71 64 61
-0.670322 0.878386 -0.282543 72 65 61
-0.647518 0.864349 -0.310852 63 55 52
-0.282423 0.544428 -0.398201 255 255 192
-0.311203 0.564615 -0.397947 255 255 193
-0.163704 0.459615 -0.399345 255 255 190
-0.829079 0.491364 -0.393339 255 255 207
-0.334603 0.767641 -0.399238 199 172 119
-0.323323 0.760412 -0.405692 230 206 142
-0.342355 0.757178 -0.405541 231 205 139
-0.310667 0.769567 -0.401563 223 197 136
-0.332483 0.773585 -0.401771 216 191 132
-0.081110 0.326678 -0.399759 255 255 196
-0.192689 0.674695 -0.645128 35 31 34
-0.632688 0.832004 -0.415536 63 49 34
-0.656302 0.832548 -0.393038 54 47 45
-0.637961 0.820971 -0.397767 59 47 40
-0.643105 0.825788 -0.401661 61 49 41
-0.656165 0.837610 -0.405064 58 48 42
-0.652046 0.824180 -0.397889 68 60 52
0.032259 0.967648 -0.276758 88 81 77
0.024899 0.972782 -0.261583 88 81 76
0.019921 0.952290 -0.259912 91 86 83
0.036982 0.957479 -0.254539 88 84 80
0.010577 0.964095 -0.258168 87 82 78
0.015631 0.957271 -0.282861 87 81 77
0.016362 0.953768 -0.286992 86 80 77
0.022731 0.957387 -0.290353 86 79 75
0.033675 0.953557 -0.277806 87 82 77
0.020554 0.954455 -0.270184 89 87 83
0.015405 0.962327 -0.268199 87 86 81
0.043221 0.975291 -0.263079 89 82 78
0.018203 0.945724 -0.268139 89 86 83
-0.081887 0.957489 -0.236190 71 69 67
-0.061864 0.971337 -0.236199 58 56 57
-0.089965 0.955199 -0.245333 94 90 87
-0.072977 0.956278 -0.246522 94 90 89
-0.057513 0.959759 -0.241226 93 89 86
-0.080873 0.964924 -0.237447 93 90 87
-0.076987 0.962089 -0.242989 94 90 87
-0.090873 0.953155 -0.250941 94 90 87
-0.063892 0.958595 -0.245600 93 89 86
-0.066133 0.986408 -0.216812 58 55 58
-0.531778 0.805448 -0.401980 231 203 140
-0.159641 0.279678 -0.399072 255 255 199
0.109196 0.271354 -0.400155 255 255 191
0.135296 0.253114 -0.399803 255 255 193
-0.766490 0.870600 -0.343995 77 72 69
-0.278360 0.494895 -0.398294 255 255 192
0.110487 0.940660 -0.270103 84 80 76
-0.822751 0.461146 -0.393395 255 255 195
-0.077204 0.267615 -0.399403 255 255 199
-0.548704 0.635365 -0.396049 255 255 193
-0.547861 0.660414 -0.395265 255 255 188
0.034787 0.499238 -0.399644 255 255 187
0.078110 0.447365 -0.399506 255 255 187
-0.052737 0.159194 -0.399077 255 255 198
-0.102770 0.619139 -0.398510 255 255 189
-0.166248 0.636794 -0.639621 54 48 50
-0.164623 0.650094 -0.639532 86 81 81
-0.283458 0.639184 -0.625024 27 23 21
-0.271901 0.652048 -0.635883 29 28 24
-0.824131 0.868587 -0.316531 84 77 70
-0.029586 1.013231 -0.229286 81 74 71
-0.585495 0.790800 -0.411541 217 195 133
-0.587960 0.787795 -0.401994 201 176 118
-0.592249 0.772705 -0.396255 159 139 93
-0.569946 0.771963 -0.395048 184 163 111
-0.898454 0.251364 -0.393741 255 255 191
-0.858454 0.261115 -0.394780 255 255 192
-0.866054 0.274543 -0.394016 255 255 193
-0.829778 0.275882 -0.394656 255 255 191
-0.812204 0.236053 -0.395394 255 255 191
-0.784765 0.247935 -0.396237 255 255 191
-0.136079 0.460490 -0.399374 255 255 189
-0.863785 1.016233 -0.228947 71 64 61
-0.859075 0.987411 -0.213235 71 64 61
-0.872749 1.002522 -0.220938 69 62 59
-0.019516 0.507489 -0.399776 255 255 187
-0.046453 0.515365 -0.399884 255 255 187
-0.186594 0.977180 -0.290498 57 48 46
-0.186608 0.953702 -0.290936 101 98 94
-0.200050 1.016686 -0.182390 132 123 115
-0.186023 1.001379 -0.177086 94 85 78
-0.195371 1.012846 -0.177376 94 85 79
-0.188258 0.992399 -0.177484 110 102 95
-0.188637 0.986098 -0.179354 162 153 146
-0.198312 0.986015 -0.180748 177 168 159
-0.208685 0.985744 -0.185893 115 111 106
-0.208675 0.988858 -0.189860 152 147 140
-0.213312 0.986196 -0.193670 107 106 101
-0.582704 0.395615 -0.397223 255 255 204
0.124239 0.204679 -0.400339 255 255 196
-0.198094 0.218444 -0.396558 255 255 198
-0.761816 1.011584 -0.233401 72 67 62
-0.793315 1.006736 -0.226644 67 62 58
-0.775487 1.013422 -0.231703 66 61 57
-0.095936 0.703437 -0.400471 232 205 143
-0.103848 0.699455 -0.411040 102 90 64
-0.099141 0.719366 -0.400744 149 131 105
-0.112903 0.721481 -0.410023 253 243 167
-0.090265 0.714146 -0.409699 254 249 174
-0.175351 1.018795 -0.210855 119 116 112
-0.154571 1.020159 -0.213555 77 74 72
-0.176201 1.031078 -0.197782 75 67 63
-0.160604 1.028470 -0.196889 85 76 68
-0.172827 1.022599 -0.204453 131 126 122
-0.627801 0.827873 -0.405876 66 53 42
-0.609393 0.823156 -0.409796 216 195 136
-0.628344 0.824932 -0.392017 70 62 52
-0.730798 0.441115 -0.395064 255 255 198
-0.819204 0.737802 -0.389041 255 255 201
0.012172 0.483614 -0.399510 255 255 187
-0.464735 0.558990 -0.397127 255 255 202
-0.476572 0.545014 -0.397192 255 255 203
-0.496610 0.572490 -0.397172 255 255 202
-0.729579 0.662302 -0.393287 255 255 207
0.069651 0.976057 -0.259442 87 80 76
0.059681 0.954076 -0.260311 87 82 79
0.051626 0.958207 -0.250839 88 81 78
0.046587 0.966552 -0.285813 86 78 73
0.065826 0.945389 -0.276885 87 83 80
0.054111 0.971126 -0.278221 82 75 71
0.051013 0.954142 -0.267728 86 82 76
-0.006704 0.273615 -0.400137 255 255 195
-0.524329 0.256614 -0.397749 254 255 187
-0.037456 1.036582 -0.213984 60 54 51
-0.047026 1.011750 -0.206495 91 84 81
-0.020435 1.037637 -0.203887 139 130 124
-0.033759 1.040195 -0.202442 95 86 80
-0.050559 1.039914 -0.203064 109 100 95
-0.036781 1.025280 -0.192427 109 100 95
-0.038805 1.017072 -0.193330 112 105 101
-0.047394 1.040283 -0.210348 81 75 71
-0.027019 1.040498 -0.209393 94 86 82
-0.042216 1.028402 -0.216964 125 120 117
-0.690985 0.582865 -0.393990 255 255 208
-0.090940 0.984797 -0.222998 65 63 64
-0.121366 0.994631 -0.222341 73 69 66
-0.119532 1.011680 -0.207598 102 101 96
-0.096838 1.012079 -0.198325 90 83 79
-0.091983 1.012197 -0.223560 65 60 57
-0.098723 0.841752 -0.638662 74 55 42
-0.101094 0.838614 -0.651646 83 64 51
-0.090672 0.845884 -0.646975 84 65 48
-0.098729 0.845211 -0.629975 129 108 79
-0.116691 0.847176 -0.632419 118 97 70
-0.100986 0.853832 -0.637353 84 67 50
-0.862704 0.477114 -0.391928 255 255 192
-0.550231 0.885613 -0.273652 59 53 50
-0.551494 0.897599 -0.277301 60 55 50
-0.554969 0.911315 -0.282535 29 25 25
-0.539202 0.886400 -0.284173 133 128 119
-0.556930 0.907669 -0.266342 117 113 102
-0.553340 0.910296 -0.275535 130 125 114
-0.558532 0.912770 -0.261411 130 126 115
-0.782838 0.878731 -0.440960 53 45 29
-0.764716 0.880388 -0.444741 37 31 19
-0.787911 0.881829 -0.446974 72 63 40
-0.781882 0.881588 -0.431298 55 47 37
-0.770148 0.878816 -0.440255 59 51 39
0.087296 0.563615 -0.399861 255 255 186
-0.672845 0.274817 -0.396753 255 255 189
0.003451 0.440099 -0.399322 255 255 189
-0.557920 0.800334 -0.423661 239 227 163
-0.550286 0.818207 -0.442135 162 148 101
-0.563367 0.808192 -0.422611 68 58 53
-0.546505 0.816322 -0.428331 158 150 111
-0.552395 0.807296 -0.431008 163 152 115
-0.685236 0.872657 -0.308345 73 68 63
-0.663120 0.867066 -0.312594 72 66 62
-0.687415 0.877882 -0.285962 77 72 67
0.090796 0.276114 -0.399751 255 255 191
-0.146472 1.016658 -0.222003 65 62 63
-0.150836 1.021518 -0.224572 54 51 49
-0.131256 1.018554 -0.225910 66 62 62
-0.138694 1.019531 -0.217429 71 68 66
-0.122961 1.019902 -0.217130 74 70 70
-0.146322 1.031363 -0.199000 81 74 68
-0.124506 1.032290 -0.194861 128 120 113
-0.152604 1.024601 -0.203445 106 99 95
-0.136517 1.027315 -0.206520 159 155 149
-0.145856 1.026051 -0.206704 73 66 62
-0.124861 1.032153 -0.204509 95 87 80
-0.135048 1.034091 -0.201461 108 101 95
-0.625829 0.468490 -0.396558 255 255 213
-0.531452 0.884964 -0.300534 185 179 167
-0.527043 0.889035 -0.323179 30 26 25
-0.534539 0.893645 -0.314040 30 27 25
-0.578704 0.656615 -0.395404 255 252 180
-0.598954 0.675615 -0.394598 254 249 171
-0.556735 0.691803 -0.394650 253 248 169
-0.619036 0.931355 -0.250511 94 90 81
-0.619453 0.952132 -0.243384 63 58 51
-0.626161 0.938998 -0.240910 98 94 86
-0.603242 0.926787 -0.255295 107 103 95
-0.607092 0.914803 -0.229542 80 76 69
-0.600777 0.937592 -0.223938 94 90 83
-0.606032 0.934751 -0.237288 62 57 54
-0.629532 0.940670 -0.257916 61 56 52
-0.613440 0.945009 -0.254637 64 58 52
-0.621994 0.949350 -0.255503 67 61 55
-0.620988 0.946141 -0.229359 91 86 80
-0.762806 0.993443 -0.224377 74 69 67
-0.746093 1.001981 -0.229234 78 71 68
-0.731322 1.002600 -0.228865 74 68 65
-0.536454 0.579615 -0.396952 255 255 205
-0.853516 0.611490 -0.390687 255 255 212
-0.826829 0.614365 -0.392085 255 255 211
-0.851704 0.625615 -0.390824 255 255 211
-0.522829 0.409928 -0.397508 255 255 208
-0.149734 1.010209 -0.220714 69 61 59
-0.145728 1.012650 -0.215029 74 70 69
-0.146826 0.987280 -0.207901 121 117 114
-0.148463 0.980412 -0.202741 121 117 114
-0.147290 0.980472 -0.222650 68 65 66
-0.146628 1.009583 -0.224457 85 78 75
-0.122823 1.009640 -0.224434 71 68 67
-0.121297 1.013041 -0.221868 72 69 69
-0.798563 0.791676 -0.388321 255 235 156
-0.813079 0.809708 -0.393799 249 228 159
-0.798887 0.827513 -0.408461 247 226 158
-0.281641 0.676672 -0.643688 34 31 28
-0.801079 0.288739 -0.395513 255 255 193
-0.698866 0.891602 -0.260736 84 76 69
-0.119704 0.192865 -0.399580 255 255 199
-0.851940 0.916592 -0.414099 65 55 52
-0.860791 0.916731 -0.414583 63 55 51
-0.563846 0.286648 -0.397885 255 255 186
-0.560908 0.295640 -0.397346 255 255 187
-0.334234 0.644865 -0.397859 255 251 176
0.090046 0.478990 -0.399930 255 255 187
-0.730829 0.472115 -0.394632 255 255 208
-0.715798 0.482990 -0.394885 255 255 207
-0.618267 0.240365 -0.397427 255 255 187
-0.609704 0.223614 -0.397892 255 255 186
-0.767954 0.639615 -0.393059 255 255 209
-0.731914 0.641478 -0.392937 255 255 209
-0.409054 0.439584 -0.398069 255 255 204
-0.198798 1.027475 -0.188490 81 74 69
-0.212638 1.009171 -0.181036 80 70 66
-0.182889 1.021090 -0.181886 88 80 76
-0.190060 1.024248 -0.188224 109 101 95
-0.627762 0.932869 -0.206789 72 68 64
-0.622881 0.921571 -0.209113 130 123 112
-0.622078 0.942827 -0.209293 99 94 86
-0.611594 0.946625 -0.214174 104 99 91
-0.609191 0.940431 -0.217801 90 85 79
-0.620588 0.923867 -0.218622 80 76 70
-0.346657 0.559771 -0.398123 255 255 194
-0.251386 0.227682 -0.398441 255 253 190
-0.276143 0.212265 -0.395051 255 251 187
-0.280423 0.223344 -0.400158 254 248 184
-0.213179 0.729753 -0.644969 33 29 28
-0.792174 0.936741 -0.192623 85 77 74
-0.812388 0.943588 -0.189551 82 75 70
-0.790765 0.949007 -0.193663 76 69 65
0.059180 0.609100 -0.421130 254 254 184
0.044009 0.604325 -0.424575 44 40 37
0.065030 0.599510 -0.424967 65 51 32
-0.127371 0.642466 -0.422136 198 198 145
-0.142106 0.641891 -0.424633 142 140 104
-0.432886 0.701399 -0.422302 147 146 106
-0.427444 0.694889 -0.430649 43 37 34
-0.419153 0.691879 -0.425499 146 117 79
-0.358427 0.222194 -0.399685 157 131 105
-0.338986 0.225599 -0.400987 182 155 116
-0.821704 0.751615 -0.389356 254 244 167
-0.203631 0.659716 -0.642931 30 27 27
-0.193315 0.639735 -0.644089 33 28 28
0.014251 0.822083 -0.635884 49 44 42
-0.247874 0.716254 -0.398894 153 140 103
-0.227127 0.732322 -0.400598 211 194 135
-0.210788 0.744861 -0.401303 215 186 130
-0.246754 0.730119 -0.407598 200 182 132
-0.226288 0.749557 -0.406020 226 206 149
-0.253055 0.747061 -0.401613 213 183 126
-0.227318 0.748832 -0.401352 204 177 125
-0.241511 0.747853 -0.405680 255 249 173
-0.158364 0.701425 -0.399239 144 131 96
-0.122939 0.684955 -0.412625 254 249 184
-0.145411 0.683927 -0.412251 254 250 178
-0.130128 0.678260 -0.396721 173 159 120
-0.118518 0.667041 -0.414134 255 255 182
-0.149669 0.663757 -0.398788 255 253 180
-0.211028 1.018686 -0.191368 111 101 95
-0.218204 1.016798 -0.189752 166 160 154
-0.588412 0.829379 -0.380909 135 112 78
-0.569620 0.827455 -0.382025 100 81 59
-0.580335 0.831789 -0.363122 65 54 45
-0.589857 0.829999 -0.364580 62 54 50
-0.798704 0.527115 -0.393447 255 255 212
-0.790860 0.557709 -0.393505 255 255 212
-0.824157 0.537178 -0.392980 255 255 210
0.051618 0.666922 -0.409713 53 40 26
-0.584983 0.864797 -0.264160 72 68 64
-0.574899 0.872008 -0.271336 77 73 68
-0.592106 0.858057 -0.278747 70 66 63
-0.570079 0.863523 -0.289949 74 69 63
-0.679454 0.381614 -0.397071 254 255 187
0.043296 0.333615 -0.399530 255 255 193
0.029454 0.359679 -0.399825 255 255 192
0.027797 0.377115 -0.399355 255 255 191
-0.764605 0.854151 -0.407492 70 60 48
-0.798150 0.855292 -0.386951 118 108 88
-0.141695 0.726196 -0.401757 200 171 121
-0.117846 0.721924 -0.401318 214 187 133
-0.136162 0.733989 -0.405768 147 131 104
-0.728704 0.194615 -0.396462 255 255 188
-0.730454 0.214115 -0.396917 255 255 187
-0.386266 0.424386 -0.397901 255 255 205
-0.468704 0.388114 -0.397409 255 255 200
-0.738751 0.873022 -0.320998 76 69 65
-0.726156 0.868610 -0.340402 76 71 67
-0.683095 0.886476 -0.449178 48 39 31
-0.676069 0.892122 -0.443086 48 40 36
-0.687841 0.896744 -0.439607 45 38 35
-0.663832 0.891705 -0.444068 49 41 34
-0.680025 0.899994 -0.431919 54 46 38
-0.663205 0.900372 -0.431495 49 42 37
-0.678478 0.911085 -0.441441 42 39 35
-0.693246 0.913984 -0.420994 47 44 41
-0.697635 0.903196 -0.423625 46 42 34
-0.666022 0.907588 -0.439319 118 109 87
-0.689566 0.914629 -0.436079 52 45 37
-0.679935 0.914284 -0.425152 53 49 40
-0.670509 0.912877 -0.428559 47 45 39
-0.661418 0.914279 -0.436579 80 75 66
-0.441648 0.689460 -0.433242 39 27 17
-0.035352 0.979054 -0.214153 66 63 62
-0.053878 0.989336 -0.214839 67 64 64
-0.053118 0.979098 -0.227612 62 59 60
-0.476204 0.362115 -0.397673 255 255 204
-0.673204 0.470614 -0.395564 254 255 213
-0.650704 0.497615 -0.396574 255 255 212
-0.611313 0.787089 -0.416312 78 62 41
-0.758353 0.765656 -0.390171 255 239 159
-0.756136 0.781075 -0.388177 255 234 156
0.093159 0.393794 -0.399658 255 255 190
-0.870859 0.835055 -0.398543 231 211 151
-0.859033 0.841515 -0.399526 254 254 197
-0.849410 0.844983 -0.398505 254 254 196
-0.873105 0.841748 -0.392245 178 173 130
-0.895994 0.837554 -0.388151 177 168 128
-0.625455 0.883855 -0.443445 148 131 98
-0.612375 0.883436 -0.442960 62 54 45
0.128861 0.591283 -0.425499 136 109 79
0.114375 0.584764 -0.446563 39 32 30
0.110813 0.590187 -0.432987 112 85 61
0.105356 0.592816 -0.425138 200 183 130
-0.740836 0.898641 -0.246936 88 80 76
-0.754711 0.901644 -0.238006 92 83 77
-0.739816 0.907830 -0.230756 88 80 77
-0.248348 0.211285 -0.392414 254 250 187
-0.232100 0.223176 -0.394063 255 254 194
-0.747148 0.988621 -0.222786 73 67 64
-0.755781 0.982301 -0.215879 67 63 59
-0.566450 0.835092 -0.366266 53 49 46
-0.548261 0.836926 -0.378606 57 54 51
-0.559074 0.827222 -0.379105 64 56 46
-0.547786 0.848870 -0.352856 50 47 46
-0.538095 0.849714 -0.364676 47 45 43
-0.550661 0.840107 -0.363454 51 49 48
-0.356127 0.242344 -0.400895 248 231 179
-0.304169 0.214465 -0.396545 154 123 99
-0.304425 0.227854 -0.401428 167 135 104
-0.116079 0.549489 -0.398938 255 255 188
-0.146703 0.521615 -0.398572 255 255 188
-0.626700 0.681862 -0.394251 255 254 186
0.039609 0.218990 -0.400019 255 255 197
0.066233 0.225053 -0.400390 255 255 197
-0.637806 0.965490 -0.221131 117 110 102
-0.646279 0.960742 -0.213792 97 92 85
-0.647092 0.949466 -0.210092 72 68 64
-0.636986 0.979999 -0.225873 95 89 82
-0.244454 0.494115 -0.398343 255 255 193
-0.260704 0.473614 -0.398149 255 255 194
-0.238891 0.641865 -0.398862 254 253 178
-0.217360 0.654451 -0.400096 255 255 185
-0.458298 0.602771 -0.397156 255 255 188
-0.612954 0.547864 -0.395899 255 255 207
-0.602204 0.528115 -0.396769 255 255 209
-0.637008 0.854604 -0.329684 68 60 55
-0.613790 0.851556 -0.311783 69 62 58
-0.621131 0.858703 -0.301809 78 72 65
-0.786329 0.321990 -0.395676 255 255 191
-0.401634 0.692832 -0.422791 29 24 23
-0.378379 0.671512 -0.435557 59 41 22
-0.386633 0.676788 -0.426922 29 25 23
-0.390271 0.681970 -0.423771 39 32 28
-0.790305 0.922920 -0.413155 52 48 48
-0.705172 0.894871 -0.426406 49 42 41
-0.709715 0.888720 -0.435953 59 47 42
-0.710001 0.917825 -0.426213 52 44 37
-0.694973 0.909426 -0.448423 41 36 34
-0.719442 0.918483 -0.448284 43 39 36
-0.719993 0.899042 -0.420977 46 43 44
-0.715872 0.907346 -0.448472 39 35 33
-0.716697 0.909456 -0.423621 76 63 50
-0.725803 0.916645 -0.421415 33 29 27
0.068547 0.508990 -0.400130 255 255 185
0.096359 0.522678 -0.399906 255 255 185
0.125086 0.914794 -0.384178 92 90 84
0.131322 0.911823 -0.396725 105 105 98
-0.652704 0.669615 -0.394748 255 255 203
-0.709204 0.684865 -0.393780 255 255 202
-0.823536 0.914489 -0.206514 74 65 64
-0.823819 0.909420 -0.219150 74 65 64
-0.801383 0.913113 -0.216821 77 69 67
-0.325216 0.248636 -0.400504 255 255 192
-0.297836 0.257041 -0.400119 254 255 193
-0.347462 0.271258 -0.399728 254 255 193
-0.300093 0.243510 -0.399772 254 254 192
-0.370667 0.688571 -0.415920 197 197 141
-0.346048 0.672399 -0.428750 38 32 28
-0.343240 0.667189 -0.436773 57 42 33
-0.370185 0.674571 -0.424836 34 27 20
-0.365311 0.664886 -0.442860 57 40 26
-0.795824 0.979828 -0.211440 77 68 66
-0.757733 0.959316 -0.207003 80 71 69
-0.778692 0.962511 -0.206896 79 70 66
-0.789741 0.954500 -0.198067 81 74 69
-0.283638 0.614526 -0.397924 255 255 183
-0.612178 0.480966 -0.396875 255 255 212
-0.039454 0.433865 -0.399507 255 255 188
-0.821454 0.348114 -0.394129 255 255 193
-0.742079 0.733178 -0.392731 252 241 164
-0.676140 0.711466 -0.393688 254 247 173
-0.883535 0.917861 -0.183564 77 70 67
-0.865531 0.914397 -0.193176 72 66 62
-0.482642 0.703023 -0.396813 254 245 163
-0.520251 0.713340 -0.395839 254 245 162
-0.486031 0.734087 -0.393852 255 243 161
-0.404704 0.386364 -0.398026 255 255 206
-0.415704 0.368614 -0.397890 255 255 204
-0.010344 0.567729 -0.399665 255 255 187
-0.016204 0.555865 -0.399278 255 255 187
-0.071959 0.162159 -0.399414 255 255 196
-0.052709 0.133201 -0.396230 255 255 197
-0.074453 0.999927 -0.257749 80 73 67
-0.595079 0.934567 -0.263774 115 111 101
-0.595609 0.942740 -0.257558 105 102 94
-0.589971 0.935981 -0.261275 145 140 131
-0.567689 0.924992 -0.263539 169 163 154
-0.593700 0.922459 -0.271235 64 57 52
-0.588066 0.931929 -0.267301 119 114 104
-0.579470 0.927808 -0.268404 144 139 128
-0.576622 0.927824 -0.258069 138 133 123
-0.590191 0.924889 -0.264220 92 87 78
-0.787815 0.906214 -0.416196 60 55 53
-0.772208 0.920041 -0.414524 57 50 47
-0.798822 0.896515 -0.422193 71 61 53
-0.773138 0.896029 -0.419712 104 91 66
-0.780060 0.893422 -0.428993 54 46 39
-0.771985 0.888035 -0.432181 66 56 47
-0.781253 0.888860 -0.446752 52 44 26
-0.763478 0.888209 -0.443129 66 53 34
-0.663772 0.331450 -0.396959 255 255 188
-0.699079 0.319740 -0.396070 255 255 189
-0.269929 0.680150 -0.416423 254 255 182
-0.259574 0.686108 -0.398257 254 252 183
-0.263224 0.664298 -0.399068 254 254 183
-0.030209 0.603930 -0.399237 255 255 183
-0.770448 0.931221 -0.197864 88 79 74
-0.749715 0.940839 -0.193716 78 71 69
-0.789277 0.929424 -0.198010 74 65 64
-0.594204 0.646615 -0.395120 255 255 196
-0.160079 0.507115 -0.398787 255 255 188
-0.536973 0.782654 -0.397237 199 178 124
-0.553449 0.787199 -0.410922 241 223 154
-0.750225 0.912436 -0.470388 22 19 19
-0.774319 0.916878 -0.461058 45 38 37
-0.755267 0.913290 -0.461650 38 33 33
-0.731016 0.908509 -0.459044 22 19 19
-0.627564 0.962038 -0.221549 117 110 102
-0.604702 0.953171 -0.229202 71 66 56
-0.626441 0.956062 -0.218905 105 100 92
-0.623658 0.954015 -0.213217 86 81 75
-0.620401 0.967351 -0.221033 81 75 66
-0.605673 0.967225 -0.222128 165 160 149
-0.526558 0.867260 -0.318058 147 142 132
-0.526701 0.877704 -0.303416 150 141 130
-0.520508 0.873920 -0.324225 152 145 135
-0.514383 0.773955 -0.413614 254 240 170
-0.518888 0.773186 -0.407980 253 239 173
-0.502266 0.772676 -0.401489 248 236 173
-0.509059 0.767442 -0.398169 228 211 152
-0.522496 0.773668 -0.399504 233 219 159
-0.534034 0.777189 -0.409124 247 231 169
-0.530197 0.784335 -0.402163 215 198 145
-0.307703 0.593615 -0.398049 255 255 192
-0.482680 0.445147 -0.397829 255 255 207
-0.483204 0.407614 -0.397904 255 255 209
-0.856454 0.212990 -0.395080 255 255 191
-0.792610 0.179896 -0.395592 255 255 191
-0.511293 0.384777 -0.397419 255 255 202
-0.804704 0.587615 -0.392895 255 255 212
-0.876030 0.919459 -0.409855 64 58 52
-0.861363 0.929079 -0.414697 63 55 50
-0.890881 0.949188 -0.409693 73 67 66
-0.889941 0.927078 -0.409808 64 54 53
-0.863410 0.927361 -0.409847 64 56 52
-0.879822 0.928961 -0.413276 62 55 51
-0.874524 0.932935 -0.409590 64 57 53
-0.539704 0.595865 -0.396544 255 255 201
-0.519829 0.566990 -0.396854 255 255 203
-0.081345 0.684536 -0.411151 191 179 132
-0.105308 0.684229 -0.412342 254 249 175
-0.493174 0.767509 -0.413654 252 240 168
-0.483973 0.765670 -0.405332 252 241 168
-0.479975 0.769540 -0.400725 254 247 166
-0.755532 0.919754 -0.419721 49 48 44
-0.745044 0.923526 -0.419897 46 45 42
-0.762731 0.916717 -0.450934 47 41 41
-0.728161 0.924938 -0.434757 42 40 37
-0.735274 0.926376 -0.426789 39 38 34
-0.737178 0.927137 -0.440373 40 38 35
-0.747885 0.930115 -0.435761 37 34 30
-0.757036 0.929986 -0.445953 41 36 35
-0.748203 0.920047 -0.441664 41 36 35
-0.749409 0.929523 -0.443083 42 36 33
-0.688454 0.170115 -0.396275 255 255 189
-0.695204 0.199177 -0.396863 255 255 188
0.035296 0.197614 -0.400338 255 255 198
-0.056329 0.409115 -0.399675 255 255 189
0.087008 0.927853 -0.373900 72 66 63
0.084590 0.933646 -0.374529 69 63 61
0.100643 0.940927 -0.362510 69 63 61
0.080508 0.941411 -0.360735 69 64 61
0.082060 0.936556 -0.368521 71 65 62
0.098825 0.924013 -0.385908 72 64 61
0.087072 0.929696 -0.385365 72 65 62
0.097172 0.934131 -0.379200 67 59 57
0.080027 0.933187 -0.366537 75 67 65
0.104209 0.924222 -0.360549 72 64 63
0.106949 0.920974 -0.378615 73 65 63
0.088889 0.929971 -0.353463 74 68 64
-0.711516 0.521803 -0.395067 255 255 213
-0.027470 0.456428 -0.399582 255 255 185
-0.851613 0.819288 -0.394825 242 224 162
-0.827736 0.836854 -0.411230 203 169 117
-0.843144 0.835883 -0.406234 233 218 159
-0.824596 0.849138 -0.392010 255 254 189
-0.844678 0.848447 -0.388379 255 246 182
-0.822221 0.842690 -0.413866 110 97 71
-0.635554 0.969639 -0.227031 104 97 90
-0.621616 0.978858 -0.225784 86 83 77
-0.607426 0.949962 -0.257994 116 109 100
-0.601708 0.951921 -0.252511 119 116 107
-0.631146 0.958920 -0.224559 90 85 79
-0.619214 0.960164 -0.226397 97 92 85
-0.626733 0.961198 -0.239877 111 104 97
-0.609657 0.956942 -0.243835 137 132 121
-0.609756 0.958153 -0.232407 117 112 100
-0.600759 0.956217 -0.227757 122 117 106
-0.707024 0.952476 -0.205400 73 67 65
-0.732590 0.957536 -0.206733 76 68 65
-0.703954 0.962489 -0.211101 80 75 71
-0.705045 0.972022 -0.214343 81 77 71
-0.728838 0.975260 -0.213911 74 68 64
-0.730890 0.948509 -0.195523 84 76 73
-0.693235 0.977750 -0.219808 75 71 67
-0.211357 0.572884 -0.398923 255 255 190
-0.535821 0.868541 -0.308501 54 49 45
-0.550987 0.871586 -0.291512 55 50 46
-0.538854 0.863395 -0.322062 56 53 51
0.099921 0.580428 -0.399577 255 255 185
-0.108099 0.858329 -0.638232 55 42 34
-0.815881 1.011289 -0.230939 71 64 61
-0.094982 0.385262 -0.399193 255 255 194
-0.382959 0.215662 -0.399395 212 182 135
-0.385935 0.187398 -0.397264 218 194 139
-0.399983 0.207926 -0.397960 146 123 96
-0.245493 0.197953 -0.394014 182 154 116
-0.273298 0.202659 -0.394665 117 93 73
-0.271235 0.191714 -0.396600 80 66 56
-0.254579 0.186564 -0.395126 65 50 39
-0.120329 0.585865 -0.398879 255 255 189
0.073072 0.936474 -0.327335 77 71 67
0.108267 0.946581 -0.336148 70 65 62
0.086723 0.946357 -0.346969 72 67 63
0.087852 0.927609 -0.339179 75 68 65
0.343861 -0.381746 -1.089931 34 29 26
0.367740 -0.363101 -1.093459 31 26 24
0.775870 -0.075889 -0.657897 43 40 40
0.187441 -0.458461 -1.084688 37 34 30
0.209635 -0.454794 -1.086888 39 35 31
0.777494 -0.121922 -0.651064 44 43 43
0.246759 -0.416812 -1.095148 36 33 29
0.268698 -0.423294 -1.088154 37 32 29
0.237526 -0.412143 -1.087014 33 28 26
0.261227 -0.398965 -1.090841 37 32 29
0.761395 -0.111552 -0.649463 48 44 45
0.770538 -0.102404 -0.651293 43 41 40
0.761475 -0.094311 -0.647188 46 41 38
0.773870 -0.092556 -0.653833 44 39 41
0.139254 -0.550334 -0.752105 33 29 27
0.312274 -0.410573 -1.089095 36 31 28
0.130666 -0.527062 -1.084388 41 38 33
0.150543 -0.503819 -1.088332 38 38 33
0.273139 -0.455602 -1.091810 39 33 30
0.139716 -0.519915 -0.720953 25 22 22
0.151165 -0.520383 -0.715383 32 28 27
0.804602 0.001236 -0.660011 36 34 33
0.269264 -0.437444 -1.089303 40 35 29
0.143900 -0.479271 -0.652225 38 34 34
0.144444 -0.466435 -0.660862 38 34 33
0.150715 -0.485494 -0.662859 37 35 32
0.153265 -0.477215 -0.655633 37 34 31
0.151008 -0.465389 -0.642754 38 34 34
0.140133 -0.479614 -0.674365 37 34 32
0.130929 -0.544010 -1.087800 44 39 34
0.150386 -0.530929 -1.087737 45 39 35
0.129929 -0.435731 -0.645586 38 34 34
0.134302 -0.454466 -0.656541 38 34 34
0.157070 -0.550739 -0.737036 42 37 36
0.157445 -0.549222 -0.710301 44 41 42
0.158643 -0.547338 -0.717313 43 39 39
0.149931 -0.531371 -0.717581 34 30 29
0.131204 -0.538934 -0.702600 26 24 25
0.201296 -0.500385 -1.091091 43 39 34
0.179222 -0.500311 -1.086777 40 37 33
0.133476 -0.511467 -1.085847 37 36 32
0.801031 -0.017715 -0.660458 41 39 38
0.721578 -0.169327 -0.646617 36 33 36
0.270265 -0.391087 -1.088679 36 30 28
0.275325 -0.382784 -1.088396 17 15 13
0.288999 -0.378000 -1.089992 26 22 20
0.246552 -0.427920 -1.087200 37 33 27
0.290020 -0.429853 -1.090400 41 34 31
0.753342 -0.184633 -0.664400 44 42 40
0.756987 -0.182056 -0.650444 45 42 46
0.742522 -0.182339 -0.641945 46 44 44
0.136107 -0.481790 -1.076034 31 29 27
0.198125 -0.478585 -1.090063 44 39 34
0.214922 -0.487684 -1.091815 43 37 31
0.151727 -0.513057 -0.668616 39 35 32
0.146654 -0.491856 -0.659885 34 31 29
0.156821 -0.496454 -0.668867 37 36 32
0.142754 -0.518541 -0.667746 33 29 27
0.160978 -0.558726 -0.732392 33 30 32
0.135130 -0.585992 -0.727828 41 37 37
0.156142 -0.568751 -0.721119 31 30 28
0.140522 -0.584482 -0.742265 38 35 35
0.160820 -0.559159 -0.720442 36 34 32
0.137233 -0.564519 -0.708212 36 33 32
0.156488 -0.574023 -0.734227 27 27 23
0.324476 -0.381200 -1.100052 34 29 26
0.307040 -0.386305 -1.098385 37 30 27
0.294247 -0.386269 -1.094529 33 28 26
0.305285 -0.374404 -1.098179 30 25 23
0.316561 -0.390041 -1.090071 37 31 28
0.231412 -0.474693 -1.091401 38 34 28
0.336490 -0.398428 -1.090010 37 32 30
0.713017 -0.203038 -0.662713 44 41 40
0.705305 -0.207407 -0.655593 44 40 38
0.724653 -0.191671 -0.667043 43 40 40
0.743656 -0.187882 -0.662984 40 39 36
0.721242 -0.198419 -0.653308 44 42 41
0.736907 -0.189613 -0.653269 45 44 45
0.146300 -0.538453 -0.724940 35 31 32
0.258437 -0.407216 -1.094761 37 32 29
0.278139 -0.417554 -1.088826 39 32 30
0.292650 -0.412012 -1.089479 38 32 31
0.280854 -0.398765 -1.093581 39 33 30
0.164254 -0.488035 -1.085528 37 35 31
0.180592 -0.482058 -1.083551 46 38 36
0.190461 -0.467595 -1.085359 40 36 32
0.178909 -0.466029 -1.083691 35 34 29
0.787319 -0.066516 -0.656273 37 34 32
0.784731 -0.043872 -0.656511 37 34 32
0.798616 -0.036455 -0.660104 39 38 38
0.139625 -0.522957 -0.680156 31 27 26
0.151465 -0.540622 -0.698694 28 26 27
0.145384 -0.555787 -0.705147 28 26 26
0.157489 -0.522491 -0.690800 38 33 34
0.158578 -0.536196 -0.704862 36 33 32
0.146165 -0.533535 -0.696200 33 31 33
0.162962 -0.524187 -0.700520 35 31 31
0.329238 -0.388402 -1.091969 36 31 28
0.325254 -0.370863 -1.098285 33 28 24
0.344343 -0.372939 -1.094940 32 27 24
0.329621 -0.365990 -1.098052 29 25 21
0.359339 -0.357401 -1.097963 32 26 24
0.136635 -0.320313 -0.645740 29 24 22
0.339108 -0.361745 -1.099340 31 24 22
0.147395 -0.493961 -0.680819 37 34 35
0.152830 -0.519862 -0.681036 36 31 31
0.153878 -0.511867 -0.683379 38 35 34
0.142860 -0.509002 -0.694494 37 32 33
0.222413 -0.433478 -1.083540 37 31 30
0.209936 -0.446486 -1.080937 38 35 31
0.227925 -0.451295 -1.088282 40 36 32
0.134149 -0.592595 -0.743713 38 36 35
0.242111 -0.406714 -1.094349 35 32 28
0.230659 -0.425996 -1.085976 38 34 30
0.241119 -0.420396 -1.087262 35 31 28
0.371089 -0.354046 -1.094521 29 23 21
0.386827 -0.347889 -1.087655 33 28 25
0.813106 0.038239 -0.658170 23 21 21
0.809835 0.018409 -0.661859 33 32 32
0.409776 -0.339713 -1.080623 31 28 25
0.246805 -0.451990 -1.091091 44 38 34
0.150527 -0.558424 -0.749759 31 28 29
0.147702 -0.569889 -0.749783 33 30 28
0.136745 -0.539563 -0.731657 33 29 28
0.304066 -0.399804 -1.088627 38 32 29
0.356673 -0.373646 -1.088959 32 27 25
0.163896 -0.469955 -1.078158 32 31 28
0.140669 -0.481836 -1.080979 36 32 30
0.152407 -0.477567 -1.079980 38 37 33
0.132934 -0.329474 -0.669462 31 24 22
0.749254 0.107980 -0.426821 50 40 33
0.734607 0.104913 -0.440392 49 41 36
0.738678 0.090665 -0.429849 40 34 30
0.729189 0.100950 -0.445115 32 27 24
0.718545 0.100060 -0.446632 39 32 28
0.727147 0.085958 -0.438301 29 23 22
0.259440 -0.380126 -0.397519 255 255 189
0.260401 -0.379819 -0.416881 255 255 188
0.344529 -0.288349 -0.399908 255 255 215
0.330011 -0.261493 -0.400069 255 255 217
0.349051 -0.387290 -0.398287 255 255 192
0.574456 -0.442044 -0.398332 255 255 186
0.463269 -0.091748 -0.401063 255 255 247
0.551538 -0.488477 -0.405718 123 105 66
0.570580 -0.479394 -0.401221 230 216 145
0.561011 -0.467532 -0.399245 252 251 181
0.586265 -0.474514 -0.415694 245 243 173
0.558383 -0.485258 -0.409647 230 215 146
0.593042 -0.483747 -0.410043 191 164 112
0.568435 -0.476292 -0.415461 246 243 169
0.444907 -0.201794 -0.401579 255 255 254
0.459266 -0.223758 -0.402037 255 255 254
0.437796 -0.005385 -0.400391 255 255 215
0.656264 0.084904 -0.399431 255 255 195
0.640203 -0.278571 -0.399197 255 254 221
0.491171 -0.139385 -0.401600 255 255 252
0.301620 -0.374007 -0.421915 29 25 26
0.287246 -0.385260 -0.417380 255 255 191
0.315295 -0.380126 -0.419464 255 255 193
0.670537 -0.275023 -0.405152 117 97 84
0.660154 -0.295209 -0.412763 118 96 71
0.665661 -0.290143 -0.409714 62 48 39
0.654044 -0.291525 -0.400446 255 255 207
0.673723 -0.286831 -0.413400 69 57 43
0.681844 -0.285125 -0.409882 117 99 75
0.665955 -0.269629 -0.417442 140 126 100
0.395296 -0.114385 -0.401103 255 255 233
0.399954 -0.077975 -0.401361 255 255 235
0.338796 -0.017385 -0.400389 255 255 211
0.587315 -0.458053 -0.398837 255 255 184
0.618169 -0.451724 -0.400621 250 245 172
0.595363 -0.484908 -0.405794 142 115 76
0.597613 -0.467409 -0.401453 241 227 158
0.614707 -0.474611 -0.405380 234 210 142
0.601399 -0.471056 -0.416796 188 153 105
0.598288 -0.478029 -0.402515 113 87 53
0.617244 -0.464354 -0.417293 233 192 128
0.339311 -0.049495 -0.401426 255 255 220
0.361574 -0.396874 -0.418754 254 255 190
0.655085 -0.313064 -0.410906 238 196 137
0.685073 -0.305318 -0.407417 46 44 41
0.654510 -0.293332 -0.420217 222 185 127
0.483393 -0.378381 -0.399161 255 255 201
0.463517 -0.399466 -0.398340 255 255 199
0.150167 -0.285902 -0.398247 255 255 190
0.151606 -0.254050 -0.398676 255 255 191
0.718918 0.013422 -0.426142 35 28 25
0.746341 0.020312 -0.418484 56 46 34
0.721993 0.019737 -0.424283 31 24 20
0.297922 -0.401966 -0.417617 255 255 188
0.315358 -0.392903 -0.418003 254 255 188
0.745371 0.079370 -0.418803 47 38 32
0.708165 -0.120654 -0.421900 63 49 40
0.704503 -0.143528 -0.421147 91 77 68
0.235694 -0.270076 -0.399174 255 255 201
0.249010 -0.293259 -0.398559 255 255 196
0.263772 -0.271762 -0.398474 255 255 197
0.636973 -0.310308 -0.448291 47 40 37
0.633440 -0.324379 -0.444165 48 41 38
0.263304 -0.101318 -0.400638 255 255 212
0.152797 -0.145386 -0.400605 255 255 199
0.420492 -0.392510 -0.398380 255 255 195
0.420900 -0.377434 -0.398929 255 255 202
0.415933 -0.366911 -0.398772 255 255 201
0.534546 -0.312510 -0.399168 255 255 253
0.231315 -0.373320 -0.416785 255 255 190
0.234865 -0.379146 -0.397008 255 255 188
0.214656 -0.390610 -0.399032 255 255 188
0.212107 -0.370216 -0.397203 255 255 186
0.207595 -0.115315 -0.400568 255 255 201
0.165205 -0.110440 -0.400088 255 255 200
0.753636 0.108966 -0.417895 59 43 34
0.394258 -0.412821 -0.397091 255 255 191
0.164296 -0.264385 -0.398220 255 255 194
0.684860 0.091995 -0.398856 255 255 193
0.446707 -0.177037 -0.401193 255 255 252
0.576296 0.056114 -0.399446 255 255 203
0.555547 0.071865 -0.399550 255 255 202
0.425071 -0.435930 -0.417868 255 255 190
0.446888 -0.424863 -0.422641 255 255 191
0.749579 -0.129164 -0.642414 37 34 33
0.755827 -0.119572 -0.645237 46 43 43
0.284359 -0.206938 -0.399851 255 255 213
0.269296 -0.306386 -0.399081 255 255 196
0.185296 -0.202385 -0.398727 255 255 199
0.580796 0.085365 -0.399270 255 255 194
0.286390 -0.371516 -0.420038 255 255 193
0.635340 -0.444797 -0.409680 244 202 138
0.636019 -0.404938 -0.401651 253 228 157
0.635269 -0.428759 -0.405514 247 207 140
0.742977 -0.022524 -0.418008 85 77 70
0.744067 -0.033784 -0.413843 89 77 66
0.727121 -0.043318 -0.401857 52 36 27
0.738163 0.007149 -0.408357 69 54 38
0.597375 -0.372189 -0.450524 35 31 28
0.353421 -0.122197 -0.401039 255 255 227
0.155564 -0.190022 -0.399742 255 255 200
0.120705 -0.175580 -0.399420 255 255 200
0.163296 -0.174386 -0.399647 255 255 202
0.610013 -0.371008 -0.447218 83 68 53
0.600190 -0.383984 -0.447617 98 80 61
0.591996 -0.437009 -0.444181 89 73 55
0.609159 -0.431836 -0.442078 84 68 54
0.591250 -0.452404 -0.442945 114 97 76
0.603371 -0.447724 -0.441099 136 106 77
0.611130 -0.450987 -0.443207 123 90 56
0.620056 -0.448528 -0.438833 66 47 40
0.606721 -0.460200 -0.439800 218 182 130
0.231068 0.040403 -0.401047 255 255 202
0.651680 -0.298243 -0.441061 39 35 30
0.649237 -0.306203 -0.435373 51 47 45
0.656883 -0.303895 -0.426387 199 162 111
0.651433 -0.331459 -0.417882 212 174 121
0.668088 -0.292385 -0.435647 123 105 79
0.693007 -0.098239 -0.398869 253 251 233
0.489296 -0.414135 -0.398136 255 255 193
0.512853 -0.416109 -0.398661 255 255 193
0.505839 -0.398439 -0.398040 255 255 195
0.225855 -0.329901 -0.398531 255 255 192
0.607512 -0.076000 -0.400749 255 255 220
0.388934 -0.157541 -0.400965 255 254 230
0.746692 0.030127 -0.412519 37 33 27
0.746347 0.001348 -0.414187 80 69 64
0.763934 -0.165690 -0.641510 45 44 45
0.650409 -0.334849 -0.426233 137 112 78
0.640374 -0.349102 -0.435113 141 115 81
0.622832 -0.358884 -0.447627 55 46 40
0.634458 -0.338233 -0.441429 144 118 83
0.645937 -0.360137 -0.427631 131 107 72
0.625389 -0.340044 -0.446701 49 43 42
0.457121 0.022927 -0.400032 255 255 213
0.415228 -0.027611 -0.400835 255 255 216
0.207393 -0.369485 -0.416754 255 255 188
0.194506 -0.400530 -0.414695 255 255 188
0.186390 -0.386753 -0.399760 255 255 187
0.710585 -0.137332 -0.414115 56 42 31
0.700997 -0.117311 -0.401694 223 178 125
0.714814 -0.112635 -0.417119 63 50 39
0.687119 -0.131084 -0.399428 255 254 249
0.212534 -0.231879 -0.399049 255 255 200
0.184405 -0.218271 -0.399000 255 255 202
0.215796 -0.213322 -0.398919 255 255 201
0.522578 -0.015139 -0.400027 255 255 216
0.477671 -0.035136 -0.400354 255 255 220
0.620849 -0.293258 -0.398626 255 255 213
0.629630 -0.260560 -0.399481 255 255 218
0.457381 -0.464628 -0.409895 255 255 185
0.505935 0.074732 -0.399521 255 255 200
0.701093 -0.173872 -0.437185 51 41 30
0.547127 -0.457286 -0.427060 255 255 187
0.532641 -0.469739 -0.418395 255 255 185
0.516174 -0.493942 -0.405574 158 147 107
0.492658 -0.218096 -0.401035 255 255 254
0.478842 -0.219123 -0.402354 255 255 254
0.742739 -0.140349 -0.645628 25 23 23
0.722900 -0.063264 -0.401288 120 90 48
0.732193 -0.081373 -0.404465 82 72 68
0.737815 -0.032161 -0.408134 85 76 59
0.740906 -0.068791 -0.417465 92 86 69
0.707879 -0.065089 -0.401326 221 174 118
0.742463 -0.065230 -0.413429 82 75 66
0.224983 -0.284772 -0.399014 255 255 195
0.142051 -0.088105 -0.400301 255 255 200
0.440142 0.151369 -0.399287 255 255 194
0.148830 -0.455749 -0.633073 36 34 33
0.147931 -0.444518 -0.638252 38 35 34
0.148551 -0.458333 -0.643016 38 35 34
0.144885 -0.444114 -0.629765 37 35 34
0.139608 -0.433524 -0.622264 39 36 37
0.143111 -0.440328 -0.633862 40 34 37
0.637218 0.118571 -0.398612 255 255 195
0.245983 0.011053 -0.400557 255 255 202
0.472260 0.047997 -0.399636 255 255 203
0.459716 0.087182 -0.400050 255 255 202
0.554834 -0.133792 -0.402076 255 255 254
0.564934 -0.113976 -0.401338 255 255 254
0.678564 -0.178220 -0.398927 246 227 177
0.708105 -0.186347 -0.398815 140 114 87
0.696636 -0.173267 -0.405184 243 208 148
0.693712 -0.194610 -0.404878 180 150 118
0.713676 -0.167441 -0.398728 152 125 94
0.400930 0.092024 -0.399747 255 255 201
0.395296 0.128162 -0.399384 255 255 202
0.544777 -0.053913 -0.400804 255 255 237
0.541305 -0.072886 -0.400741 255 255 247
0.754479 0.123824 -0.418509 39 32 29
0.746524 0.140942 -0.402524 224 186 137
0.758582 0.139286 -0.417654 40 35 32
