ply
format ascii 1.0
element vertex 1204
property float x
property float y
property float z
property uchar red
property uchar green
property uchar blue
end_header
0.444925 -0.381293 0.130882 225 215 196
0.444402 -0.367037 0.147664 214 207 189
0.447073 -0.398683 0.134568 221 207 197
0.445001 -0.367510 0.129156 221 215 190
0.443301 -0.370034 0.112971 240 229 209
0.444530 -0.390670 0.108847 240 228 210
0.479067 -0.649495 0.261854 239 232 215
0.476402 -0.633503 0.276935 241 233 219
0.474900 -0.617430 0.251274 240 232 217
0.476378 -0.627459 0.268796 242 231 216
0.395944 -0.673197 -0.211174 133 98 45
0.005610 -0.762049 -0.008617 55 43 35
0.018969 -0.760476 -0.001666 65 49 31
0.011630 -0.757585 0.004578 61 47 45
0.447775 -0.422749 0.224809 194 183 163
0.455461 -0.430620 0.239462 194 181 162
0.446433 -0.444110 0.222118 198 183 170
0.228814 -0.754779 0.162398 79 79 86
0.194435 -0.760830 0.165597 81 83 91
0.238509 -0.778984 0.171846 91 92 97
0.442894 -0.389865 0.157130 199 189 172
0.444628 -0.383341 0.170464 198 187 169
0.295680 -0.512938 0.219327 212 199 181
0.320315 -0.511433 0.229991 206 194 176
0.306202 -0.509108 0.244833 204 189 166
0.439603 -0.789101 -0.326451 53 36 23
0.438099 -0.489983 -0.144442 137 118 93
0.445297 -0.471095 -0.144252 127 111 86
0.456545 -0.468087 -0.139484 127 115 95
0.410087 -0.692240 -0.141837 150 113 78
0.413651 -0.706317 -0.133256 164 131 97
0.388530 -0.699857 -0.114602 171 136 107
0.410201 -0.712375 -0.129539 166 132 101
0.399688 -0.705486 -0.121158 176 140 109
0.436815 -0.506624 0.525929 189 179 165
0.432250 -0.509244 0.545402 188 175 161
0.430254 -0.513784 0.553028 189 175 161
0.476633 -0.863008 0.221496 246 237 226
0.137565 -0.736911 0.130305 69 63 68
0.183236 -0.734428 0.122287 75 69 66
0.438581 -0.912472 0.171052 190 185 178
0.460253 -0.906351 0.175863 236 228 218
0.456929 -0.888983 0.175679 230 219 206
0.302457 -0.964842 0.165751 78 79 79
0.314193 -0.945632 0.171954 84 80 90
0.301297 -0.940317 0.174813 78 73 89
0.322076 -0.969056 0.168043 80 81 83
0.314693 -0.963705 0.172276 80 76 90
0.190437 -1.001211 0.175071 80 75 80
0.480386 -0.875536 0.281720 247 238 227
0.479904 -0.872299 0.252099 247 241 228
0.479292 -0.881212 0.270613 249 240 230
0.275250 -0.509970 0.024369 252 245 223
0.288156 -0.508270 0.053869 250 242 222
0.329958 -0.414878 0.283313 241 232 218
0.347148 -0.423631 0.281134 241 232 218
0.330274 -0.427972 0.283860 241 232 217
0.447255 -0.299659 0.465622 220 209 197
0.447012 -0.298907 0.482796 209 197 188
0.475682 -0.600110 0.364170 230 222 204
0.376490 -0.740134 0.069640 148 138 129
0.468917 -0.403713 0.245158 219 207 192
0.451178 -0.449687 0.358091 250 241 225
0.266167 -0.521373 0.313903 247 239 215
0.260052 -0.533027 0.337835 245 229 212
0.259953 -0.526878 0.336580 247 236 219
0.268705 -0.523015 0.353749 245 237 218
0.269872 -0.537662 0.335324 242 230 213
0.179949 -0.709667 -0.006582 185 142 93
0.186710 -0.717975 -0.011031 174 134 80
0.412631 -0.668784 0.020820 199 159 111
0.415602 -0.679787 0.022921 201 163 123
0.436068 -0.672952 0.029608 221 196 175
0.465133 -0.729127 0.382143 241 231 219
0.463509 -0.735018 0.393149 240 231 214
0.459265 -0.760875 0.402874 227 214 202
0.447281 -0.251378 0.185644 191 182 164
0.445158 -0.280284 0.211663 188 180 164
0.446714 -0.265540 0.187241 189 181 162
0.491149 -0.697359 -0.376627 126 103 80
0.495266 -0.704291 -0.390166 134 107 89
0.396778 -0.783015 0.168153 70 75 76
0.380984 -0.760258 0.163290 85 76 91
0.407237 -0.755554 0.161853 94 88 95
0.362523 -0.768181 0.165689 72 72 80
0.397260 -0.766840 0.165774 86 86 88
0.470241 -0.638874 0.074800 233 224 207
0.468335 -0.605861 0.063783 233 224 208
0.467784 -0.619494 0.068753 233 225 207
0.444503 -0.373428 0.449776 230 221 204
0.323981 -0.520419 0.451481 218 204 187
0.356842 -0.519683 0.480682 213 200 188
0.361329 -0.519740 0.537334 189 175 162
0.385996 -0.519238 0.549468 186 173 157
0.367149 -0.516233 0.559088 186 172 156
0.348527 -0.518137 0.550774 190 176 164
0.386615 -0.537354 -0.147768 195 174 140
0.399833 -0.563352 -0.147769 208 190 156
0.476103 -0.866945 0.197288 241 234 222
0.471935 -0.845859 0.183468 240 231 220
0.468138 -0.837135 0.179404 240 232 220
0.432877 -0.387108 -0.146178 129 109 80
0.444558 -0.395042 -0.144268 117 101 71
0.443703 -0.648969 -0.255136 170 143 108
0.432347 -0.649828 -0.253890 180 150 111
0.441404 -0.651648 -0.234350 157 124 83
0.434276 -0.656720 -0.250047 175 143 102
0.443374 -0.650419 -0.243722 178 150 114
0.456505 -0.648949 -0.241217 158 133 103
0.447454 -0.288074 0.553306 182 174 161
0.447977 -0.240522 0.540460 181 171 155
0.447690 -0.260005 0.555614 180 171 154
0.448177 -0.268953 0.547209 183 174 160
0.454706 -0.742164 -0.264917 82 69 58
0.454602 -0.727675 -0.259487 106 92 78
0.452094 -0.745597 -0.245283 89 78 53
0.315622 -0.740635 0.147169 59 60 64
0.282683 -0.497818 0.261858 200 184 166
0.275809 -0.511015 0.254482 201 186 164
0.296480 -0.501792 0.256463 198 185 165
0.265496 -0.511710 0.265254 200 186 166
0.430479 -0.743954 0.035532 153 143 134
0.386617 -0.743751 0.034314 127 116 108
0.475491 -0.876102 0.325176 250 241 230
0.480681 -0.884247 0.312324 250 240 230
0.473123 -0.891161 0.325585 250 240 230
0.034304 -0.716627 -0.297945 78 52 31
0.473460 -0.841566 0.347472 247 238 228
0.473561 -0.859285 0.348120 247 237 228
0.470302 -0.841808 0.363944 247 239 228
0.470675 -0.830646 0.360277 243 234 223
0.020845 -0.908910 0.177713 76 85 83
0.032965 -0.934431 0.177333 81 81 84
-0.002201 -0.994617 0.176271 81 80 90
0.171544 -0.747663 0.155981 69 68 80
0.288322 -0.549872 0.563431 227 215 204
0.282176 -0.547491 0.542976 226 213 204
0.295875 -0.549314 0.537893 223 211 199
0.298970 -0.551601 0.554578 226 213 204
0.399483 -0.854716 -0.337831 66 53 36
0.269165 -0.735513 0.060283 69 61 67
0.338498 -0.506246 -0.145408 192 171 135
0.340845 -0.471221 -0.144824 199 176 136
0.419665 -0.378915 -0.017010 254 248 228
0.098653 -0.751810 -0.012599 108 80 52
0.117863 -0.741954 -0.013503 147 109 73
0.113061 -0.731461 -0.013565 167 131 69
0.238667 -0.668970 -0.055276 188 153 113
0.227274 -0.676299 -0.073040 176 144 114
0.220902 -0.672045 -0.068998 173 137 102
0.209361 -0.666352 -0.057702 180 142 108
0.227894 -0.668807 -0.064265 179 143 108
0.423834 -0.744995 0.057537 161 150 141
0.398844 -0.742923 0.064592 150 140 130
0.420196 -0.745702 0.076921 154 144 134
0.437119 -0.745312 0.076532 163 154 145
0.350563 -0.754852 0.005805 74 58 47
0.346682 -0.750789 0.015057 82 74 58
0.383727 -0.742293 -0.010910 127 93 62
0.365356 -0.751674 -0.008316 97 73 46
0.368254 -0.755820 0.005957 77 70 67
0.371621 -0.756838 -0.002411 81 65 47
0.388432 -0.754413 -0.004362 85 68 49
0.357109 -0.743807 -0.011146 115 86 45
0.067166 -0.757586 0.161995 85 87 98
0.125441 -0.756569 0.162416 91 91 101
0.062648 -0.746148 0.152204 67 68 74
0.066312 -0.765075 0.165391 90 91 95
0.121090 -0.763080 0.165565 90 90 100
0.350092 -0.358449 0.270875 171 165 154
0.421924 -0.434107 -0.016110 254 252 234
0.480103 -0.824964 0.285080 247 238 227
0.479980 -0.824357 0.299419 246 238 226
0.480061 -0.819642 0.316098 243 233 222
0.433805 -0.836305 -0.227941 54 40 25
0.197062 -0.775474 0.170592 94 96 91
0.443221 -0.421504 0.439096 234 221 208
0.444059 -0.414413 0.461914 223 210 197
0.441517 -0.443985 0.463173 226 213 199
0.441999 -0.416858 0.447314 231 220 206
0.368818 -0.512773 0.253500 191 178 158
0.349341 -0.510807 0.255969 188 174 152
0.318949 -0.519018 0.430164 219 207 192
0.297430 -0.521590 0.461249 219 207 192
0.159851 -0.607937 -0.145457 214 191 156
0.177558 -0.588905 -0.144937 232 210 178
0.149278 -0.601463 -0.142015 230 207 177
0.186942 -0.600967 -0.144308 223 202 171
0.314906 -0.689770 0.000538 192 152 104
0.352229 -0.679857 0.001845 195 151 98
0.332083 -0.673037 -0.004122 196 156 101
0.338537 -0.676190 -0.000110 199 158 102
0.462402 -0.631675 -0.080028 240 223 205
0.465409 -0.619723 -0.069126 242 228 211
0.346888 -0.668945 -0.050108 196 150 102
0.479621 -0.928095 0.248644 249 240 230
0.385088 -0.519794 0.452408 213 200 186
0.414788 -0.517582 0.474775 211 198 185
0.375326 -0.519892 0.499123 198 186 169
0.414802 -0.516839 0.486222 202 189 178
0.391434 -0.518997 0.486728 200 188 172
0.005362 -0.757854 0.159869 74 76 81
0.012438 -0.767181 0.165421 96 93 108
0.005968 -0.762226 0.162708 89 79 98
0.299216 -0.539883 0.206577 228 215 199
0.283529 -0.535965 0.188348 226 211 199
0.300221 -0.537785 0.184641 228 215 199
0.285996 -0.537984 0.208116 226 213 198
0.431382 -0.377203 -0.011915 253 249 228
0.402689 -0.365266 -0.020037 252 242 218
0.455933 -0.617302 -0.180620 159 144 122
0.473353 -0.812880 0.196749 239 231 221
0.476196 -0.830174 0.210054 238 232 221
0.322268 -0.553008 0.551757 222 209 200
0.459127 -0.717764 0.419481 216 203 192
0.466687 -0.645452 -0.210592 180 156 126
0.445227 -0.643797 -0.209266 180 157 124
0.435258 -0.647593 -0.220335 164 143 111
0.455163 -0.643945 -0.222464 173 152 118
0.458206 -0.644256 -0.234364 145 126 99
0.414896 -0.971005 0.163904 75 76 80
0.411951 -0.969821 0.154788 92 85 83
0.382347 -0.606432 -0.155245 215 194 170
0.353488 -0.623973 -0.167955 207 187 158
0.360772 -0.626633 -0.172724 205 185 154
0.351325 -0.607377 -0.154268 214 192 161
0.068526 -0.711640 -0.252216 69 47 28
0.034942 -0.719074 -0.234513 78 51 34
0.043312 -0.714451 -0.252063 71 53 22
0.028333 -0.719328 -0.251656 89 60 31
0.047495 -0.709148 -0.253706 73 50 25
0.054771 -0.708746 -0.249834 73 50 30
0.037937 -0.716943 -0.267659 77 51 41
0.042468 -0.713934 -0.232842 69 48 28
0.053336 -0.708126 -0.234489 76 49 31
0.412901 -0.653848 -0.153404 187 154 119
0.431156 -0.649004 -0.140131 196 168 137
0.407310 -0.658400 -0.132023 190 158 120
0.404155 -0.660775 -0.108672 186 155 119
0.397408 -0.666031 -0.117765 155 116 66
0.449482 -0.344807 0.331924 252 243 227
0.448290 -0.331205 0.336011 252 242 228
0.448027 -0.347483 0.309234 254 245 229
0.377202 -0.666681 -0.058547 198 156 114
0.441463 -0.495115 0.538960 188 176 165
0.440075 -0.489765 0.552037 187 175 166
0.442862 -0.492479 0.561113 186 179 163
0.297427 -0.481390 -0.021067 254 250 233
0.459911 -0.552470 -0.135146 223 208 193
0.457642 -0.579367 -0.134211 231 219 198
0.466500 -0.557987 -0.114744 229 216 201
0.337922 -0.448575 0.267799 198 184 170
0.318296 -0.447897 0.268169 244 234 217
0.327805 -0.461029 0.269678 229 220 204
0.341279 -0.455591 0.270738 115 110 102
0.323210 -0.476916 0.267232 220 210 195
0.468005 -0.286016 0.254067 232 220 207
0.439579 -0.497690 0.107777 249 241 222
0.435860 -0.502481 0.150511 231 224 204
0.417343 -0.508026 0.121820 230 220 201
0.425507 -0.507017 0.125192 232 222 203
0.440040 -0.498551 0.126744 236 228 209
0.439891 -0.497815 0.146824 226 215 197
0.455721 -0.419480 -0.135701 147 133 118
0.451380 -0.428929 -0.140513 136 118 102
0.332259 -0.499687 0.287325 232 220 199
0.339138 -0.486563 0.283133 240 229 212
0.318918 -0.507403 0.296916 236 224 202
0.346771 -0.506288 0.291278 234 222 203
0.101261 -0.663468 -0.289917 97 68 39
0.076076 -0.667987 -0.291828 94 65 42
0.083643 -0.664167 -0.288658 94 65 40
0.095256 -0.660103 -0.289451 63 44 24
0.409188 -0.518619 0.503590 192 181 166
0.416882 -0.517248 0.518351 188 179 162
0.401137 -0.520143 0.529163 193 180 165
0.388104 -0.519710 0.515168 189 180 162
0.469033 -0.584242 -0.088277 242 229 212
0.470323 -0.573871 -0.101955 237 225 212
0.461740 -0.594417 -0.084065 241 228 210
0.480806 -0.576974 -0.094981 239 226 209
0.482397 -0.565476 -0.103321 237 224 210
0.482950 -0.579738 -0.083875 239 227 208
0.465708 -0.576221 -0.107105 237 226 206
0.471076 -0.640745 -0.226567 169 150 122
0.473738 -0.642399 -0.234305 145 129 103
0.480738 -0.640507 -0.228776 170 151 123
0.471540 -0.706890 0.052499 232 221 208
0.469788 -0.712853 0.064991 231 220 207
0.469154 -0.725193 0.059800 232 219 206
0.487159 -0.570247 0.281025 231 217 202
0.494310 -0.580654 0.280025 231 217 203
0.493979 -0.571733 0.292327 228 214 198
0.390010 -0.506749 0.047061 250 241 219
0.407534 -0.505174 0.016906 247 237 216
0.375412 -0.428703 0.279815 243 233 219
0.396808 -0.420872 0.281974 239 228 214
0.387879 -0.437875 0.280582 245 233 218
0.415298 -0.422355 0.284864 240 229 215
0.403273 -0.432243 0.281320 245 234 219
0.394962 -0.526884 -0.147472 178 157 127
0.448671 -0.333746 0.356106 250 241 226
0.325389 -0.517123 0.553945 185 173 159
0.476565 -0.878868 0.219727 244 237 224
0.474520 -0.884165 0.204184 244 237 224
0.305698 -0.513692 0.556865 197 184 171
0.310368 -0.517173 0.549034 189 176 161
0.286090 -0.521491 0.549266 200 184 171
0.473778 -0.865088 0.185844 241 234 220
0.467243 -0.892782 0.180054 240 230 221
0.474771 -0.881824 0.192709 242 235 222
0.471863 -0.893352 0.184894 240 234 220
0.449387 -0.450797 0.378334 246 238 221
0.259385 -0.527076 0.168550 243 233 213
0.259667 -0.521387 0.160572 252 243 228
0.269945 -0.531401 0.155739 235 224 213
0.271688 -0.514987 0.172717 249 241 221
0.262064 -0.519063 0.177878 254 246 230
0.268459 -0.515967 0.158869 254 246 230
0.398746 -0.841452 0.147716 68 64 66
0.421486 -0.831487 0.168361 199 194 186
0.459058 -0.760015 -0.336738 81 68 54
0.229978 -0.686149 -0.075269 152 118 84
0.478627 -0.670554 0.316188 246 237 224
0.477708 -0.655439 0.319007 245 238 222
0.478592 -0.698950 0.332580 242 234 218
0.478730 -0.677010 0.331384 247 237 224
0.450484 -0.766404 -0.292978 67 54 45
0.449673 -0.762273 -0.265597 57 44 37
0.451878 -0.753088 -0.278798 67 55 47
0.441893 -0.794315 -0.268326 55 41 35
0.426039 -0.855977 0.168797 230 222 207
0.459192 -0.867527 0.176236 237 229 215
0.420539 -0.867613 0.168062 197 191 181
0.445627 -0.893603 0.171896 214 206 196
0.336090 -0.740394 0.038082 84 72 76
0.313173 -0.740980 0.033782 77 70 65
0.442385 -0.783214 -0.251208 51 38 28
0.448339 -0.757108 -0.248807 60 51 39
0.446382 -0.767624 -0.243428 76 56 40
0.079509 -0.731811 0.075866 55 52 53
0.070609 -0.738359 0.051506 61 59 48
0.066484 -0.735378 0.063494 57 58 50
0.376041 -0.510566 -0.147134 177 158 119
0.480957 -0.827799 0.316230 247 238 227
0.441212 -0.239288 0.262397 103 99 91
0.450587 -0.261916 0.260157 169 162 152
0.462899 -0.261675 0.254913 221 208 194
0.454469 -0.276822 0.243738 220 207 194
0.458833 -0.272860 0.253340 221 207 195
0.455492 -0.250430 0.257307 199 190 178
0.273908 -0.473145 0.271383 216 205 190
0.297524 -0.451115 0.265141 209 195 180
0.284679 -0.458818 0.268155 217 203 189
0.265699 -0.456578 0.275904 235 226 209
0.461957 -0.360202 -0.132964 147 133 121
0.457867 -0.392836 -0.133231 134 118 105
0.298117 -0.518455 0.366177 228 219 196
0.461935 -0.616091 0.466795 215 202 187
0.461006 -0.631783 0.444518 214 200 188
0.443937 -0.495598 0.216276 202 189 171
0.448534 -0.492368 0.227975 199 187 172
0.453536 -0.484337 0.240115 196 186 166
0.333163 -0.517216 0.349369 236 222 201
0.210973 -0.734455 0.129869 57 55 54
0.172501 -0.741975 0.147843 68 66 73
0.205519 -0.735817 0.135869 61 61 53
0.441560 -0.313747 0.036954 249 240 221
0.442578 -0.304103 0.019239 250 240 221
0.082130 -0.706221 -0.313603 97 76 52
0.047157 -0.692836 -0.313056 115 86 62
0.061164 -0.699840 -0.316216 112 87 58
0.052639 -0.693537 -0.305509 118 89 68
0.067000 -0.699882 -0.309952 110 87 64
0.068257 -0.681410 -0.306580 131 96 67
0.072621 -0.707680 -0.297564 107 86 68
0.416993 -0.654980 -0.116881 206 179 151
0.150424 -0.732425 0.079139 67 65 64
0.114511 -0.737725 0.053869 48 43 42
0.134304 -0.736513 0.061244 48 48 42
0.099952 -0.731327 0.079869 63 64 62
0.179645 -0.757193 0.000449 66 48 44
0.194022 -0.754395 0.007296 63 51 43
0.171321 -0.752128 -0.011067 90 65 43
0.171023 -0.750718 0.013944 67 58 47
0.152709 -0.758986 -0.004245 64 52 41
0.203095 -0.835066 0.177315 86 88 94
0.450929 -0.749866 -0.310597 65 55 45
0.475622 -0.730896 -0.311201 88 78 67
0.472049 -0.748913 -0.329340 89 73 69
0.074071 -0.791389 0.172739 83 86 92
0.063350 -0.786109 0.171869 94 90 106
0.061567 -0.773850 0.168540 92 96 98
0.099274 -0.771617 0.168249 97 95 96
0.450477 -0.244379 0.408070 243 235 219
0.448572 -0.244663 0.424618 241 235 218
0.498264 -0.575466 0.342386 226 214 195
0.444022 -0.744613 -0.192542 107 80 60
0.471982 -0.644875 0.161448 239 228 217
0.337298 -0.512530 0.208869 211 199 181
0.452821 -0.267248 0.367806 248 239 224
0.453028 -0.248960 0.368807 247 238 223
0.454807 -0.260380 0.389844 247 236 222
0.449082 -0.463353 0.316900 253 250 232
0.445729 -0.427527 0.209968 197 186 169
0.446722 -0.437744 0.201630 199 187 169
0.447331 -0.423485 0.188089 198 189 170
0.451746 -0.365537 0.383802 248 239 223
0.409451 -0.591222 -0.149373 213 195 165
0.439535 -0.606328 -0.151298 212 194 171
0.416007 -0.577906 -0.147983 215 195 163
0.433004 -0.588404 -0.146804 219 200 174
0.469696 -0.688803 0.086993 231 222 211
0.469728 -0.662447 0.096539 232 222 210
0.470139 -0.695920 0.109631 234 224 212
0.470833 -0.672057 0.115487 233 224 209
0.215129 -0.866726 0.177500 85 85 92
0.446868 -0.317839 0.473322 224 217 204
0.319631 -0.695420 -0.079635 117 87 52
0.330938 -0.695147 -0.083136 114 84 50
0.469218 -0.595975 0.455890 211 198 186
0.482885 -0.593585 0.444831 214 200 188
0.481299 -0.592832 0.456447 214 200 188
0.482370 -0.586260 0.439299 212 198 187
0.485251 -0.585973 0.454358 214 201 187
0.310904 -0.669687 -0.030631 191 154 111
0.465946 -0.642757 0.028473 232 218 200
0.466918 -0.650783 0.044173 233 220 206
0.464662 -0.668177 0.043740 233 221 206
0.446222 -0.659828 0.026422 220 202 173
0.457801 -0.670335 0.037197 213 189 160
0.459299 -0.654617 0.031950 230 218 202
0.318051 -0.987081 0.167980 83 84 87
0.442137 -0.320262 0.001807 253 244 227
0.439153 -0.327486 -0.007573 254 246 228
0.090585 -0.678015 -0.307721 126 92 49
0.090974 -0.675383 -0.299997 137 101 58
0.380364 -0.496004 -0.016418 253 248 227
0.322803 -0.492506 -0.018612 252 247 225
0.289038 -0.534959 0.117557 227 213 194
0.331582 -0.738179 0.048557 106 96 93
0.429311 -0.680878 -0.315291 130 102 71
0.440363 -0.685540 -0.324393 129 100 66
0.425352 -0.671297 -0.303561 153 125 88
0.418586 -0.678123 -0.315173 147 116 77
0.402065 -0.517511 0.403686 216 206 191
0.416138 -0.516142 0.423251 218 206 190
0.396218 -0.518487 0.429808 218 205 190
0.389455 -0.511983 0.220660 204 188 170
0.489291 -0.265619 -0.101889 211 200 183
0.499291 -0.716928 -0.422625 119 98 75
0.490609 -0.709790 -0.420983 120 99 75
0.471891 -0.727024 0.115073 225 217 206
0.223716 -0.954725 0.177521 79 81 85
0.462985 -0.713524 0.486520 218 205 194
0.457905 -0.749750 0.480466 217 203 192
0.457485 -0.761571 0.465709 218 204 192
0.435747 -0.893914 -0.302001 61 46 30
0.476923 -0.352624 -0.104756 166 155 140
0.366109 -0.501874 0.285886 230 219 198
0.457704 -0.633308 0.507746 220 208 197
0.462200 -0.609964 0.514516 220 209 198
0.035134 -0.748082 -0.153608 66 47 29
0.020684 -0.743744 -0.147550 63 46 24
0.460652 -0.694521 0.459155 218 202 185
0.462526 -0.699402 0.444475 213 201 189
0.461483 -0.663324 0.461169 215 203 190
0.461587 -0.709790 0.456290 213 203 187
0.320193 -0.549481 0.411774 213 203 185
0.383194 -0.430886 -0.146817 191 171 133
0.360473 -0.411100 -0.145453 189 167 131
0.373156 -0.518880 0.425119 218 205 189
0.044936 -0.987735 0.176110 78 82 84
0.074440 -0.989341 0.175303 79 85 90
0.383793 -0.490009 -0.146865 170 147 110
0.396637 -0.470303 -0.147605 148 125 101
0.413151 -0.487598 -0.147018 153 134 102
0.401771 -0.498882 -0.147667 150 132 98
0.428033 -0.507190 -0.146584 145 122 95
0.420412 -0.528400 -0.147102 157 141 116
0.114799 -0.748249 0.019433 58 47 40
0.461626 -0.785787 -0.382869 52 38 31
0.453157 -0.792396 -0.389733 52 41 26
0.445413 -0.790090 -0.376545 52 38 27
0.262247 -0.534815 0.543460 232 219 204
0.269475 -0.527796 0.550513 229 214 200
0.266682 -0.541232 0.541783 229 216 206
0.268788 -0.522423 0.565765 224 209 196
0.263110 -0.540932 0.555870 231 216 205
0.460372 -0.716690 0.395158 243 228 220
0.464132 -0.687988 0.398959 240 229 215
0.467099 -0.705529 0.374508 242 231 220
0.461879 -0.706078 0.385295 241 229 220
0.441919 -0.493601 0.508569 187 179 164
0.428220 -0.453491 -0.013572 255 255 242
0.473805 -0.702188 0.346813 241 232 218
0.470777 -0.695362 0.366525 241 231 221
0.064991 -0.925515 0.177110 78 77 96
0.508882 -0.559542 0.081774 209 194 180
0.506295 -0.563051 0.078220 225 210 194
0.490980 -0.579756 0.074985 230 216 200
0.490548 -0.562286 0.046975 224 211 189
0.488785 -0.571993 0.052338 226 214 197
0.499333 -0.558369 0.053604 222 208 187
0.499966 -0.564360 0.067245 222 210 189
0.499587 -0.572020 0.069378 227 214 197
0.510841 -0.557581 0.058685 210 197 178
0.287969 -0.619688 -0.168438 192 169 135
0.441982 -0.401082 0.044376 254 245 227
0.444260 -0.411630 0.078047 253 244 227
0.444234 -0.441940 0.083708 255 247 231
0.442028 -0.426971 0.065714 253 244 227
0.445048 -0.750376 -0.141671 100 75 52
0.286998 -0.682824 -0.076674 174 137 107
0.310428 -0.694471 -0.079380 153 122 93
0.311392 -0.682630 -0.078408 178 143 105
0.002797 -0.836547 0.177160 82 78 92
-0.013593 -0.819443 0.175642 85 86 95
0.258567 -0.740736 0.031483 66 62 51
0.267151 -0.743186 0.025035 76 63 49
0.040864 -0.754587 -0.012545 99 74 38
0.042429 -0.731445 -0.014501 168 120 73
0.008096 -0.738378 -0.015276 138 99 64
0.048773 -0.739309 -0.014651 127 90 52
0.422025 -0.333819 0.267413 166 160 149
0.362419 -0.473385 -0.021404 255 252 236
0.333575 -0.482709 -0.021185 254 251 234
0.477652 -0.593803 0.519645 218 205 194
0.476458 -0.593911 0.507585 216 205 192
0.487973 -0.590765 0.507908 190 181 168
0.202497 -0.669014 -0.046903 185 148 112
0.214544 -0.689010 -0.077377 149 116 86
0.204745 -0.685121 -0.076688 155 119 85
0.211560 -0.678267 -0.074365 151 120 90
0.198986 -0.671650 -0.068149 162 127 94
0.444012 -0.331597 0.095703 243 234 214
0.379268 -0.518401 0.388007 224 209 191
0.358307 -0.518394 0.398633 225 213 195
0.065726 -0.716594 -0.010194 188 136 83
0.436138 -0.506069 0.218855 200 190 168
0.415620 -0.512815 0.232531 200 186 166
0.444853 -0.504551 0.234765 195 187 164
0.151482 -0.971012 0.175683 90 84 96
0.137090 -0.953907 0.175950 80 83 77
0.430147 -0.866847 -0.238173 71 50 29
0.433570 -0.888013 -0.257681 42 32 20
0.427924 -0.872339 -0.245787 69 48 28
0.456708 -0.795062 0.176487 230 224 207
0.443962 -0.770017 0.171340 236 227 216
0.465480 -0.810688 0.179778 236 229 214
0.477032 -0.585293 0.430891 213 199 185
0.478587 -0.592696 0.433109 212 198 182
0.468908 -0.594488 0.394655 212 199 184
0.482751 -0.590990 0.412996 211 198 184
0.464093 -0.595229 0.411638 211 197 182
0.441863 -0.495851 0.476186 226 215 202
0.425830 -0.514677 0.498168 200 187 176
0.437079 -0.505847 0.484942 209 199 186
0.478022 -0.594422 0.238865 240 229 214
0.474820 -0.596800 0.238461 239 229 215
0.492599 -0.580939 0.240527 236 226 214
0.475652 -0.598770 0.222618 240 230 215
0.450386 -0.346288 0.346277 250 241 225
0.450239 -0.351978 0.366453 250 241 227
0.448583 -0.408945 0.189013 200 186 173
0.445614 -0.399585 0.201564 194 184 169
0.446168 -0.392954 0.182898 195 185 168
0.279358 -0.536985 0.251464 230 217 204
0.262001 -0.521222 0.249408 244 232 214
0.264749 -0.532953 0.264044 239 228 212
0.254988 -0.525474 0.270627 243 234 216
0.394997 -0.620205 -0.176222 212 191 164
0.417370 -0.614833 -0.175414 206 185 158
0.309400 -0.521602 0.506333 213 201 185
0.312031 -0.521001 0.528948 203 192 176
0.287961 -0.522960 0.535831 213 202 187
0.458574 -0.864291 0.403437 209 198 187
0.327662 -0.531898 0.036050 232 221 202
0.325290 -0.531456 0.014674 229 218 198
0.262593 -0.534069 0.362530 243 231 215
0.261124 -0.528508 0.368137 245 234 218
0.261932 -0.529377 0.356238 244 233 217
0.442409 -0.419668 0.495361 202 189 180
0.442524 -0.444500 0.487125 203 191 179
0.441630 -0.410120 0.486156 191 177 169
0.443018 -0.393287 0.498750 190 177 170
0.443443 -0.428687 0.479329 222 208 198
0.311915 -0.736877 0.137856 122 119 110
0.304646 -0.733715 0.108567 121 114 103
0.311643 -0.735323 0.127609 115 110 104
0.463386 -0.644009 0.404201 234 224 208
0.462241 -0.649100 0.421789 234 225 208
0.460346 -0.634072 0.428367 213 200 186
0.461090 -0.676583 0.426983 215 202 192
0.458980 -0.515156 -0.134529 209 196 179
0.467684 -0.546392 -0.112220 219 207 187
0.460355 -0.537192 -0.134295 220 205 191
0.477712 -0.554272 -0.108005 226 214 190
0.279659 -0.932645 0.177534 88 76 91
0.257823 -0.963969 0.177042 85 82 85
0.277846 -0.959551 0.175943 86 84 93
0.333155 -0.803665 0.157856 73 73 74
0.334052 -0.811109 0.160669 76 75 78
0.352950 -0.815290 0.159496 78 77 86
0.329284 -0.820094 0.159984 73 75 73
0.351496 -0.815853 0.167563 85 86 94
0.343475 -0.825988 0.161918 78 78 80
0.361854 -0.823730 0.163888 77 76 83
0.292788 -0.732854 0.085525 76 78 73
0.460470 -0.754028 0.535009 224 211 201
0.458345 -0.768318 0.540726 226 213 204
0.463496 -0.729146 0.545340 225 214 202
0.461190 -0.746935 0.559772 224 216 199
0.461106 -0.751721 0.550789 226 214 201
0.473388 -0.783159 0.205037 242 235 224
0.470323 -0.809927 0.184146 238 231 219
0.472225 -0.796055 0.188783 240 233 222
0.422434 -0.515187 0.314781 252 246 227
0.425775 -0.803690 -0.333495 47 35 20
0.434720 -0.788393 -0.363521 50 37 23
0.422313 -0.799816 -0.344451 45 32 24
0.425706 -0.793874 -0.352899 52 38 23
0.433570 -0.792848 -0.335583 52 36 21
0.466032 -0.594694 0.046530 231 220 205
0.470324 -0.601686 0.076334 232 220 208
0.484242 -0.586804 0.081622 232 217 202
0.469847 -0.591246 0.068789 231 219 204
0.481760 -0.586657 0.070689 233 220 198
0.460673 -0.580010 -0.122280 234 222 204
0.458596 -0.595766 -0.130464 237 222 202
0.398060 -0.923096 0.156373 72 68 67
0.411663 -0.934693 0.160998 96 90 87
0.419797 -0.929018 0.164246 112 113 107
0.423363 -0.947433 0.166471 90 90 87
0.433702 -0.936523 0.167702 207 200 190
0.408647 -0.929580 0.157608 97 92 88
0.477675 -0.830546 0.252717 245 235 226
0.204527 -0.670368 -0.030631 185 148 117
0.315397 -0.971443 0.166146 81 82 86
0.428856 -0.694160 -0.225570 112 85 44
0.409466 -0.683320 -0.217926 113 84 50
0.445186 -0.344475 0.184199 192 184 168
0.447516 -0.327079 0.206893 193 180 163
0.446447 -0.346380 0.203672 191 180 166
0.450674 -0.315721 0.369183 250 239 224
0.449781 -0.338723 0.381044 248 237 220
0.448941 -0.345175 0.389961 247 237 227
0.275586 -0.484618 -0.023134 252 246 225
0.292940 -0.493891 -0.018410 252 246 225
0.289545 -0.501480 -0.012398 251 244 222
0.277150 -0.498233 -0.018367 249 242 221
0.444305 -0.314631 0.300400 254 246 230
0.447981 -0.314300 0.305894 255 247 232
0.411755 -0.917657 0.143113 59 59 58
0.415023 -0.932358 0.140432 33 31 29
0.416021 -0.926469 0.143165 36 35 32
0.458845 -0.731445 0.440553 214 200 189
0.458089 -0.751437 0.422055 213 199 185
0.458466 -0.736027 0.405392 214 198 186
0.459885 -0.732471 0.419969 213 200 186
0.460026 -0.723481 0.436958 214 201 188
0.445767 -0.276074 0.147210 210 200 184
0.445855 -0.290403 0.132677 230 219 203
0.403434 -0.482727 -0.019876 254 252 237
0.422768 -0.482000 -0.016930 255 253 238
0.454024 -0.642981 -0.079608 231 214 196
0.445698 -0.645384 -0.099852 219 194 170
0.360746 -0.401128 -0.020972 252 242 221
0.393899 -0.409002 -0.020411 253 245 223
0.436405 -0.768247 -0.217778 63 51 35
0.435824 -0.782124 -0.227828 82 64 40
0.353482 -0.738137 0.057869 111 106 97
0.410379 -0.517874 0.456118 217 203 192
0.407475 -0.517620 0.442082 219 206 192
0.425751 -0.513525 0.438510 221 208 193
0.427302 -0.821211 -0.266428 53 43 25
0.427142 -0.836542 -0.265129 49 37 21
0.429187 -0.850896 -0.257134 41 31 19
0.431239 -0.826912 -0.233602 55 39 24
0.427610 -0.834198 -0.252376 52 40 22
0.423057 -0.797522 -0.393448 109 80 50
0.417131 -0.796821 -0.379254 54 39 19
0.425981 -0.793065 -0.371987 49 36 22
0.414250 -0.802513 -0.381559 51 35 20
0.420626 -0.798946 -0.363229 50 34 22
0.340979 -0.507971 0.067619 239 230 211
0.304736 -0.802532 0.173573 81 86 88
0.326869 -0.815566 0.172128 83 85 87
0.297814 -0.829529 0.174656 88 89 96
0.445802 -0.412539 0.149092 216 206 190
0.459537 -0.302943 0.245645 205 192 178
0.466545 -0.313183 0.249202 224 212 199
0.462569 -0.326116 0.249182 223 211 197
0.463388 -0.292584 0.249520 231 217 206
0.461397 -0.302850 0.254001 221 211 197
0.348565 -0.738554 0.136053 127 121 114
0.349480 -0.741193 0.145159 120 113 108
0.417255 -0.509358 0.167031 205 193 172
0.430416 -0.506211 0.160352 205 194 176
0.305525 -0.548458 0.411366 213 200 184
0.417394 -0.380319 -0.147079 131 114 84
0.411887 -0.424426 -0.147139 133 113 83
0.393530 -0.422095 -0.146975 170 151 112
0.274693 -0.994983 0.173988 75 77 85
0.083328 -0.744765 -0.013985 128 92 54
0.430309 -0.743466 0.143759 166 155 152
0.416692 -0.745848 0.115013 154 144 136
0.420888 -0.743479 0.131989 161 148 141
0.214589 -0.735292 0.060813 50 44 44
0.362599 -0.505621 0.012751 236 224 201
0.388113 -0.500565 -0.011017 238 228 199
0.483179 -0.226142 -0.101813 163 153 139
0.067939 -0.912527 0.177231 80 84 87
-0.034899 -0.886942 0.177974 85 79 92
-0.003698 -0.915054 0.178369 80 81 89
-0.057194 -0.931476 0.177895 75 80 84
0.434240 -0.916717 -0.275442 58 42 22
0.432622 -0.906200 -0.272580 43 26 19
0.413726 -0.886552 0.163840 196 193 182
0.410499 -0.870018 0.159317 68 67 66
0.412485 -0.866856 0.164405 88 86 92
0.459104 -0.632479 0.462263 215 203 190
0.460647 -0.654737 0.448998 215 204 190
0.461218 -0.667500 0.451207 214 203 191
0.462239 -0.663314 0.438522 214 201 190
0.079683 -0.685981 0.008332 196 148 97
0.036903 -0.694011 0.005012 175 124 76
0.064680 -0.703745 -0.002165 176 125 71
0.310015 -0.541525 0.278181 214 202 185
0.316629 -0.540499 0.286080 233 219 204
0.471473 -0.705379 0.128098 232 223 210
0.472283 -0.692698 0.140085 235 226 212
0.451155 -0.452133 0.810886 217 205 194
0.328806 -0.500200 0.570806 191 180 165
0.329739 -0.492035 0.580104 201 189 175
0.344269 -0.503507 0.571004 188 176 162
0.328575 -0.511586 0.562637 194 182 164
0.341464 -0.500403 0.586942 233 222 207
0.329580 -0.499695 0.588381 234 224 210
0.459927 -0.235738 0.895165 165 153 143
0.422519 -0.521979 0.642406 230 219 204
0.447626 -0.484291 0.739019 242 235 225
0.449173 -0.465991 0.755587 240 230 221
0.484964 -0.596093 0.565005 223 211 198
0.479425 -0.593754 0.594336 216 202 194
0.470284 -0.595213 0.578449 222 212 197
0.443143 -0.363830 0.611692 246 239 224
0.447692 -0.354464 0.631300 246 238 228
0.448892 -0.361554 0.763079 236 227 220
0.456456 -0.283589 0.812015 211 201 190
0.322930 -0.530027 0.747869 219 204 191
0.271681 -0.543635 0.619576 228 215 204
0.272161 -0.545114 0.592229 227 211 199
0.287801 -0.550511 0.595048 224 211 201
0.268731 -0.538935 0.699853 230 218 207
0.276957 -0.533732 0.700299 230 218 206
0.271444 -0.543692 0.704592 230 220 208
0.324174 -0.558559 0.729876 198 188 177
0.450147 -0.346346 0.794731 233 222 212
0.450829 -0.331128 0.807966 221 210 198
0.283188 -0.513270 0.599807 233 220 209
0.311772 -0.513986 0.606677 230 218 205
0.290351 -0.523313 0.616024 228 217 201
0.318131 -0.522217 0.621364 226 214 198
0.306438 -0.506711 0.599994 234 222 206
0.303920 -0.516496 0.610338 226 214 198
0.354029 -0.529404 0.759060 212 199 190
0.342980 -0.530541 0.792869 205 195 182
0.460705 -0.641574 0.561148 229 215 206
0.461545 -0.657518 0.565516 228 215 206
0.447385 -0.383583 0.639788 244 237 225
0.448918 -0.381674 0.666697 245 236 224
0.354717 -0.528483 0.723369 218 203 189
0.388643 -0.528045 0.761345 217 205 191
0.458415 -0.233996 0.789754 233 223 213
0.456768 -0.594985 0.673600 207 198 186
0.459576 -0.599128 0.682510 220 211 198
0.316135 -0.531397 0.763869 217 202 194
0.318376 -0.531308 0.785869 217 203 193
0.464515 -0.591483 0.616207 110 106 98
0.455112 -0.591089 0.614649 219 208 195
0.476043 -0.595400 0.603781 225 212 200
0.460859 -0.596350 0.587444 221 207 199
0.463667 -0.732267 0.571892 228 216 202
0.379504 -0.526238 0.644620 225 212 196
0.346523 -0.526258 0.642179 227 212 198
0.463028 -0.653659 0.621605 225 215 201
0.450780 -0.383059 0.764996 235 226 214
0.451678 -0.397638 0.788789 233 223 213
0.435191 -0.365876 0.582258 226 219 205
0.428265 -0.362976 0.590099 230 223 208
0.462743 -0.649663 0.639550 226 215 204
0.339101 -0.521549 0.610086 227 214 198
0.349008 -0.515875 0.598886 233 221 205
0.359516 -0.523141 0.610041 231 219 204
0.345537 -0.522973 0.620720 228 213 200
0.327002 -0.557704 0.694220 212 202 190
0.335485 -0.528707 0.714369 218 207 193
0.463964 -0.707654 0.617500 227 215 208
0.461759 -0.691483 0.608898 225 214 204
0.462947 -0.710173 0.592650 225 214 205
0.325504 -0.513672 0.600096 230 218 206
0.324506 -0.524284 0.629463 226 211 195
0.292269 -0.526745 0.631019 232 220 205
0.322392 -0.529683 0.731415 220 206 192
0.292219 -0.532050 0.719869 224 209 196
0.449617 -0.322138 0.689109 242 232 219
0.433299 -0.353400 0.593539 235 227 211
0.445771 -0.340199 0.566289 181 171 160
0.436249 -0.329586 0.580187 193 184 171
0.432257 -0.320028 0.582955 228 218 206
0.442738 -0.342114 0.574652 224 216 202
0.430291 -0.320408 0.590790 234 225 213
0.428784 -0.337288 0.591606 235 227 214
0.425519 -0.343718 0.590502 235 227 211
0.427494 -0.348450 0.585553 231 223 207
0.326847 -0.526916 0.664912 223 211 195
0.309840 -0.526603 0.645806 224 212 197
0.446699 -0.420803 0.641184 246 237 226
0.446040 -0.438030 0.634025 246 237 225
0.446260 -0.432804 0.651240 245 237 221
0.375534 -0.524864 0.630510 227 212 198
0.449813 -0.441928 0.763072 239 228 217
0.448565 -0.427532 0.730033 241 230 218
0.450702 -0.348863 0.769390 236 227 216
0.449468 -0.359209 0.749330 238 227 218
0.449725 -0.343788 0.729968 239 228 217
0.285292 -0.535385 0.760869 226 212 202
0.274235 -0.539808 0.760942 227 216 206
0.276256 -0.548285 0.782789 228 217 207
0.290229 -0.554013 0.757238 228 216 206
0.295276 -0.533242 0.790298 219 208 193
0.286226 -0.552642 0.784441 230 217 207
0.274775 -0.537699 0.786978 220 211 195
0.275155 -0.546972 0.755897 229 217 207
0.277488 -0.538076 0.768946 226 214 201
0.271637 -0.544048 0.778830 229 217 207
0.296820 -0.533178 0.761369 223 210 198
0.443251 -0.508185 0.693045 247 236 225
0.433760 -0.519015 0.689712 233 222 210
0.436027 -0.518239 0.701719 239 229 218
0.448355 -0.497800 0.731548 244 236 225
0.447027 -0.498555 0.710209 244 235 224
0.431283 -0.519971 0.714822 235 226 211
0.443164 -0.511066 0.711551 241 230 219
0.285401 -0.515854 0.559110 197 184 171
0.309488 -0.553717 0.648852 223 212 200
0.443976 -0.313716 0.621048 246 238 225
0.461176 -0.236403 0.865413 165 155 143
0.269407 -0.542343 0.794558 222 213 201
0.442639 -0.475484 0.624570 248 239 226
0.434101 -0.491698 0.605653 247 240 223
0.439277 -0.463920 0.616614 247 239 223
0.434362 -0.477807 0.609770 248 238 225
0.446317 -0.323486 0.565427 182 170 160
0.445330 -0.319261 0.571574 188 179 166
0.438019 -0.310611 0.581885 226 216 205
0.453138 -0.458483 0.794551 236 228 213
0.449070 -0.489557 0.763664 240 230 220
0.452777 -0.462478 0.771499 239 228 217
0.270619 -0.534084 0.665071 232 220 208
0.268238 -0.541391 0.673847 232 220 207
0.271952 -0.535362 0.682832 230 219 206
0.288552 -0.528268 0.663458 230 217 204
0.441386 -0.513768 0.657270 242 234 218
0.444591 -0.508013 0.653365 245 237 223
0.433602 -0.517071 0.637618 238 230 216
0.310944 -0.529256 0.716716 225 215 202
0.449917 -0.342133 0.655615 245 235 224
0.448164 -0.361118 0.675359 244 235 221
0.461325 -0.594831 0.666117 205 192 181
0.494793 -0.596656 0.657881 201 189 177
0.447418 -0.283243 0.565142 183 170 161
0.448548 -0.268389 0.563978 183 170 161
0.446363 -0.256562 0.571945 184 171 162
0.446529 -0.263939 0.578451 230 221 210
0.437653 -0.255869 0.588276 230 221 210
0.275132 -0.545740 0.646457 225 214 203
0.272044 -0.545272 0.659820 228 216 205
0.284856 -0.549335 0.621050 225 214 203
0.304314 -0.554114 0.625356 224 214 203
0.303136 -0.554321 0.649923 226 212 203
0.449211 -0.425210 0.806610 226 213 201
0.449370 -0.437690 0.801692 226 214 200
0.450505 -0.410256 0.821710 209 198 186
0.451478 -0.428245 0.823537 209 198 186
0.444657 -0.256509 0.611317 246 238 227
0.446021 -0.265227 0.608172 246 238 228
0.447358 -0.245240 0.598245 243 235 224
0.444249 -0.274697 0.600034 243 234 223
0.448788 -0.274917 0.618771 247 238 229
0.446057 -0.419276 0.670086 243 235 222
0.463357 -0.670953 0.612875 226 215 204
0.455615 -0.294724 0.777033 238 226 218
0.455667 -0.272069 0.769974 238 226 217
0.456791 -0.254475 0.770012 232 226 215
0.457136 -0.247485 0.782593 233 227 216
0.448442 -0.379160 0.701619 242 231 220
0.467320 -0.607440 0.696554 221 211 196
0.466089 -0.623982 0.688742 223 212 201
0.286585 -0.531354 0.687928 228 216 203
0.312718 -0.527241 0.676913 221 209 195
0.421306 -0.523684 0.700903 228 220 207
0.416331 -0.524278 0.727302 223 214 200
0.418001 -0.523805 0.687964 232 220 206
0.455862 -0.232046 0.879927 166 154 144
0.453245 -0.281147 0.707400 242 231 225
0.452885 -0.254871 0.703867 241 231 219
0.453865 -0.241687 0.722775 239 229 223
0.453399 -0.259427 0.723794 240 229 222
0.452421 -0.379095 0.846750 170 157 148
0.448939 -0.296657 0.638341 247 239 227
0.447819 -0.316350 0.634070 247 238 227
0.448164 -0.320853 0.647531 245 235 223
0.444529 -0.358224 0.568503 181 169 158
0.390083 -0.522703 0.621945 231 217 202
0.395420 -0.523757 0.613335 230 218 202
0.421612 -0.519912 0.627959 232 219 208
0.409608 -0.519344 0.620210 231 220 204
0.427514 -0.513386 0.617166 232 221 206
0.406713 -0.517774 0.602219 235 226 210
0.423550 -0.515920 0.611158 233 222 205
0.410171 -0.521232 0.611780 229 219 202
0.435450 -0.519468 0.738772 229 221 205
0.487799 -0.592268 0.560309 216 205 193
0.492161 -0.596857 0.574094 216 205 192
0.483893 -0.593781 0.582335 216 205 192
0.491431 -0.589926 0.576449 216 206 192
0.486405 -0.594980 0.647152 209 196 187
0.445705 -0.443238 0.672971 245 237 222
0.353252 -0.527377 0.661832 222 210 195
0.358478 -0.527993 0.691492 220 209 195
0.347950 -0.528046 0.701228 221 209 196
0.350121 -0.526841 0.676319 223 211 196
0.449893 -0.263906 0.657132 246 236 227
0.451621 -0.259611 0.671253 244 236 226
0.451367 -0.262805 0.690911 243 232 224
0.380387 -0.518458 0.600790 235 225 207
0.464194 -0.611640 0.656316 225 213 201
0.460821 -0.688920 0.557859 226 216 207
0.460949 -0.684129 0.591610 225 216 205
0.462418 -0.669282 0.600113 226 216 204
0.459804 -0.707272 0.555719 228 216 205
0.456086 -0.226240 0.636187 247 237 227
0.450228 -0.245195 0.625138 247 238 228
0.367158 -0.530584 0.787366 212 199 187
0.448720 -0.334559 0.635498 246 238 228
0.319565 -0.560772 0.751206 226 214 204
0.319912 -0.561414 0.774228 219 207 197
0.301633 -0.558743 0.773427 227 216 206
0.463665 -0.664900 0.634885 226 214 204
0.462495 -0.685914 0.626003 225 215 204
0.465280 -0.657705 0.653912 226 214 204
0.426109 -0.395682 0.586756 234 225 212
0.426570 -0.408349 0.588515 235 224 212
0.428367 -0.400054 0.593365 242 233 220
0.437580 -0.511176 0.569672 191 180 164
0.423772 -0.520524 0.566542 171 159 145
0.454428 -0.294020 0.878723 168 156 144
0.452823 -0.293054 0.735649 239 229 219
0.453330 -0.300133 0.752271 238 228 220
0.457832 -0.242412 0.806002 230 220 209
0.454788 -0.274659 0.786244 229 218 211
0.457661 -0.256211 0.797264 222 214 201
0.449824 -0.510948 0.777725 234 228 212
0.435509 -0.521354 0.767273 234 219 207
0.444514 -0.468102 0.650965 245 237 222
0.444977 -0.496679 0.639840 248 239 226
0.444942 -0.469866 0.638483 245 238 224
0.445014 -0.445440 0.647471 244 237 225
0.486945 -0.595648 0.618095 167 159 150
0.491855 -0.595801 0.607675 167 157 149
0.493078 -0.595330 0.625233 110 105 99
0.406961 -0.524980 0.640553 227 212 197
0.402578 -0.525702 0.653074 227 216 199
0.390771 -0.527093 0.663060 224 214 195
0.454150 -0.313482 0.783772 234 223 213
0.453413 -0.328269 0.789701 234 222 212
0.456245 -0.303476 0.797157 230 219 207
0.455062 -0.306277 0.813162 211 201 191
0.405119 -0.514425 0.575720 171 159 142
0.392298 -0.514267 0.576043 138 130 118
0.418907 -0.512551 0.599903 237 228 211
0.414508 -0.514984 0.577382 185 176 161
0.407757 -0.512375 0.582817 224 216 201
0.414439 -0.503166 0.591919 238 229 213
0.392699 -0.512254 0.586353 221 212 196
0.399927 -0.509619 0.591616 238 229 212
0.389746 -0.511537 0.592442 234 225 210
0.405185 -0.512969 0.587818 230 221 206
0.416152 -0.506312 0.584555 226 216 203
0.442022 -0.494911 0.622164 249 240 226
0.439712 -0.505181 0.622624 248 240 225
0.424648 -0.504788 0.597364 243 234 218
0.429158 -0.509210 0.607359 242 235 218
0.444430 -0.303901 0.561205 183 171 160
0.263806 -0.538467 0.633400 229 217 206
0.270993 -0.532186 0.625231 234 221 211
0.269081 -0.533974 0.645502 236 225 214
0.265269 -0.538425 0.655257 228 216 206
0.281505 -0.529628 0.639092 235 224 213
0.404582 -0.526049 0.708392 224 213 200
0.401818 -0.526284 0.725549 223 213 199
0.288855 -0.484586 0.582261 222 212 198
0.307778 -0.485066 0.578232 202 190 176
0.299255 -0.484552 0.589567 234 227 212
0.314055 -0.489811 0.589078 236 226 213
0.447864 -0.435510 0.572208 196 184 172
0.444527 -0.449005 0.575458 205 196 184
0.422131 -0.420943 0.585271 239 230 218
0.442261 -0.415763 0.570253 190 178 166
0.440977 -0.437707 0.579417 220 210 199
0.436931 -0.421059 0.602851 243 233 221
0.441268 -0.407904 0.575690 193 181 170
0.437121 -0.421084 0.579011 195 184 173
0.463251 -0.622972 0.561842 229 215 206
0.462940 -0.606571 0.582199 226 215 205
0.462867 -0.631934 0.580695 227 214 204
0.310007 -0.551276 0.571043 225 215 201
0.302955 -0.551696 0.585417 225 213 201
0.278319 -0.547058 0.578051 228 214 201
0.458206 -0.306501 0.859694 166 156 146
0.456805 -0.328246 0.857580 167 153 144
0.447160 -0.460912 0.711281 242 233 220
0.448306 -0.444464 0.710151 242 233 219
0.447906 -0.489060 0.701934 243 234 221
0.448795 -0.462551 0.729487 241 233 222
0.447396 -0.472338 0.710660 243 234 225
0.449342 -0.406967 0.806954 219 210 198
0.457257 -0.297981 0.825540 190 181 170
0.456438 -0.299388 0.847369 175 166 156
0.453001 -0.319512 0.841983 173 161 150
0.370138 -0.523505 0.622566 227 215 199
0.370302 -0.524234 0.615754 226 214 199
0.450768 -0.349523 0.712707 241 230 217
0.449909 -0.354502 0.694847 241 231 219
0.405854 -0.520081 0.565127 163 155 135
0.397344 -0.516805 0.560543 166 155 134
0.462887 -0.667308 0.587649 227 216 203
0.462682 -0.676015 0.558884 226 216 207
0.459096 -0.594103 0.603673 226 212 200
0.462287 -0.601585 0.618040 224 213 201
0.462241 -0.615084 0.606436 224 215 204
0.462294 -0.603154 0.628565 225 212 204
0.462905 -0.616997 0.626800 226 214 204
0.446824 -0.383532 0.625711 246 238 226
0.447172 -0.406258 0.625270 246 238 226
0.430654 -0.521239 0.671159 234 222 207
0.443693 -0.506807 0.672361 242 232 221
0.463098 -0.634748 0.648372 225 212 202
0.464033 -0.614988 0.675803 224 212 200
0.459592 -0.239421 0.820617 199 189 179
0.460443 -0.233653 0.851982 172 163 154
0.461036 -0.229453 0.833567 188 178 169
0.443244 -0.449105 0.622382 246 239 225
0.445054 -0.422920 0.624967 245 238 221
0.442238 -0.477569 0.566390 187 177 162
0.441931 -0.447048 0.567878 189 178 164
0.442239 -0.466982 0.558517 185 175 162
0.462914 -0.696047 0.629206 223 215 206
0.454403 -0.392471 0.835570 176 164 154
0.450560 -0.443443 0.749845 240 227 218
0.451102 -0.456138 0.756724 240 228 217
0.457097 -0.323018 0.869504 165 153 141
0.256988 -0.532967 0.576577 234 223 209
0.271894 -0.510088 0.576112 228 217 205
0.258971 -0.530800 0.569207 231 222 207
0.259197 -0.537804 0.557581 233 221 207
0.260382 -0.533555 0.593211 239 227 214
0.448849 -0.401333 0.716422 241 229 217
0.451498 -0.413070 0.749744 237 227 216
0.297704 -0.505209 0.598853 233 223 212
0.282697 -0.495649 0.572405 221 211 201
0.275906 -0.492575 0.579385 228 220 205
0.271935 -0.507446 0.587349 227 218 199
0.282366 -0.495445 0.589494 233 223 212
0.433935 -0.454211 0.608042 247 238 224
0.438013 -0.442340 0.611914 247 238 223
0.450906 -0.310965 0.702591 242 230 221
0.454191 -0.294330 0.710696 240 231 226
0.315759 -0.558413 0.721013 225 215 205
0.321617 -0.556012 0.710018 224 215 202
0.357152 -0.507828 0.590715 234 223 207
0.367843 -0.516076 0.589940 166 158 145
0.349576 -0.506311 0.579540 173 164 150
0.359571 -0.511149 0.576801 117 111 99
0.354367 -0.511302 0.565560 181 170 151
0.362066 -0.514142 0.586636 192 184 171
0.452225 -0.289770 0.683087 243 234 224
0.451741 -0.303679 0.682081 242 233 223
0.450196 -0.339165 0.678046 244 234 222
0.451681 -0.287513 0.664716 245 236 225
0.449887 -0.322890 0.663308 244 236 224
0.448576 -0.395978 0.659813 246 236 224
0.383081 -0.526621 0.678059 224 212 197
0.375916 -0.520756 0.563176 167 156 139
0.437801 -0.277220 0.591133 240 232 221
0.435600 -0.301027 0.583158 228 220 209
0.434360 -0.297249 0.587170 228 221 208
0.447371 -0.281125 0.579004 200 190 181
0.440536 -0.297846 0.573193 203 194 181
0.428181 -0.306529 0.591991 239 231 220
0.446882 -0.423695 0.717113 243 232 218
0.447476 -0.425104 0.700654 242 231 219
0.449052 -0.409943 0.696839 242 232 217
0.445630 -0.430337 0.684631 242 232 221
0.411809 -0.525367 0.664425 228 216 201
0.404408 -0.525350 0.680894 227 215 201
0.399053 -0.527089 0.699030 221 212 198
0.440451 -0.319077 0.610838 247 238 224
0.446534 -0.335238 0.623580 246 238 223
0.440236 -0.321825 0.602240 244 234 223
0.441802 -0.341749 0.614299 246 237 225
0.439845 -0.347723 0.601782 246 237 226
0.438659 -0.349831 0.607880 246 238 226
0.435567 -0.321847 0.598316 245 236 224
0.446185 -0.467038 0.666503 244 236 224
0.445206 -0.488629 0.678943 246 237 223
0.447500 -0.479263 0.691624 245 236 224
0.447946 -0.460306 0.681817 244 234 223
0.445166 -0.487642 0.665981 244 238 227
0.447704 -0.368038 0.663585 244 234 223
0.449065 -0.406462 0.684078 244 233 223
0.449527 -0.393464 0.694202 244 231 222
0.450875 -0.293685 0.648225 247 238 228
0.449718 -0.262177 0.626525 247 238 229
0.449174 -0.264093 0.646846 246 237 229
0.456210 -0.241355 0.753282 237 228 220
0.311202 -0.557102 0.677182 227 215 206
0.457447 -0.348586 0.858524 167 155 146
0.454960 -0.345723 0.846892 167 155 146
0.452568 -0.372239 0.834499 180 168 156
0.452359 -0.316391 0.716888 241 229 220
0.451185 -0.329970 0.702239 241 229 221
0.277015 -0.537127 0.747869 226 216 204
0.275474 -0.547468 0.731632 229 217 205
0.271411 -0.543202 0.751126 229 218 206
0.286744 -0.552875 0.732781 229 217 205
0.303237 -0.557667 0.735263 227 215 204
0.382037 -0.527975 0.715416 220 208 196
0.299853 -0.500189 0.566971 192 181 162
0.468705 -0.595989 0.658812 218 208 197
0.458553 -0.593761 0.640313 219 206 197
0.465993 -0.594229 0.632434 217 204 191
0.479847 -0.592198 0.636564 191 182 172
0.466649 -0.592572 0.643242 208 196 188
0.483991 -0.593864 0.630268 168 158 147
0.450009 -0.342599 0.779328 234 223 212
0.453418 -0.336977 0.754185 236 225 218
0.452362 -0.320245 0.764004 237 226 216
0.292488 -0.552768 0.677434 230 219 206
0.288211 -0.551464 0.659745 232 220 207
0.272685 -0.545509 0.684890 229 218 204
0.454302 -0.304329 0.724961 239 230 221
0.452158 -0.316191 0.736503 238 229 219
0.452127 -0.305710 0.744876 238 227 221
0.458746 -0.595549 0.698741 207 197 185
0.459694 -0.595997 0.708463 218 208 195
0.453718 -0.592237 0.711833 195 185 173
0.450338 -0.406426 0.733955 238 228 221
0.447277 -0.376550 0.720418 240 229 219
0.451622 -0.391222 0.750558 238 227 213
0.449109 -0.374327 0.742708 237 228 215
0.411861 -0.525351 0.745369 221 210 197
0.423471 -0.523679 0.751744 218 208 196
0.395345 -0.528914 0.775064 218 208 195
0.451562 -0.364826 0.815955 221 209 198
0.451168 -0.363130 0.782573 227 217 204
0.454596 -0.346274 0.828914 203 193 183
0.451380 -0.486830 0.786423 237 227 217
0.425684 -0.428460 0.587921 239 230 217
0.429275 -0.457849 0.596403 244 233 221
0.434347 -0.445039 0.599680 245 233 222
0.425352 -0.470799 0.595252 243 236 220
0.430726 -0.432791 0.583309 227 217 205
0.439716 -0.460401 0.579480 226 216 204
0.420207 -0.446341 0.587302 233 222 210
0.421384 -0.455037 0.587983 232 223 210
0.416170 -0.462259 0.587836 231 222 209
0.450551 -0.450661 0.731242 241 231 219
0.449627 -0.504128 0.762565 241 232 218
0.443543 -0.515890 0.763328 236 226 213
0.447125 -0.504056 0.723393 243 232 222
0.444660 -0.512222 0.739977 238 229 216
0.435946 -0.476897 0.579236 222 212 199
0.436372 -0.495209 0.569030 195 182 169
0.438978 -0.466854 0.573185 199 191 174
0.431507 -0.466560 0.580101 223 213 201
0.439509 -0.360130 0.576876 197 188 177
0.439830 -0.378059 0.576014 197 187 177
0.438209 -0.392401 0.571401 191 178 166
0.431539 -0.408542 0.582754 222 212 200
0.437407 -0.394829 0.578380 222 212 201
0.425787 -0.373071 0.589606 234 226 210
0.433337 -0.379768 0.582387 227 217 204
0.419885 -0.384740 0.590390 233 222 209
0.453998 -0.277914 0.739674 239 229 220
0.453580 -0.273250 0.750436 237 229 220
0.455805 -0.256355 0.743231 238 227 221
0.272678 -0.539072 0.713905 230 220 206
0.271447 -0.543017 0.728956 228 219 204
0.448591 -0.369341 0.645181 249 238 227
0.448186 -0.354033 0.651855 245 235 224
0.461540 -0.646335 0.603431 225 215 204
