ply
format ascii 1.0
element vertex 1222
property float x
property float y
property float z
property uchar red
property uchar green
property uchar blue
end_header
0.609428 -0.490908 -0.350638 70 54 26
0.628672 -0.486173 -0.369932 106 86 56
0.608411 -0.490304 -0.365126 88 70 41
0.569034 -0.519910 -0.331462 71 56 33
0.652365 -0.473653 -0.434255 58 45 29
0.655932 -0.467666 -0.441092 23 19 14
0.632863 -0.479196 -0.428231 54 43 26
0.654024 -0.468178 -0.428148 75 62 41
0.569645 -0.509333 -0.482438 117 95 66
0.572651 -0.515720 -0.460426 84 64 41
0.571118 -0.514404 -0.451280 92 70 40
0.601795 -0.486182 -0.449967 67 51 24
0.582523 -0.494238 -0.432116 128 100 62
0.573309 -0.508131 -0.440583 104 84 51
0.594102 -0.489975 -0.433583 143 114 74
0.577625 -0.514310 -0.430391 106 85 49
0.579905 -0.499199 -0.437046 121 97 58
0.584718 -0.495085 -0.418486 104 80 45
0.604634 -0.484264 -0.441930 43 37 23
0.644306 -0.466927 -0.366810 38 32 24
0.650717 -0.470866 -0.368405 39 33 24
0.648528 -0.477827 -0.359455 60 47 32
0.601094 -0.480559 -0.558102 24 16 8
0.600566 -0.477532 -0.544504 42 29 15
0.638609 -0.480013 -0.423165 49 41 26
0.607413 -0.486498 -0.431377 43 37 23
0.611520 -0.484032 -0.421952 44 38 25
0.511260 -0.483018 0.412391 137 124 104
0.509786 -0.463472 0.397550 205 198 185
0.458712 -0.482057 0.560735 231 227 201
0.462044 -0.484814 0.578504 225 220 196
0.451893 -0.470197 0.665077 242 235 219
0.534029 -0.365684 -0.000996 189 147 105
0.603761 -0.491445 -0.054265 85 65 33
0.623028 -0.492849 -0.033913 130 108 83
0.636005 -0.488774 -0.042768 165 143 112
0.630632 -0.489564 -0.030380 101 84 60
0.634185 -0.488553 -0.069343 113 96 67
0.663108 -0.556470 0.363262 137 122 98
0.561834 -0.527906 -0.033865 91 67 37
0.554573 -0.528855 -0.034195 65 46 25
0.562439 -0.523377 -0.029493 78 53 28
0.661176 -0.548230 0.270694 128 112 89
0.661725 -0.564453 0.273530 121 107 84
0.660380 -0.571826 0.298211 124 112 87
0.422468 -0.484584 0.527918 245 233 206
0.442240 -0.484334 0.517396 244 235 204
0.413537 -0.489502 0.520691 254 241 196
0.404350 -0.489719 0.517173 252 239 194
0.464341 -0.587340 0.222573 37 47 70
0.463114 -0.588562 0.241532 36 49 81
0.376490 -0.701637 0.309456 51 67 90
0.425065 -0.478928 0.260852 172 154 119
0.415073 -0.483164 0.288220 241 218 173
0.412524 -0.485178 0.271128 219 194 149
0.397027 -0.481728 0.152346 142 118 74
0.406310 -0.483918 0.149281 97 74 34
0.606110 -0.470488 0.109031 189 174 155
0.662821 -0.389596 0.437737 219 216 211
0.661715 -0.408471 0.436714 219 217 211
0.668025 -0.395739 0.428677 215 214 212
0.664976 -0.387073 0.423951 225 213 193
0.655919 -0.374194 0.437633 221 216 211
0.662686 -0.403712 0.422767 221 210 191
0.663357 -0.448658 0.134672 229 221 207
0.556148 -0.469346 0.559503 233 234 228
0.536279 -0.469944 0.578730 231 231 222
0.571606 -0.469178 0.536781 233 233 227
0.558187 -0.485500 0.542010 146 131 112
0.567203 -0.485542 0.570339 196 185 158
0.550233 -0.485456 0.550721 140 124 105
0.387346 -0.462767 0.513988 225 224 220
0.386621 -0.463009 0.526155 234 235 232
0.379010 -0.478309 0.518373 239 228 203
0.374730 -0.468130 0.528412 224 215 205
0.376949 -0.471636 0.544230 229 234 234
0.382283 -0.481684 0.540385 236 226 204
0.402614 -0.479378 0.049309 102 77 48
0.639954 -0.463306 0.322324 237 227 213
0.660212 -0.453060 0.349394 238 233 220
0.660971 -0.451804 0.324777 240 234 222
0.660271 -0.594276 0.283809 125 111 90
0.660615 -0.577352 0.271323 117 103 80
0.657149 -0.595731 0.268362 117 104 86
0.661895 -0.598660 0.258550 91 84 70
0.579334 -0.484947 0.080650 199 184 147
0.594940 -0.484663 0.070089 212 200 175
0.567392 -0.466501 0.091531 186 170 149
0.587586 -0.485055 0.098775 152 137 127
0.580722 -0.467119 0.060781 185 167 151
0.376478 -0.526676 0.111369 167 137 92
0.335843 -0.528076 0.116781 149 117 78
0.474711 -0.461285 0.474477 143 129 107
0.493505 -0.462558 0.481578 142 129 108
0.476913 -0.457152 0.468641 123 104 84
0.499806 -0.484922 0.498281 145 131 108
0.524687 -0.485613 0.487268 145 131 111
0.521970 -0.466746 0.503679 214 204 193
0.512301 -0.462923 0.482010 199 186 169
0.582153 -0.503347 -0.086973 70 51 24
0.576652 -0.515621 -0.087804 54 35 19
0.572422 -0.520329 -0.096554 59 38 20
0.572131 -0.516505 -0.057949 53 37 21
0.586691 -0.493869 -0.069382 111 91 58
0.572491 -0.508062 0.183584 116 91 58
0.663547 -0.549999 0.389085 143 125 103
0.510730 -0.482704 0.052443 171 147 114
0.544284 -0.483074 0.054145 150 128 98
0.502979 -0.483645 0.031929 164 139 101
0.526816 -0.484120 0.052086 178 154 120
0.531265 -0.458898 0.465646 149 135 113
0.661230 -0.399880 0.194966 233 226 215
0.660373 -0.408148 0.219385 237 229 216
0.492215 -0.529822 0.194517 164 137 98
0.533835 -0.525995 0.041830 98 69 38
0.516929 -0.523556 0.052409 83 58 33
0.527256 -0.524911 0.068938 102 73 45
0.657862 -0.516997 0.306164 172 153 122
0.659604 -0.531411 0.302355 135 119 93
0.391456 -0.480883 0.265519 231 208 159
0.393849 -0.482253 0.280453 225 202 156
0.335749 -0.683215 0.307863 46 61 86
0.328276 -0.704409 0.308387 49 65 89
0.656886 -0.347874 0.001565 185 153 116
0.430610 -0.380460 0.469681 250 237 201
0.543057 -0.467537 0.538002 223 221 216
0.558219 -0.484745 0.530781 145 132 111
0.523707 -0.485792 0.515200 144 131 108
0.586531 -0.483348 0.538945 142 127 108
0.660719 -0.589916 0.312781 131 117 96
0.511967 -0.630674 0.293658 39 55 84
0.492127 -0.640156 0.293830 45 64 93
0.498135 -0.633669 0.297610 39 54 83
0.404775 -0.484219 0.183927 127 103 63
0.390296 -0.478926 0.166296 164 140 96
0.390515 -0.480660 0.186978 145 121 77
0.521956 -0.482445 0.007407 178 153 116
0.514795 -0.481071 -0.009103 146 121 84
0.532297 -0.480481 -0.009821 155 129 93
0.460917 -0.520654 -0.168041 56 44 26
0.504885 -0.524233 0.077402 92 66 36
0.549097 -0.525915 -0.078926 67 49 25
0.540495 -0.524430 -0.096185 51 39 23
0.564547 -0.522924 -0.100950 72 54 27
0.454244 -0.601473 0.285728 43 58 90
0.434772 -0.602056 0.287133 40 55 90
0.524504 -0.396827 -0.001773 186 146 102
0.425897 -0.483284 0.479645 219 208 182
0.427373 -0.482536 0.450004 253 238 190
0.410699 -0.489476 0.472751 248 234 188
0.463241 -0.463039 0.058656 171 146 112
0.512706 -0.463221 0.062281 170 142 105
0.543778 -0.527613 0.038820 80 57 31
0.566897 -0.523797 -0.001297 71 46 24
0.544731 -0.527563 0.027775 87 65 44
0.563471 -0.529626 0.025141 73 51 28
0.567852 -0.523225 0.019296 73 48 24
0.554119 -0.526596 0.013496 99 74 48
0.565220 -0.527436 0.038484 72 48 25
0.504602 -0.579064 0.176016 85 77 66
0.493811 -0.578662 0.187405 76 67 55
0.502795 -0.571676 0.158151 36 33 30
0.479019 -0.575361 0.172492 29 28 24
0.488171 -0.582367 0.196318 34 32 28
0.429654 -0.586758 0.244425 35 50 79
0.455147 -0.589168 0.253213 39 49 82
0.445282 -0.591546 0.263892 39 51 84
0.440635 -0.482440 0.220482 205 182 136
0.423846 -0.484069 0.215169 157 133 87
0.408885 -0.485194 0.217021 213 187 139
0.408767 -0.484960 0.199302 136 113 66
0.442716 -0.484285 0.202526 172 149 106
0.361265 -0.525885 0.062281 169 131 85
0.370492 -0.524752 0.040406 165 134 84
0.658996 -0.414139 0.001327 183 155 128
0.483001 -0.451849 -0.001891 176 133 82
0.485444 -0.458255 0.001145 176 135 89
0.382285 -0.480887 0.405984 249 232 190
0.383058 -0.478231 0.374353 251 234 188
0.386709 -0.482463 0.391004 248 231 186
0.396804 -0.486591 0.399371 248 231 187
0.472527 -0.484304 0.509561 179 166 143
0.450347 -0.483367 0.166020 212 188 143
0.455476 -0.549629 0.094542 152 134 107
0.519755 -0.490315 0.600934 143 131 108
0.519456 -0.469717 0.592263 229 227 219
0.522706 -0.490121 0.587195 151 139 115
0.508524 -0.468452 0.572401 232 231 222
0.451306 -0.479362 0.308482 219 201 166
0.442271 -0.478500 0.289462 140 122 99
0.462453 -0.479217 0.299406 137 123 99
0.438611 -0.462448 0.046781 175 140 99
0.588307 -0.618218 0.250131 51 52 56
0.437492 -0.373844 0.454104 167 145 123
0.438582 -0.388350 0.452931 146 123 101
0.438629 -0.407655 0.452471 219 207 184
0.439786 -0.391761 0.463269 198 184 157
0.438966 -0.409688 0.469457 244 231 193
0.406667 -0.483757 0.293583 243 221 173
0.387060 -0.478406 0.301887 240 219 172
0.395764 -0.481852 0.294506 237 216 169
0.607576 -0.480493 0.549813 144 131 111
0.630781 -0.484966 0.002668 156 139 104
0.637689 -0.492170 0.015201 139 119 83
0.637956 -0.487676 0.019828 205 188 156
0.635103 -0.488299 0.035524 193 184 166
0.640479 -0.491670 0.023964 216 197 162
0.574594 -0.484850 0.006427 102 79 43
0.579650 -0.482918 0.021575 155 131 97
0.554101 -0.459423 0.003866 162 126 87
0.583010 -0.463697 0.008286 178 141 100
0.569485 -0.464030 0.015429 164 130 98
0.595062 -0.458923 -0.000181 176 137 97
0.594319 -0.484823 0.027991 161 151 132
0.565820 -0.541396 0.149307 139 120 93
0.560865 -0.540738 0.127752 142 124 95
0.541881 -0.526759 0.135497 95 70 40
0.551786 -0.530211 0.143062 95 70 40
0.568154 -0.533312 0.147552 107 79 53
0.570327 -0.518367 0.126040 77 52 27
0.568861 -0.521941 0.150190 77 52 27
0.559853 -0.535052 0.134434 95 69 41
0.567523 -0.548233 0.150743 142 123 94
0.567115 -0.547676 0.131901 142 123 96
0.538683 -0.529315 0.153789 99 72 44
0.564291 -0.529001 0.150431 100 72 44
0.553688 -0.530945 0.161926 97 68 42
0.554525 -0.531829 0.144374 107 80 52
0.574037 -0.548364 0.160934 138 117 85
0.547194 -0.534358 0.139955 90 67 40
0.535212 -0.532673 0.153803 105 78 51
0.562632 -0.526030 0.144111 77 53 28
0.550126 -0.526330 0.133241 79 54 29
0.546366 -0.530441 0.130898 89 64 36
0.505698 -0.592374 0.238844 54 58 65
0.510932 -0.592627 0.252109 62 64 67
0.371236 -0.583151 0.224834 37 45 74
0.411675 -0.583635 0.228616 36 45 76
0.395298 -0.580949 0.220933 39 47 78
0.389834 -0.579053 0.197920 35 37 52
0.413436 -0.576570 0.208091 41 46 65
0.459111 -0.529661 0.199418 149 121 85
0.469133 -0.532676 0.198955 159 132 94
0.449140 -0.525749 0.193834 160 131 94
0.662314 -0.409556 0.183533 241 231 217
0.551785 -0.465159 0.085781 187 166 143
0.536097 -0.464578 0.076781 182 161 136
0.569305 -0.483783 0.078777 200 183 146
0.654676 -0.469707 -0.317337 63 52 32
0.581887 -0.498511 -0.319571 129 99 61
0.660501 -0.392255 0.184439 234 224 211
0.660551 -0.373770 0.173891 231 224 209
0.649340 -0.462540 0.511199 237 238 234
0.659240 -0.457192 0.522372 239 238 234
0.632216 -0.466507 0.515612 235 237 233
0.661099 -0.388595 0.478019 209 195 177
0.352295 -0.390265 -0.024800 197 156 105
0.374067 -0.392249 -0.021653 195 155 104
0.658129 -0.396562 0.468869 206 193 176
0.382244 -0.372412 0.466038 224 207 182
0.489407 -0.484420 0.148050 191 170 131
0.470242 -0.484098 0.148189 205 182 138
0.499939 -0.483638 0.157560 195 174 131
0.398079 -0.459311 0.095141 217 180 133
0.385213 -0.470628 0.085747 212 187 144
0.386860 -0.462216 0.097858 242 209 158
0.385160 -0.462795 0.072644 240 211 160
0.389406 -0.475493 0.086163 220 195 152
0.390605 -0.476051 0.075177 176 150 111
0.387130 -0.474293 0.111513 229 206 156
0.275768 -0.375229 -0.027520 195 153 103
0.287303 -0.403534 -0.027835 193 151 101
0.309641 -0.637467 0.306860 45 57 85
0.408378 -0.491993 0.553096 253 239 200
0.385701 -0.481572 0.563853 240 230 201
0.377072 -0.466874 0.225803 239 217 170
0.377655 -0.455468 0.259850 229 215 193
0.381998 -0.474250 0.244103 239 216 168
0.376596 -0.468460 0.256845 243 220 176
0.390877 -0.456106 0.235302 225 212 187
0.343040 -0.528965 0.147281 182 150 102
0.425236 -0.464236 0.130229 196 172 146
0.474045 -0.464930 0.117219 190 166 140
0.577295 -0.507295 0.107545 88 62 35
0.574422 -0.516116 0.112941 75 50 25
0.581873 -0.503055 0.109070 94 68 36
0.590791 -0.500170 0.105950 110 86 48
0.644281 -0.476542 -0.174842 147 117 79
0.653085 -0.470180 -0.179005 82 63 47
0.650764 -0.469843 -0.164384 52 40 28
0.649680 -0.482349 -0.169210 141 113 75
0.646932 -0.469986 -0.172651 142 113 78
0.386394 -0.576489 0.210998 56 59 76
0.495763 -0.394562 -0.002548 190 148 105
0.659443 -0.372658 0.354581 235 232 221
0.555464 -0.484574 0.200427 236 216 174
0.541547 -0.467497 0.204535 121 103 84
0.569306 -0.482539 0.226185 184 172 146
0.387584 -0.482312 0.465275 251 236 192
0.381601 -0.460400 0.473323 248 228 182
0.381283 -0.476126 0.479620 241 220 177
0.390167 -0.453740 0.451142 222 208 182
0.377076 -0.460625 0.456889 221 207 184
0.378032 -0.453873 0.479321 238 222 189
0.377064 -0.470170 0.456726 222 200 162
0.381783 -0.448668 0.469358 236 218 177
0.384887 -0.442107 0.457992 221 208 183
0.400104 -0.444702 0.479734 237 223 189
0.562995 -0.557959 0.104408 130 115 91
0.561820 -0.557514 0.117571 135 119 97
0.562683 -0.565185 0.121516 123 105 86
0.531583 -0.524630 -0.001481 87 62 33
0.519670 -0.523109 -0.010225 88 64 35
0.510544 -0.522143 -0.024106 85 61 34
0.410585 -0.462532 0.547013 235 236 232
0.414666 -0.463807 0.578007 234 234 227
0.422766 -0.463271 0.555203 234 236 228
0.656568 -0.507269 0.272986 221 203 162
0.646812 -0.484211 0.281854 154 143 130
0.648177 -0.489697 0.253477 212 201 185
0.570454 -0.517410 -0.152970 61 44 23
0.568785 -0.522556 -0.138729 65 46 24
0.565074 -0.522435 -0.130174 62 44 21
0.660508 -0.609187 0.235837 77 72 67
0.663114 -0.603435 0.249176 81 76 67
0.644134 -0.480947 -0.112448 82 61 37
0.631781 -0.486931 -0.097342 151 132 100
0.649244 -0.479635 -0.108616 102 78 51
0.334312 -0.659211 0.307557 45 63 84
0.339429 -0.640306 0.307197 45 59 84
0.567496 -0.531399 0.098263 77 52 28
0.566723 -0.524772 0.112216 86 60 34
0.564017 -0.529151 0.120596 94 69 41
0.556858 -0.537156 0.100530 101 76 46
0.554744 -0.540149 0.112478 111 99 76
0.564249 -0.546587 0.123043 145 132 101
0.561244 -0.541686 0.118545 132 118 92
0.564037 -0.554737 0.093716 126 110 85
0.560965 -0.524704 0.126733 78 52 27
0.573268 -0.538149 0.122353 123 103 72
0.563403 -0.530642 0.111257 104 78 48
0.573184 -0.536566 0.112110 96 77 55
0.555078 -0.545613 0.110849 142 128 98
0.556955 -0.546547 0.098273 149 135 104
0.573793 -0.516969 0.097606 76 50 27
0.458651 -0.467083 0.590621 235 228 217
0.433657 -0.465937 0.571964 230 228 219
0.410421 -0.481733 -0.026147 88 69 42
0.416420 -0.481056 -0.018745 101 81 55
0.433860 -0.481210 -0.000058 129 106 69
0.427071 -0.476671 -0.025173 213 192 152
0.657859 -0.510219 0.448342 189 174 135
0.609857 -0.470404 0.079781 190 176 160
0.626863 -0.471468 0.103281 203 191 179
0.602638 -0.469050 0.058531 184 169 153
0.625045 -0.471020 0.076781 191 177 164
0.455475 -0.572854 0.159552 23 18 10
0.584129 -0.502356 0.171508 148 124 81
0.591356 -0.486903 0.188764 213 199 171
0.598914 -0.498649 0.163415 99 75 34
0.568911 -0.514288 0.183242 98 73 40
0.532000 -0.465379 0.124531 190 167 142
0.521963 -0.464345 0.089531 185 164 140
0.509983 -0.484508 0.121519 227 206 155
0.526485 -0.484778 0.113895 232 210 157
0.523027 -0.484678 0.133245 215 192 145
0.524879 -0.463684 0.249140 196 184 169
0.549027 -0.466910 0.234671 220 208 190
0.537338 -0.483611 0.232060 138 124 105
0.576094 -0.479946 0.239058 114 96 77
0.539602 -0.481573 0.249172 118 101 84
0.581052 -0.466316 0.376384 219 212 203
0.580871 -0.480504 0.381781 137 125 104
0.575941 -0.465813 0.355847 219 212 203
0.540315 -0.523902 -0.076731 82 64 42
0.419433 -0.409679 0.449856 224 214 194
0.398113 -0.420766 0.452874 221 212 188
0.415168 -0.423513 0.475836 251 235 196
0.426413 -0.438465 0.474915 247 229 194
0.405219 -0.437821 0.475855 247 229 188
0.445798 -0.418510 0.470841 250 234 195
0.409423 -0.435549 0.450723 225 215 192
0.433989 -0.424925 0.452169 222 211 183
0.419964 -0.431479 0.449900 225 212 190
0.535370 -0.464432 0.319778 222 217 210
0.509141 -0.481314 0.330469 133 118 100
0.531250 -0.481034 0.338637 129 115 97
0.622623 -0.632201 0.265251 40 53 71
0.468961 -0.460478 0.264643 212 202 188
0.465118 -0.461398 0.291781 227 219 203
0.406955 -0.492508 0.578007 248 232 190
0.405164 -0.493876 0.604133 249 234 195
0.383425 -0.484350 0.589892 247 233 198
0.392644 -0.489596 0.586468 248 234 197
0.390001 -0.486068 0.569653 246 232 200
0.656210 -0.472965 -0.223533 41 35 26
0.653182 -0.476428 -0.202484 160 128 87
0.435729 -0.525134 0.112281 95 67 40
0.659289 -0.615260 0.222293 75 75 66
0.663191 -0.607308 0.216923 68 61 59
0.312512 -0.526130 0.017031 176 143 91
0.275837 -0.527599 0.039781 180 148 96
0.468989 -0.468492 0.624308 236 231 220
0.445984 -0.468511 0.611906 236 232 221
0.454299 -0.469455 0.637961 236 232 221
0.652712 -0.422425 -0.002508 181 146 114
0.643653 -0.434769 -0.004659 185 146 106
0.656429 -0.434590 -0.001603 181 145 109
0.533345 -0.591078 0.183315 38 34 36
0.550882 -0.596487 0.187045 45 38 36
0.405284 -0.481807 0.086122 117 91 62
0.424647 -0.482829 0.079126 127 101 67
0.435580 -0.520468 -0.126783 55 42 23
0.419015 -0.520041 -0.144563 75 59 43
0.440153 -0.519335 -0.150311 58 45 26
0.411959 -0.518046 -0.154256 63 48 27
0.444081 -0.521057 -0.166827 62 48 29
0.427796 -0.520271 -0.153129 55 41 24
0.435612 -0.520566 -0.138307 53 40 22
0.571657 -0.524012 -0.226310 61 46 27
0.625728 -0.574417 0.144956 35 22 9
0.624823 -0.565508 0.152379 96 79 59
0.626731 -0.570366 0.142341 74 58 40
0.615776 -0.573231 0.147191 85 65 46
0.648895 -0.574514 0.149069 49 37 19
0.633301 -0.569662 0.147157 29 19 7
0.589421 -0.620053 0.273638 47 56 75
0.597086 -0.623466 0.268467 47 52 58
0.593470 -0.617578 0.262557 56 55 57
0.430117 -0.468357 0.637681 241 237 226
0.413718 -0.467126 0.627134 242 238 228
0.418417 -0.467091 0.645752 244 240 228
0.409505 -0.551732 0.104561 164 147 117
0.406140 -0.551351 0.120953 162 144 113
0.391496 -0.550838 0.123683 142 125 101
0.512253 -0.583825 0.184551 49 44 36
0.428542 -0.550084 0.126050 160 140 110
0.439217 -0.547462 0.148154 159 139 108
0.416708 -0.548496 0.153471 161 141 109
0.446151 -0.548403 0.143213 157 139 108
0.468584 -0.482878 0.119068 166 142 99
0.497615 -0.465475 0.128781 189 168 142
0.485074 -0.483819 0.132914 207 184 139
0.493910 -0.483139 0.118036 223 200 148
0.535901 -0.534113 0.138045 89 68 44
0.525591 -0.533013 0.134843 77 69 56
0.508753 -0.535062 0.133581 73 66 53
0.501992 -0.536399 0.148067 74 54 32
0.523834 -0.527117 0.146945 89 63 35
0.508597 -0.534347 0.154814 120 96 67
0.521538 -0.535103 0.150805 128 107 82
0.404490 -0.461825 0.529297 230 231 227
0.422310 -0.463548 0.533637 234 235 232
0.407771 -0.461667 0.508285 225 223 219
0.472759 -0.462383 0.406493 225 219 206
0.479475 -0.700225 0.301441 40 57 81
0.475303 -0.696675 0.305887 51 64 88
0.477214 -0.699459 0.295717 42 58 84
0.437456 -0.548862 0.174982 158 140 110
0.439119 -0.549120 0.184903 157 137 102
0.401265 -0.456111 0.321519 232 224 210
0.438283 -0.461013 0.338597 227 224 215
0.433726 -0.460078 0.357226 233 227 216
0.531164 -0.461174 0.006692 169 131 93
0.499151 -0.463183 0.035781 168 134 96
0.521284 -0.458604 0.001071 168 131 92
0.419526 -0.462206 0.138138 230 209 170
0.425768 -0.464524 0.157781 197 174 143
0.413849 -0.461577 0.160875 218 195 159
0.510988 -0.466485 0.211729 104 86 64
0.534874 -0.485109 0.212331 104 84 65
0.521837 -0.483992 0.202764 210 189 148
0.502403 -0.483628 0.212430 215 192 150
0.517504 -0.591130 0.266759 48 50 67
0.383273 -0.474725 0.648370 241 236 222
0.378574 -0.475462 0.665323 238 230 214
0.402799 -0.467294 0.640999 243 239 227
0.385576 -0.459962 0.441359 222 214 198
0.376573 -0.472047 0.435680 249 229 189
0.634669 -0.480376 0.239660 120 102 90
0.661371 -0.452357 0.216490 237 230 219
0.660634 -0.456183 0.230728 235 228 213
0.657125 -0.461720 0.223359 234 225 210
0.631499 -0.468962 0.232913 204 190 172
0.658817 -0.457718 0.246531 233 224 211
0.662120 -0.452906 0.251480 236 229 216
0.652645 -0.461865 0.243610 234 226 211
0.430604 -0.521713 -0.025042 114 86 50
0.416630 -0.485258 0.391232 248 230 189
0.424318 -0.481440 0.401119 221 209 184
0.427627 -0.481254 0.415908 220 205 172
0.410168 -0.487770 0.417874 241 227 185
0.454567 -0.466827 0.565872 230 230 223
0.465366 -0.465334 0.547589 234 235 229
0.328570 -0.577283 0.209514 37 42 69
0.305219 -0.577842 0.194699 55 59 69
0.310491 -0.576074 0.201785 61 62 81
0.498996 -0.459022 0.469121 200 185 163
0.644468 -0.462595 0.352657 235 229 219
0.660774 -0.448348 0.379356 235 228 219
0.655507 -0.457469 0.360621 229 224 211
0.490490 -0.640930 0.302458 41 61 89
0.477873 -0.658585 0.294373 43 62 92
0.485175 -0.636608 0.306041 42 52 80
0.476681 -0.656371 0.306336 46 58 82
0.660321 -0.408109 0.312781 238 231 222
0.658746 -0.363022 0.306948 239 232 223
0.553012 -0.522649 -0.056318 75 52 28
0.614753 -0.490185 -0.245614 122 97 61
0.622725 -0.490204 -0.248638 136 109 75
0.625649 -0.489785 -0.227122 115 91 61
0.449816 -0.460440 0.253466 97 82 66
0.465832 -0.462057 0.240151 195 181 164
0.661342 -0.428003 0.524161 238 238 234
0.492684 -0.588897 0.257683 40 49 75
0.452750 -0.525092 0.149054 143 113 77
0.448281 -0.523824 0.126381 134 103 69
0.481709 -0.525633 0.135564 87 64 39
0.430546 -0.526672 0.153434 102 77 48
0.354685 -0.528853 0.177091 184 151 104
0.319619 -0.527105 0.188103 198 165 111
0.369863 -0.464634 0.356731 249 233 190
0.376737 -0.470356 0.349572 251 234 193
0.371351 -0.460304 0.368759 237 223 197
0.642266 -0.488126 0.224187 221 210 185
0.649884 -0.496253 0.231186 231 214 174
0.641923 -0.486550 0.239549 219 208 184
0.640973 -0.479762 0.262399 126 110 96
0.649355 -0.498536 0.244584 226 211 170
0.650693 -0.495705 0.260197 214 196 156
0.627895 -0.489104 0.146306 207 201 173
0.625730 -0.493774 0.150087 214 200 173
0.617004 -0.483830 0.129706 203 192 170
0.606099 -0.484101 0.137118 207 198 177
0.616937 -0.496705 0.146066 105 82 42
0.630123 -0.492806 0.119762 219 203 173
0.517689 -0.524218 0.082031 93 67 40
0.519850 -0.524721 0.092169 95 71 40
0.624881 -0.434950 -0.004418 181 142 104
0.585431 -0.427379 -0.001861 180 139 99
0.601824 -0.452301 -0.002296 180 140 99
0.630836 -0.447320 -0.004029 182 140 100
0.503342 -0.489973 0.622687 127 114 96
0.503629 -0.469782 0.635912 242 238 226
0.496155 -0.468852 0.632366 227 223 210
0.526151 -0.469702 0.628418 227 222 210
0.513021 -0.490173 0.612017 142 129 108
0.510406 -0.469430 0.621157 241 237 225
0.485662 -0.526920 0.187464 95 66 40
0.473787 -0.526163 0.168181 88 63 36
0.473588 -0.527181 0.193856 117 89 56
0.655520 -0.615023 0.175225 53 47 36
0.650868 -0.627283 0.189411 40 39 37
0.656243 -0.616890 0.199481 39 38 37
0.461109 -0.480261 -0.008740 97 75 43
0.476370 -0.480144 -0.008297 133 104 72
0.443710 -0.478853 -0.014376 133 112 90
0.456315 -0.479056 -0.014994 125 104 70
0.654742 -0.474332 -0.189176 149 121 83
0.647961 -0.482225 -0.199703 146 115 72
0.631436 -0.488047 -0.190559 138 111 76
0.638832 -0.483223 -0.207151 140 111 73
0.647588 -0.480750 -0.232524 141 116 78
0.650155 -0.479225 -0.219386 144 118 81
0.654344 -0.474314 -0.213333 142 117 77
0.633942 -0.487648 -0.216187 143 117 81
0.500050 -0.520835 -0.047750 66 47 21
0.490788 -0.521124 -0.029531 60 43 21
0.472271 -0.521646 -0.001305 72 49 24
0.471861 -0.521092 -0.029342 85 64 34
0.561947 -0.600032 0.192265 32 31 34
0.659061 -0.459441 0.211804 224 218 205
0.625779 -0.473503 0.225242 200 189 172
0.645373 -0.471631 0.194413 205 199 191
0.650936 -0.465156 0.222437 217 208 196
0.642530 -0.469833 0.219784 204 195 179
0.641041 -0.470468 0.205961 138 122 113
0.654515 -0.466282 0.200844 218 210 197
0.605535 -0.484136 0.038681 186 176 158
0.560708 -0.463983 0.023781 167 149 125
0.582587 -0.484555 0.058759 195 180 147
0.560574 -0.464874 0.052531 174 156 131
0.604728 -0.482693 0.049575 204 193 168
0.497410 -0.462015 0.264345 197 186 171
0.401836 -0.456104 0.335579 228 224 213
0.385533 -0.478131 0.326450 249 229 183
0.412523 -0.458888 0.349168 226 223 214
0.375172 -0.460128 0.353281 245 233 212
0.520240 -0.462622 0.041781 167 135 96
0.618841 -0.465626 0.298781 220 215 206
0.594091 -0.466231 0.299864 213 207 197
0.599295 -0.466445 0.314531 214 209 197
0.627240 -0.477956 0.305829 135 125 113
0.518472 -0.462998 0.284476 224 215 200
0.527368 -0.481345 0.310835 126 111 92
0.495980 -0.480437 0.298403 124 109 92
0.541749 -0.467075 0.508598 224 223 220
0.531030 -0.466934 0.494463 221 212 203
0.553577 -0.467533 0.490725 219 210 200
0.489730 -0.469809 0.654762 238 230 218
0.660652 -0.420662 0.247781 241 234 221
0.663392 -0.447424 0.258526 238 233 221
0.660780 -0.439858 0.226457 239 230 220
0.661465 -0.425784 0.233069 238 230 219
0.503403 -0.536071 0.113667 79 55 30
0.480176 -0.543756 0.116826 114 104 82
0.494063 -0.537603 0.125744 78 54 31
0.479553 -0.544309 0.125850 112 102 78
0.486163 -0.538801 0.119177 111 100 78
0.369276 -0.464675 0.415306 227 224 216
0.369663 -0.464996 0.439237 237 221 190
0.429948 -0.464186 0.502642 220 212 202
0.403760 -0.459906 0.500743 205 188 172
0.431950 -0.460173 0.487009 230 223 213
0.419127 -0.458526 0.490024 215 204 186
0.479394 -0.438170 -0.003647 183 140 95
0.303644 -0.587169 0.229301 40 54 88
0.311709 -0.588193 0.237638 45 57 92
0.312673 -0.591692 0.255086 43 59 94
0.407899 -0.456010 0.278670 231 221 204
0.419086 -0.459101 0.310466 228 220 205
0.442963 -0.460972 0.315281 203 190 174
0.441269 -0.460509 0.286781 226 218 205
0.422396 -0.460040 0.331352 230 220 206
0.661530 -0.368164 0.054781 235 225 213
0.660549 -0.345842 0.059834 227 220 209
0.658914 -0.349751 0.123529 231 224 211
0.659006 -0.345592 0.138335 230 224 210
0.658112 -0.339055 0.146236 230 223 211
0.660549 -0.375715 0.140156 231 223 211
0.659989 -0.343191 0.414852 224 214 195
0.660160 -0.371350 0.229781 234 230 220
0.661001 -0.355887 0.227656 235 230 218
0.660136 -0.339866 0.256644 237 231 219
0.660679 -0.354163 0.246781 236 229 218
0.525181 -0.594523 0.224705 48 49 54
0.555830 -0.602258 0.218428 33 33 37
0.538114 -0.591875 0.193081 49 49 46
0.480326 -0.461662 0.316781 224 218 203
0.502346 -0.462532 0.310156 217 210 192
0.469367 -0.481553 0.006946 150 125 87
0.462975 -0.481534 0.029936 117 93 61
0.448025 -0.480738 0.012775 166 139 104
0.608395 -0.491371 -0.070770 142 119 82
0.620422 -0.492432 -0.053480 83 66 38
0.622824 -0.493027 -0.074259 114 98 68
0.615947 -0.491928 -0.096433 147 128 98
0.602111 -0.489995 -0.084006 86 66 38
0.616551 -0.490954 -0.086207 97 78 55
0.635280 -0.487507 -0.082165 87 68 48
0.428612 -0.481272 0.438115 252 238 194
0.418893 -0.485727 0.441845 252 239 191
0.408091 -0.487726 0.453386 251 236 189
0.408089 -0.488105 0.433554 249 235 190
0.619253 -0.542011 0.223146 111 84 53
0.625851 -0.519935 0.223088 151 125 89
0.462808 -0.454993 0.468848 124 102 71
0.459926 -0.461552 0.482612 169 156 135
0.450036 -0.459760 0.473020 151 139 119
0.451929 -0.434566 0.466971 131 116 97
0.448664 -0.445838 0.467938 148 138 118
0.662196 -0.410284 0.429854 207 204 198
0.669187 -0.417203 0.433248 214 214 212
0.661280 -0.424386 0.419084 215 214 212
0.674261 -0.430520 0.426110 216 213 208
0.673158 -0.441711 0.428946 213 212 209
0.660420 -0.437872 0.422006 213 207 190
0.671348 -0.438246 0.433958 206 203 196
0.346457 -0.721193 0.309043 54 67 93
0.582931 -0.554692 0.206607 70 58 38
0.374180 -0.523369 -0.020469 152 121 77
0.660419 -0.517231 0.336735 187 170 136
0.659864 -0.528178 0.321059 146 129 100
0.584141 -0.469307 0.147281 188 175 155
0.589841 -0.483851 0.155063 170 156 134
0.586206 -0.483638 0.137286 209 190 150
0.574728 -0.484154 0.036577 152 129 95
0.534375 -0.462867 0.039781 164 136 103
0.549841 -0.484200 0.069513 188 165 122
0.569278 -0.484228 0.051807 204 191 167
0.535463 -0.526178 0.110522 100 76 46
0.523898 -0.525600 0.107505 97 74 45
0.538216 -0.528345 0.125448 102 77 48
0.513049 -0.536873 0.125089 128 109 83
0.536752 -0.529287 0.122062 96 70 40
0.540042 -0.533526 0.118615 112 89 61
0.526680 -0.536217 0.119526 69 57 41
0.650388 -0.455670 0.433458 136 118 97
0.646617 -0.458333 0.424722 199 185 162
0.660276 -0.452184 0.421598 219 208 187
0.652238 -0.458699 0.416774 216 205 185
0.625444 -0.465228 0.258427 233 226 212
0.614707 -0.477088 0.296281 132 120 105
0.610707 -0.466577 0.278076 212 206 193
0.623999 -0.475987 0.266908 131 120 105
0.355872 -0.523731 -0.117782 133 102 66
0.660768 -0.356273 0.011259 186 163 139
0.660002 -0.351809 0.040864 212 206 194
0.661448 -0.366033 0.029344 208 199 185
0.660481 -0.332378 0.020259 205 198 186
0.660063 -0.353771 0.108856 229 222 207
0.659977 -0.440269 0.399641 232 224 210
0.416455 -0.460440 0.097149 211 183 137
0.406668 -0.458879 0.097272 226 199 161
0.424879 -0.462684 0.108877 187 167 141
0.411634 -0.459688 0.115965 231 207 165
0.438644 -0.463749 0.110906 192 171 144
0.582685 -0.502284 0.006078 80 55 30
0.570287 -0.519501 0.036494 64 43 20
0.575511 -0.514762 0.011241 66 45 22
0.584671 -0.501424 0.031668 77 52 26
0.602455 -0.494901 0.023232 159 134 92
0.577758 -0.508904 0.022463 77 51 28
0.586940 -0.498480 0.005014 133 108 67
0.660604 -0.531352 0.358338 146 130 100
0.659084 -0.512614 0.373640 149 132 98
0.378961 -0.527944 0.168424 171 142 92
0.411379 -0.525966 0.140815 121 93 62
0.389816 -0.526622 0.132625 166 136 92
0.411746 -0.526844 0.155649 161 132 88
0.460839 -0.483282 0.102079 170 147 101
0.442908 -0.483016 0.124520 216 194 144
0.519097 -0.522497 -0.147730 61 46 26
0.512920 -0.524259 -0.142916 59 46 24
0.512471 -0.523508 -0.126235 58 46 24
0.617662 -0.464748 0.463155 134 117 97
0.620311 -0.479796 0.464730 137 125 102
0.632441 -0.479582 0.456224 138 126 103
0.622591 -0.460622 0.457609 127 111 90
0.613287 -0.469138 0.487844 185 168 151
0.611658 -0.479480 0.440482 138 125 101
0.599026 -0.461223 0.457782 132 117 97
0.606406 -0.518028 0.223423 115 86 54
0.593561 -0.544275 0.222715 112 85 52
0.323838 -0.526818 0.059175 182 146 95
0.603241 -0.552896 0.219977 91 74 42
0.585654 -0.519825 0.221628 105 80 46
0.580318 -0.539716 0.218655 95 73 44
0.577198 -0.520198 -0.197647 61 46 26
0.576957 -0.518791 -0.187621 61 46 26
0.661229 -0.427166 0.189167 236 228 216
0.661100 -0.421115 0.216150 242 234 220
0.648646 -0.478480 -0.150751 73 60 42
0.387135 -0.523124 -0.117193 78 59 37
0.423431 -0.520842 -0.102462 67 48 28
0.396742 -0.520828 -0.093260 78 57 37
0.449215 -0.524197 0.107781 110 80 48
0.465417 -0.524542 0.115286 91 65 40
0.639177 -0.472448 0.120814 155 136 122
0.659211 -0.459701 0.136356 219 213 197
0.658498 -0.460961 0.094685 222 213 200
0.661439 -0.457681 0.108670 223 214 198
0.447847 -0.464603 0.526428 236 236 233
0.432883 -0.465398 0.538277 232 233 230
0.442834 -0.465463 0.548566 235 235 232
0.598868 -0.491413 -0.160532 151 120 75
0.596181 -0.492059 -0.138602 140 109 65
0.583457 -0.502482 -0.139493 82 64 36
0.577957 -0.510567 -0.150024 66 49 29
0.594993 -0.466749 0.381482 225 219 206
0.602751 -0.467144 0.396586 224 218 205
0.635415 -0.463676 0.418095 221 212 191
0.623306 -0.478547 0.416164 142 128 110
0.621256 -0.467361 0.408742 217 211 190
0.386925 -0.461181 0.505128 209 197 183
0.379219 -0.477744 0.493524 218 198 160
0.397961 -0.451281 0.493759 223 223 219
0.389822 -0.450981 0.491556 226 223 221
0.389340 -0.446306 0.478459 215 204 190
0.369864 -0.463254 0.486274 224 208 180
0.542757 -0.530400 -0.152733 51 39 20
0.571611 -0.525872 -0.150490 58 45 25
0.560456 -0.529152 -0.150962 56 41 23
0.548493 -0.524303 -0.120291 59 45 26
0.602986 -0.465732 0.463717 134 119 99
0.593261 -0.465936 0.465330 133 117 97
0.587291 -0.481406 0.462718 138 127 103
0.581480 -0.468096 0.485570 187 171 153
0.575164 -0.483795 0.476956 135 122 102
0.407274 -0.527202 0.175767 172 144 96
0.397206 -0.527032 0.193298 149 121 81
0.454903 -0.692366 0.309571 51 62 87
0.595227 -0.498015 0.080116 94 71 30
0.569423 -0.517488 0.068396 76 51 24
0.579373 -0.503860 0.089711 78 55 30
0.583695 -0.499294 0.070429 95 71 32
0.594423 -0.497804 0.092267 95 70 32
0.608037 -0.496146 0.096219 156 134 91
0.354119 -0.466815 -0.032442 186 147 97
0.360337 -0.465357 -0.047687 173 136 90
0.347310 -0.470037 -0.038406 172 134 89
0.360215 -0.469703 -0.038167 149 114 70
0.614438 -0.489656 -0.214506 135 107 69
0.620608 -0.489903 -0.202480 150 118 78
0.604856 -0.488718 -0.198335 152 119 77
0.387111 -0.484917 0.524029 253 239 196
0.398019 -0.489121 0.546958 253 239 197
0.411440 -0.490336 0.537293 252 238 196
0.390703 -0.486302 0.542582 253 238 200
0.615406 -0.489661 -0.302912 164 135 94
0.629687 -0.488614 -0.298226 55 36 13
0.601538 -0.489974 -0.286520 152 121 78
0.631797 -0.485807 -0.318760 72 54 29
0.615790 -0.490744 -0.313008 56 38 16
0.295203 -0.530217 0.193530 200 165 112
0.306260 -0.530181 0.169087 193 159 110
0.452346 -0.526198 0.179159 128 99 64
0.346523 -0.543628 0.198457 148 130 95
0.333887 -0.529236 0.194298 200 166 115
0.334889 -0.532770 0.197800 196 165 111
0.324361 -0.547758 0.195124 173 152 114
0.575000 -0.465721 0.318323 175 165 150
0.552246 -0.480721 0.333781 132 119 102
0.568879 -0.481300 0.361781 135 125 107
0.558447 -0.465383 0.375049 225 219 211
0.533548 -0.463504 0.355906 237 231 216
0.546861 -0.463850 0.335649 229 223 214
0.389926 -0.483718 0.429752 249 235 190
0.380329 -0.475864 0.453233 253 240 192
0.381087 -0.478266 0.436236 253 240 194
0.390692 -0.484308 0.439984 251 235 191
0.581940 -0.615192 0.234287 37 43 46
0.565124 -0.606633 0.225346 47 51 58
0.576894 -0.611907 0.222261 39 42 43
0.565394 -0.608354 0.246577 43 46 48
0.646681 -0.468584 -0.299106 81 69 45
0.652323 -0.467886 -0.312753 38 33 24
0.514534 -0.482923 0.429097 138 123 103
0.524570 -0.483462 0.450265 138 123 101
0.524262 -0.464253 0.428816 217 209 189
0.321025 -0.520501 -0.160276 58 45 27
0.435495 -0.524271 0.037746 100 75 44
0.431521 -0.522301 0.010300 129 100 62
0.450812 -0.520189 -0.001210 83 60 33
0.560161 -0.385686 -0.001130 187 144 104
0.541577 -0.409213 -0.001889 187 144 104
0.368756 -0.598945 0.282324 43 54 91
0.347295 -0.599998 0.284097 42 54 91
0.573269 -0.518816 -0.165574 60 43 23
0.521601 -0.482140 0.364156 136 122 102
0.661115 -0.401463 0.262531 238 231 219
0.660954 -0.433975 0.283531 242 234 222
0.662457 -0.437122 0.269833 238 233 220
0.660784 -0.422074 0.479551 225 217 206
0.660593 -0.435968 0.477063 224 220 207
0.626600 -0.485074 0.030733 201 185 161
0.620181 -0.496491 0.019904 172 152 118
0.616207 -0.482962 0.003999 154 134 98
0.606341 -0.483647 0.029212 176 162 137
0.662145 -0.413112 0.140156 236 228 216
0.661937 -0.413675 0.122031 237 228 214
0.661881 -0.438392 0.145617 234 226 213
0.663327 -0.427340 0.165246 236 227 215
0.577210 -0.516419 -0.026949 63 40 18
0.576667 -0.514244 -0.002182 63 42 21
0.580219 -0.503055 -0.016551 77 53 29
0.592665 -0.494578 -0.016471 126 102 70
0.584451 -0.497913 -0.026620 90 66 36
0.599452 -0.495526 0.003820 156 130 94
0.612266 -0.465816 0.421316 216 205 185
0.631729 -0.480266 0.434534 137 126 101
0.620614 -0.462007 0.428051 179 168 146
0.633180 -0.459442 0.434940 142 127 109
0.609248 -0.460505 0.436701 136 122 100
0.416915 -0.458112 0.269195 217 207 191
0.424444 -0.459480 0.285344 230 220 203
0.426911 -0.487802 0.589601 246 239 207
0.416443 -0.492177 0.578482 251 236 195
0.429562 -0.462601 0.091781 208 173 126
0.413862 -0.458741 0.070781 223 189 140
0.441547 -0.462773 0.075468 174 147 113
0.445117 -0.465038 0.172531 176 156 124
0.307203 -0.522137 -0.170555 59 48 28
0.629205 -0.473575 0.192678 136 124 114
0.622274 -0.473404 0.178781 126 109 91
0.587415 -0.469990 0.165781 150 133 116
0.650982 -0.416468 0.455862 211 202 181
0.659354 -0.415502 0.473465 207 195 176
0.654223 -0.446601 0.462256 209 198 183
0.651120 -0.435579 0.456899 209 198 183
0.654108 -0.423709 0.466048 210 195 176
0.451698 -0.482326 0.086022 195 170 124
0.453049 -0.482727 0.071308 148 124 81
0.442008 -0.527905 0.197741 174 146 104
0.428199 -0.534005 0.200494 178 151 108
0.429269 -0.526677 0.192302 167 139 98
0.416812 -0.616567 0.302516 42 54 86
0.659393 -0.331822 0.610644 244 238 227
0.324186 -0.457158 -0.026241 191 151 97
0.658754 -0.345833 0.305840 238 230 221
0.392099 -0.468627 0.634161 241 237 226
0.382685 -0.470647 0.613784 242 238 226
0.402057 -0.466499 0.609250 241 237 226
0.387926 -0.469794 0.649613 244 240 230
0.381062 -0.471813 0.638560 243 240 230
0.659901 -0.404954 0.557591 239 235 228
0.635585 -0.484672 -0.029464 89 69 42
0.605615 -0.490693 -0.032986 98 73 44
0.612311 -0.491793 -0.018666 88 64 36
0.610916 -0.485212 -0.008960 129 106 70
0.624269 -0.492700 -0.017278 190 170 137
0.619970 -0.495919 -0.005269 67 50 30
0.626719 -0.482197 -0.017170 123 102 71
0.618132 -0.493881 -0.126532 64 52 33
0.624692 -0.492296 -0.117837 153 139 111
0.606032 -0.491495 -0.120395 70 52 28
0.634721 -0.489784 -0.109995 117 98 68
0.491497 -0.524718 0.147547 96 69 42
0.505163 -0.525984 0.128245 109 81 50
0.484438 -0.482848 0.437781 142 128 104
0.485714 -0.482970 0.463858 140 125 104
0.547427 -0.616403 0.286876 50 66 89
0.536869 -0.596359 0.281695 37 47 67
0.535732 -0.593895 0.273473 57 60 73
0.537026 -0.598834 0.255091 64 66 71
0.517072 -0.592256 0.278186 40 46 61
0.548403 -0.605230 0.286953 36 44 66
0.660857 -0.436107 0.034281 226 217 210
0.376320 -0.622361 0.304508 46 56 90
0.389214 -0.464358 0.548915 235 236 233
0.380629 -0.466833 0.549704 235 236 232
0.403162 -0.463847 0.583549 235 234 229
0.381564 -0.472694 0.562726 234 235 230
0.402878 -0.464406 0.568276 234 235 229
0.390084 -0.466046 0.571673 234 234 227
0.393125 -0.464149 0.558739 235 235 230
0.594751 -0.369940 -0.001755 186 146 104
0.604908 -0.397281 -0.003096 185 146 105
0.570169 -0.401547 -0.001812 185 148 106
0.414949 -0.522119 -0.112655 99 80 59
0.432919 -0.522451 -0.114737 61 46 29
0.385154 -0.386172 -0.010127 231 201 151
0.382354 -0.370088 -0.009911 226 194 142
0.392086 -0.387142 -0.007320 236 205 154
0.365534 -0.418617 -0.024195 199 155 103
0.373505 -0.376893 -0.018799 202 164 111
0.661919 -0.422072 0.043781 234 226 215
0.537990 -0.462956 0.020984 168 134 94
0.529942 -0.483445 0.011863 113 88 55
0.515117 -0.482695 0.020601 112 88 52
0.530045 -0.483684 0.032778 173 148 108
0.398459 -0.479051 -0.021348 140 119 89
0.412339 -0.480416 -0.005478 166 144 111
0.661799 -0.561062 0.309490 133 116 91
0.661077 -0.575835 0.322241 136 118 96
0.640382 -0.462694 0.258974 233 227 216
0.653507 -0.457509 0.267176 234 228 214
0.637778 -0.462689 0.284785 232 227 215
0.660825 -0.452964 0.266217 235 230 220
0.639864 -0.479668 0.279232 124 109 92
0.487094 -0.466331 0.196817 166 155 131
0.496713 -0.446264 -0.003156 176 134 85
0.516592 -0.454422 -0.001497 176 133 84
0.529309 -0.443082 -0.002506 180 136 92
0.517732 -0.425255 -0.002466 183 139 96
0.402136 -0.481833 0.070952 114 88 59
0.306445 -0.521242 -0.157606 62 47 28
0.506149 -0.527563 0.185755 94 67 39
0.507938 -0.525496 0.144100 96 69 40
0.320299 -0.395327 -0.026351 197 156 106
0.318862 -0.425867 -0.026361 196 155 103
0.401067 -0.523879 0.034156 131 103 65
0.395613 -0.523213 0.021198 154 121 74
0.417805 -0.522213 0.001791 146 115 70
0.573110 -0.514549 -0.265910 102 83 53
0.581143 -0.496331 -0.283436 133 103 64
0.587817 -0.493851 -0.256278 142 109 69
0.579835 -0.499053 -0.263544 135 104 67
0.575276 -0.504384 -0.278729 107 83 51
0.587349 -0.491969 -0.275127 140 109 68
0.623375 -0.489182 -0.172967 129 102 61
0.622137 -0.488969 -0.190692 97 72 34
0.604282 -0.488975 -0.182090 147 114 75
0.613924 -0.488874 -0.156531 155 124 81
0.548603 -0.525752 -0.091233 73 51 27
0.304929 -0.529650 0.143531 200 168 111
0.298779 -0.529112 0.124844 186 153 102
0.418694 -0.485263 0.377360 249 235 192
0.427299 -0.481176 0.367323 192 177 151
0.519787 -0.527279 -0.132522 62 45 27
0.569936 -0.470634 0.562031 233 233 227
0.579997 -0.483707 0.550037 143 131 112
0.606613 -0.471364 0.564053 231 230 224
0.589842 -0.472114 0.558507 231 231 224
0.584320 -0.471040 0.569600 228 227 217
0.481154 -0.522987 0.014856 88 64 37
0.495076 -0.521918 -0.006219 91 66 38
0.494339 -0.523478 0.024033 80 55 29
0.390721 -0.457166 0.350206 237 231 217
0.377675 -0.471433 0.378556 251 232 191
0.376446 -0.459488 0.386979 236 227 214
0.401339 -0.457978 0.385688 231 226 220
0.573705 -0.606548 0.199124 33 33 37
0.584031 -0.614379 0.209600 32 33 37
0.472562 -0.520800 -0.056430 76 53 28
0.450276 -0.519746 -0.048961 76 54 30
0.437015 -0.519701 -0.051358 81 57 32
0.447290 -0.520466 -0.018007 90 66 37
0.662404 -0.434459 0.113747 236 227 214
0.435191 -0.464399 0.138156 202 187 169
0.476284 -0.465666 0.149781 193 173 144
0.400206 -0.525069 0.053133 127 98 64
0.648223 -0.618541 0.147696 138 120 94
0.645515 -0.624384 0.160585 40 36 33
0.568191 -0.484068 0.167010 208 197 170
0.585487 -0.470417 0.195589 150 133 113
0.591062 -0.484682 0.173903 137 127 108
0.575927 -0.485952 0.193271 231 212 173
0.467644 -0.571840 0.155599 25 21 13
0.387519 -0.479308 0.204695 222 198 147
0.482022 -0.467442 0.564960 233 235 229
0.495674 -0.466353 0.545619 234 235 230
0.598379 -0.489782 -0.221412 134 104 67
0.575504 -0.515465 -0.225601 69 50 27
0.576807 -0.520760 -0.215453 58 44 22
0.579337 -0.507450 -0.195242 81 61 34
0.576574 -0.514523 -0.204404 65 47 28
0.580667 -0.504320 -0.206021 116 91 53
0.588158 -0.495765 -0.205448 152 120 82
0.647391 -0.488504 0.486273 233 224 191
0.642253 -0.483301 0.510321 136 122 107
0.640786 -0.482418 0.493106 185 176 170
0.383762 -0.472693 0.141451 194 170 124
0.388945 -0.476744 0.149288 210 186 139
0.399539 -0.460006 0.147139 230 209 171
0.386633 -0.462392 0.140485 239 213 169
0.495749 -0.463642 0.081031 180 159 130
0.641283 -0.463560 0.399700 225 218 206
0.659725 -0.453418 0.382607 228 221 208
0.648914 -0.460279 0.388781 231 223 210
0.658473 -0.451510 0.405199 223 216 195
0.662085 -0.452488 0.413535 223 215 197
0.652734 -0.457775 0.402188 222 212 190
0.659302 -0.428364 0.340799 237 232 222
0.494290 -0.481680 0.248335 172 152 119
0.481296 -0.483299 0.226768 185 163 122
0.506044 -0.484222 0.225519 164 145 114
0.574550 -0.509835 0.139947 79 53 29
0.399837 -0.542041 0.198302 153 134 98
0.396448 -0.546415 0.193700 145 123 92
0.604478 -0.471865 0.219501 113 98 84
0.625249 -0.472399 0.208891 175 160 141
0.613265 -0.473516 0.223714 131 118 99
0.459041 -0.481144 0.412281 149 134 112
0.431293 -0.480446 0.394110 154 139 116
0.477575 -0.481212 0.395125 139 124 102
0.506658 -0.481776 0.384156 136 121 100
0.529004 -0.482430 0.394157 141 128 107
0.472762 -0.481962 0.427969 139 124 102
0.625596 -0.352426 -0.003113 188 148 106
0.632443 -0.376922 -0.003247 188 148 108
0.458871 -0.461403 0.318936 217 206 193
0.503603 -0.521684 -0.070910 59 42 23
0.506294 -0.521150 -0.106500 72 52 28
0.486286 -0.519676 -0.098583 66 49 27
0.494502 -0.520171 -0.085778 59 43 22
0.457217 -0.483888 0.187625 153 132 91
0.448521 -0.483405 0.575132 231 226 201
0.441050 -0.488423 0.617620 221 215 189
0.465105 -0.488837 0.603348 181 171 147
0.472673 -0.488070 0.588929 209 201 174
0.450560 -0.487447 0.590586 228 222 195
0.437106 -0.478912 0.311531 152 134 118
0.422110 -0.479655 0.312184 240 225 180
0.412076 -0.484302 0.315781 245 226 182
0.350204 -0.552440 0.136137 157 140 109
0.378248 -0.550654 0.146790 147 128 100
0.371588 -0.552616 0.123771 163 146 115
0.661950 -0.352505 0.512721 233 231 227
0.661196 -0.345660 0.485544 208 199 182
0.661778 -0.360072 0.495507 234 233 228
0.662609 -0.379247 0.486838 208 197 182
0.423136 -0.581560 0.196997 53 53 56
0.432189 -0.579855 0.207915 54 59 74
0.434223 -0.583898 0.219643 28 35 63
0.533044 -0.482349 -0.001876 142 117 80
0.549713 -0.483597 -0.006416 140 115 83
0.565812 -0.482349 -0.014177 147 120 84
0.562408 -0.484927 -0.006940 137 112 79
0.634707 -0.488391 0.103987 215 202 176
0.633147 -0.469661 0.011130 156 133 105
0.647187 -0.466537 0.005920 180 171 162
0.650356 -0.467045 0.038408 206 194 173
0.658239 -0.454004 0.006785 179 146 111
0.640467 -0.464680 -0.001387 160 130 103
0.346646 -0.523003 -0.157432 58 46 28
0.362935 -0.521116 -0.157993 66 48 27
0.360732 -0.519784 -0.165611 66 51 28
0.608699 -0.497162 0.110393 203 181 136
0.399298 -0.732134 0.310904 53 66 90
0.627251 -0.486270 0.103261 225 210 178
0.633108 -0.492785 0.097399 223 210 170
0.417768 -0.707728 0.310210 52 63 87
0.633402 -0.487932 0.120911 215 205 177
0.618981 -0.495772 0.118818 162 145 106
0.600025 -0.484337 0.115553 149 138 122
0.567129 -0.484853 0.115061 200 180 148
0.578593 -0.468235 0.122031 188 170 147
0.619372 -0.472401 0.118867 189 173 155
0.578773 -0.484534 0.126088 232 215 178
0.662276 -0.428656 0.076009 235 226 213
0.661319 -0.413261 0.069487 233 226 216
0.661848 -0.427820 0.090281 235 227 211
0.661487 -0.449610 0.085390 231 222 210
0.479632 -0.549216 0.096703 125 108 86
0.465382 -0.548192 0.108233 158 140 110
0.473276 -0.545978 0.121063 156 140 111
0.452415 -0.548487 0.128509 154 132 103
0.379610 -0.460836 0.429694 231 226 217
0.376218 -0.461569 0.406803 236 222 203
0.393757 -0.458342 0.402057 230 228 221
0.403409 -0.458351 0.399106 232 225 213
0.563752 -0.613629 0.282341 48 62 86
0.561501 -0.622704 0.282379 45 61 86
0.578684 -0.619585 0.278456 47 65 94
0.561507 -0.624390 0.278081 54 57 66
0.577642 -0.551850 0.183645 81 68 44
0.630366 -0.481694 0.220632 188 177 152
0.629870 -0.502748 0.218861 110 83 51
0.615163 -0.490724 0.204379 233 217 184
0.604665 -0.495909 0.203478 135 113 73
0.617299 -0.494490 0.207561 230 214 183
0.629333 -0.489211 0.212791 230 213 182
0.488881 -0.465909 0.505377 222 217 210
0.449195 -0.483051 0.503725 148 132 112
0.489287 -0.465203 0.494851 219 211 201
0.442910 -0.461228 0.378232 227 223 216
0.462931 -0.461353 0.372729 229 224 216
0.426677 -0.520657 -0.076969 67 49 25
0.440096 -0.520712 -0.099975 64 45 21
0.483363 -0.590193 0.245167 55 54 56
0.493841 -0.483140 0.059092 194 168 125
0.464047 -0.482351 0.049763 106 82 48
0.479908 -0.482816 0.042801 191 166 128
0.531832 -0.600820 0.288533 36 50 78
0.510393 -0.609462 0.295104 40 58 89
0.527057 -0.612281 0.292591 41 54 85
0.498595 -0.615883 0.300030 41 52 83
0.496987 -0.625034 0.301919 43 57 88
0.404795 -0.595426 0.271819 36 54 88
0.395607 -0.585907 0.240811 38 52 85
0.593273 -0.466631 0.357781 231 221 209
0.609807 -0.466617 0.362781 232 226 215
0.628790 -0.478956 0.361156 138 130 112
0.610099 -0.478793 0.372196 138 130 112
0.629302 -0.465524 0.382509 227 221 211
0.621113 -0.478310 0.380304 129 121 102
0.440829 -0.548584 0.159051 151 132 108
0.467036 -0.545618 0.182000 131 113 86
0.480330 -0.537518 0.174850 150 130 100
0.472736 -0.545539 0.159496 158 138 109
0.450671 -0.539662 0.195803 134 113 86
0.445466 -0.519774 -0.069616 66 46 25
0.469765 -0.519749 -0.092333 64 45 26
0.473767 -0.519851 -0.080483 57 41 21
0.651644 -0.452384 0.455707 213 202 183
0.632905 -0.457601 0.453718 168 155 139
0.321582 -0.525111 -0.007813 151 121 76
0.652619 -0.460539 0.474641 206 193 175
0.632570 -0.466149 0.478354 137 118 99
0.303193 -0.525003 -0.014219 142 114 71
0.638607 -0.460250 0.458508 154 141 117
0.594515 -0.491422 -0.186741 157 124 81
0.576558 -0.510324 -0.171704 77 57 30
0.581473 -0.502993 -0.182987 88 63 31
0.588948 -0.495992 -0.172325 111 82 43
0.582692 -0.500686 -0.163950 106 78 41
0.566992 -0.553814 0.077870 138 121 94
0.559124 -0.553631 0.062568 138 123 98
0.561251 -0.550167 0.083711 152 134 105
0.551414 -0.546907 0.086501 129 115 90
0.555068 -0.525032 0.070506 92 64 36
0.541472 -0.525919 0.061149 91 63 36
0.559554 -0.530530 0.067434 88 61 36
0.560208 -0.525202 0.077217 86 61 34
0.567883 -0.530448 0.076601 89 66 36
0.547816 -0.527209 0.086806 89 65 36
0.549303 -0.532163 0.076365 87 63 39
0.542893 -0.528262 0.101980 95 71 42
0.562860 -0.525895 0.089967 102 77 47
0.544983 -0.531918 0.083128 87 65 40
0.558896 -0.465015 0.304955 198 193 180
0.544856 -0.481519 0.306711 126 113 97
0.326238 -0.628839 0.305905 46 59 88
0.351783 -0.615543 0.301965 42 55 92
0.330462 -0.619053 0.303423 45 55 91
0.308595 -0.671310 0.307136 50 61 87
0.415061 -0.490951 0.559538 249 236 198
0.435593 -0.481963 0.556852 249 247 223
0.421618 -0.485080 0.556548 244 236 208
0.433310 -0.483797 0.575126 234 230 205
0.653743 -0.572561 0.170401 79 69 52
0.646340 -0.568684 0.180153 80 69 53
0.638761 -0.480017 0.407485 137 121 103
0.645111 -0.483080 0.417959 132 118 101
0.645288 -0.484311 0.437645 133 119 99
0.651650 -0.492561 0.443257 235 222 180
0.652503 -0.497793 0.428265 252 235 187
0.658859 -0.507795 0.424761 247 230 183
0.636470 -0.492818 0.043026 206 194 163
0.406728 -0.459556 0.132439 228 204 163
0.391153 -0.460304 0.105423 228 199 154
0.385072 -0.462600 0.117754 226 198 150
0.384282 -0.466643 0.093289 241 214 159
0.382420 -0.466963 0.132356 244 215 162
0.384303 -0.470233 0.110313 243 217 162
0.567509 -0.521859 0.057663 81 53 30
0.556861 -0.526432 0.059424 83 55 30
0.566753 -0.526663 0.044421 77 51 28
0.552582 -0.528395 0.041436 105 76 47
0.547350 -0.527331 0.051400 96 68 41
0.563001 -0.528650 0.058182 95 67 39
0.562636 -0.524337 0.050602 92 65 36
0.580086 -0.481286 0.423781 137 121 102
0.590720 -0.480710 0.447031 138 125 101
0.594621 -0.480128 0.414358 138 123 101
0.585201 -0.464699 0.424949 208 197 176
0.544237 -0.625347 0.286998 46 59 87
0.539008 -0.628401 0.284091 46 52 65
0.391708 -0.549859 0.171526 152 134 107
0.410495 -0.549254 0.164608 155 137 106
0.412575 -0.549220 0.176935 144 126 99
