ply
format ascii 1.0
element vertex 1279
property float x
property float y
property float z
property uchar red
property uchar green
property uchar blue
end_header
1.031938 2.171032 -0.616607 36 33 27
0.468108 2.007788 -0.685460 37 27 36
0.789676 2.261401 -0.520124 56 47 49
0.792323 2.267122 -0.520557 56 48 51
0.798685 2.277278 -0.522629 55 46 49
0.806536 2.265951 -0.513388 55 49 40
0.805119 2.285506 -0.512867 35 26 19
0.819495 2.249940 -0.516036 74 69 59
0.798356 2.270867 -0.513319 57 48 42
0.551636 1.996030 -0.738937 68 40 22
0.533914 2.013762 -0.738989 64 39 25
0.557107 2.013369 -0.739807 60 24 13
0.545434 2.016427 -0.738530 38 24 17
0.544047 1.994555 -0.741980 83 56 33
0.539609 2.010324 -0.744315 90 62 40
0.534904 2.021178 -0.732311 8 7 3
0.667485 2.108016 -0.692445 38 39 37
0.661257 2.113124 -0.690521 44 42 40
0.667099 2.100773 -0.686513 38 39 37
1.315858 1.986287 -0.558730 106 99 87
0.928720 1.991816 -0.944459 75 69 55
0.939092 1.992856 -0.940397 77 70 57
0.940871 1.985453 -0.929686 55 45 35
0.931146 1.994143 -0.927091 38 31 24
0.920545 1.990005 -0.923160 40 31 23
1.251632 2.073656 -0.534095 84 76 60
1.236337 2.067963 -0.534019 72 66 51
0.815535 1.962233 -0.654006 57 101 81
0.841610 1.970075 -0.655988 58 96 78
0.845442 1.983618 -0.646322 58 92 76
0.823767 1.964334 -0.631971 18 33 25
0.833359 1.961202 -0.631700 24 31 26
0.827821 1.973023 -0.642720 44 60 51
0.838012 1.981260 -0.634891 24 26 23
0.844959 1.973467 -0.644335 46 66 58
0.833597 1.975450 -0.653073 70 116 96
1.060683 2.289836 -0.452545 33 29 19
0.917948 1.994576 -0.949144 63 56 42
0.938791 1.970780 -0.949948 27 22 17
0.941134 1.962908 -0.972115 26 23 18
0.933389 1.970349 -0.969868 32 28 23
0.464947 2.075353 -0.686175 68 21 15
0.838681 2.318205 -0.360319 18 14 8
0.849128 2.307763 -0.343834 32 26 21
0.839970 2.322024 -0.331056 16 12 9
0.835064 2.340900 -0.352962 11 10 8
0.993143 2.314130 -0.435888 19 17 12
0.987817 2.300990 -0.416830 20 18 13
0.984063 2.277853 -0.420574 24 21 15
0.983587 2.282147 -0.411996 21 18 12
0.986065 2.290443 -0.402931 20 17 11
0.902915 1.992442 -0.751623 31 25 33
0.889314 1.992643 -0.726522 34 29 43
0.903784 1.993555 -0.727326 22 17 24
0.468616 2.080554 -0.791714 33 27 24
1.062761 1.923615 -0.503709 34 36 35
1.052870 1.947375 -0.511424 71 69 66
1.080937 1.943594 -0.510404 45 40 32
1.052507 1.957947 -0.514158 60 67 71
1.248324 2.064629 -0.337508 13 12 4
0.490571 2.140585 -0.684116 32 26 26
0.503197 2.128620 -0.681623 21 18 14
0.516098 2.150136 -0.673768 30 27 29
0.496459 2.158498 -0.675736 56 45 45
0.525475 2.149025 -0.654621 67 52 47
0.526506 2.150004 -0.666153 80 67 61
0.520991 2.140255 -0.674019 16 9 5
0.846872 1.968267 -0.708913 39 29 33
0.836056 1.960138 -0.708282 38 30 33
0.840698 1.965275 -0.698820 24 24 27
0.824561 1.962070 -0.688715 20 23 23
1.111386 2.285347 -0.625156 36 26 10
0.778294 2.388011 -0.621332 62 51 44
0.788149 2.384997 -0.616099 53 42 34
1.043906 1.974700 -0.516304 57 62 61
0.899734 2.339524 -0.531922 57 50 37
0.890579 2.327284 -0.531591 73 64 53
0.973614 2.238559 -0.370063 32 27 21
0.960016 2.216749 -0.358882 24 19 12
0.956754 2.228539 -0.365620 22 18 12
0.978581 2.225471 -0.356288 34 31 23
1.411278 1.953011 -0.908349 151 139 127
0.737087 2.066277 -0.573262 19 59 51
0.705374 2.071438 -0.576372 19 58 49
0.685970 2.071836 -0.582111 22 57 50
0.718125 2.059680 -0.581816 21 57 49
0.582304 1.943562 -0.781317 55 46 47
0.603962 1.945240 -0.786026 19 15 15
0.571350 1.943322 -0.752938 64 66 75
0.590667 1.933155 -0.782415 13 13 13
0.574945 1.932045 -0.778055 45 40 40
1.231733 1.940597 -0.811097 203 190 179
1.206831 1.945148 -0.851148 110 100 90
1.206204 1.955383 -0.842267 107 97 88
1.223788 1.946899 -0.829258 153 140 126
1.211816 1.965343 -0.851996 112 99 88
1.233248 1.962699 -0.841200 151 139 126
1.214363 1.929416 -0.824719 161 148 134
1.205994 1.952528 -0.826149 122 110 95
1.227388 1.946602 -0.820295 168 156 141
1.226604 1.942184 -0.832410 147 135 121
1.229450 1.949447 -0.834587 152 133 115
1.209904 1.954865 -0.820501 116 101 87
1.217927 1.963553 -0.818515 119 103 89
0.435226 2.194162 -0.692933 155 133 121
0.809165 2.018064 -0.954168 41 37 28
0.813712 2.014012 -0.947410 31 25 17
0.794378 2.020219 -0.956377 75 67 55
0.812767 2.016921 -0.961477 35 30 23
1.401753 1.963593 -0.868834 51 47 35
0.770797 1.935476 -0.674583 15 21 15
0.791593 1.936707 -0.676310 13 18 14
0.775980 2.082352 -0.560079 137 138 121
0.785829 2.084573 -0.554817 132 131 115
0.609266 2.113616 -0.638896 55 38 22
0.622344 2.107944 -0.633991 55 38 22
0.589108 2.124632 -0.627675 68 43 18
0.616882 2.121644 -0.657447 95 85 80
0.551682 2.072062 -0.720388 8 6 4
0.566423 2.066144 -0.736123 11 12 7
0.568336 2.094694 -0.717843 18 10 10
1.175627 2.013462 -0.535981 60 62 70
1.185023 2.008475 -0.532008 70 67 65
0.546220 1.958817 -0.737021 63 55 30
0.547005 1.938619 -0.735255 66 57 33
0.925122 1.977022 -0.757896 33 29 38
0.925617 1.973218 -0.766085 31 29 37
0.916683 1.989919 -0.752275 29 28 34
0.921492 1.982285 -0.767208 32 27 36
0.928022 1.963023 -0.756874 36 32 39
0.642226 2.280342 -0.618418 98 89 81
0.658773 2.249351 -0.618926 98 89 81
1.268644 2.037612 -0.871965 100 92 80
1.286735 2.054149 -0.871304 92 85 72
1.277373 2.057614 -0.874638 89 82 69
1.285477 2.050999 -0.878057 92 85 71
1.276513 2.047218 -0.861524 90 82 68
1.270242 2.048934 -0.874208 102 93 82
1.287736 2.040667 -0.871602 112 102 91
1.287288 2.034410 -0.856567 92 81 67
1.287807 2.029838 -0.862352 96 86 71
0.721795 2.049067 -0.595116 22 57 50
0.736386 2.050838 -0.584154 22 57 49
0.741199 2.055192 -0.578230 18 58 49
0.925203 1.941164 -0.665648 46 39 37
0.474787 2.176146 -0.759852 96 86 74
0.491647 2.159111 -0.783567 53 48 43
0.470639 2.165926 -0.766837 72 63 56
0.481333 2.168056 -0.767063 81 69 56
0.483935 2.164162 -0.782258 47 40 36
0.496257 2.154548 -0.762234 48 41 33
0.489316 2.165286 -0.774834 52 43 35
0.498640 2.151577 -0.770129 53 49 43
0.487278 2.158595 -0.752365 82 65 54
1.072642 1.941755 -0.975875 55 46 35
1.085861 1.940818 -0.977949 55 46 35
0.770695 2.182239 -0.507675 179 166 156
0.780179 2.167017 -0.508550 181 165 156
0.683084 2.014731 -0.705815 65 27 38
0.663739 2.021790 -0.705636 65 27 38
0.689734 2.016061 -0.714532 61 29 32
0.676239 2.023643 -0.719901 42 29 32
0.660949 2.029008 -0.699344 31 27 30
0.693720 2.009262 -0.705156 179 114 116
0.692708 2.012945 -0.693347 77 44 56
0.674729 2.024889 -0.692974 38 31 37
0.684787 2.021802 -0.698141 42 31 34
0.914829 1.924294 -0.787276 39 38 36
0.818470 2.174900 -0.566275 88 78 64
0.816705 2.165286 -0.573809 76 66 56
0.814322 2.181828 -0.572578 72 61 50
1.270981 1.953907 -0.567307 98 89 81
1.282613 1.961507 -0.565873 102 92 78
1.285343 1.945137 -0.575543 97 87 70
1.217777 1.982241 -0.844092 106 96 85
1.208811 1.962433 -0.835376 120 107 92
1.226539 1.985717 -0.830678 123 107 94
1.216770 1.972895 -0.829893 132 117 103
1.237480 1.979352 -0.820269 165 151 143
0.462207 2.018001 -0.781337 18 16 10
0.465531 2.011982 -0.743287 41 33 27
0.467876 2.002293 -0.738154 50 42 35
0.657361 2.092083 -0.753485 32 27 27
0.654266 2.106461 -0.744267 32 30 32
0.651678 2.108210 -0.728375 47 41 36
0.641000 2.117787 -0.736489 55 48 46
0.630100 2.120227 -0.738205 57 49 46
0.781245 1.936234 -0.687436 8 13 7
0.771023 1.955390 -0.676092 14 18 13
0.783590 1.955207 -0.672217 13 21 15
0.754436 1.948050 -0.681801 9 12 7
0.796339 2.236595 -0.512064 161 152 141
0.803411 2.211992 -0.511839 167 157 148
0.820293 2.236474 -0.514601 159 149 141
0.808855 2.249006 -0.514807 164 155 145
0.787164 2.254381 -0.511482 97 87 79
0.827532 1.958539 -0.671355 11 25 15
0.797948 1.959217 -0.671642 12 20 14
0.810894 1.966967 -0.665734 15 25 16
0.796799 1.935304 -0.686667 15 32 19
0.809889 1.937026 -0.686925 26 26 28
0.809613 1.935321 -0.674526 18 22 20
0.819119 1.942221 -0.679259 21 25 27
0.808960 1.948075 -0.671427 14 22 15
1.240494 2.060194 -0.303688 120 106 92
0.656416 2.073043 -0.747315 31 25 27
0.759129 1.940242 -0.611826 135 118 121
0.747226 1.951529 -0.611541 132 119 122
0.773124 1.991803 -0.608539 128 119 116
0.779277 2.008032 -0.605008 125 118 115
0.778654 1.962793 -0.775010 48 44 48
0.780962 1.962435 -0.761190 67 60 67
0.787349 1.950381 -0.782692 56 50 53
0.770711 1.961279 -0.781310 53 49 52
0.768106 1.958387 -0.751510 77 68 76
0.717103 2.008805 -0.642400 28 41 30
0.696441 2.016078 -0.643137 89 112 97
0.704354 2.011211 -0.648936 29 45 31
0.720843 2.001851 -0.653188 35 57 38
0.715193 2.005826 -0.636084 43 62 42
0.692734 2.007215 -0.654417 64 85 71
0.846352 2.302303 -0.481893 21 17 11
0.858364 2.299184 -0.483918 19 17 12
0.841818 2.302759 -0.494810 17 13 10
0.833525 2.306110 -0.502386 10 7 8
0.833004 2.317029 -0.488076 13 10 9
0.615479 1.930220 -0.732906 194 93 110
0.604888 1.934561 -0.736249 69 38 45
0.615616 1.953134 -0.731951 117 62 83
0.622978 1.955489 -0.736535 185 97 111
0.602165 1.943186 -0.731912 38 24 31
0.612672 1.946137 -0.735102 66 41 60
0.595093 1.926768 -0.738130 61 37 53
0.617635 1.941378 -0.736781 136 70 89
0.621058 1.946982 -0.731262 174 88 110
0.597928 1.928085 -0.729737 92 46 55
1.189955 2.140895 -0.343875 66 56 42
1.196500 2.125341 -0.345109 59 50 33
1.164451 2.129387 -0.344253 65 54 41
1.012668 2.335711 -0.623807 28 27 19
1.018907 2.227437 -0.550954 9 9 7
1.037269 2.239084 -0.535141 9 9 8
1.006301 2.232163 -0.562693 10 9 7
1.042063 2.239569 -0.548092 8 8 6
1.033249 2.232574 -0.552281 8 8 6
1.012079 2.221031 -0.541644 8 8 6
1.032718 2.233850 -0.543147 9 9 7
1.085148 1.933499 -1.008724 31 28 18
1.347235 1.936251 -0.843861 114 110 97
0.678973 1.969894 -0.790289 20 17 23
0.662799 1.975964 -0.789176 40 25 34
0.667315 1.986485 -0.786767 42 26 37
0.682384 1.982136 -0.788458 46 22 36
0.699947 1.984509 -0.780702 46 21 36
0.679608 1.992011 -0.783942 46 21 36
0.693767 1.986588 -0.610136 130 120 118
0.953690 2.039024 -0.607285 23 25 19
0.972627 2.051065 -0.601255 37 34 26
0.985372 2.071027 -0.602020 35 32 25
0.975303 2.038095 -0.592622 37 33 29
0.953265 2.026939 -0.605650 29 28 24
0.678976 2.277030 -0.618733 94 84 77
0.717906 1.996881 -0.726665 17 26 19
0.438666 2.188907 -0.750082 144 124 109
0.681351 2.249391 -0.618099 93 83 76
0.693929 2.280986 -0.618078 88 77 70
0.986653 2.250156 -0.564817 12 12 10
0.988171 2.282095 -0.553897 14 11 11
0.986381 2.263919 -0.575026 13 11 11
0.988019 2.276216 -0.576612 18 16 12
0.992254 2.272195 -0.586050 17 17 9
1.002431 2.266471 -0.589829 21 21 15
0.992962 2.252771 -0.576819 22 23 17
0.994089 2.300169 -0.568954 17 15 10
0.999809 2.306967 -0.583398 16 14 10
1.000325 2.289714 -0.593376 14 14 8
0.836005 2.317482 -0.462891 17 14 10
0.832412 2.335623 -0.463120 13 11 6
0.835499 2.330493 -0.443884 13 10 8
0.835580 2.318802 -0.447640 12 9 6
0.831092 2.339406 -0.437984 13 10 9
0.836503 2.341743 -0.453545 10 10 7
0.838303 2.330697 -0.422431 13 12 8
1.357784 1.962938 -0.900057 117 105 92
1.365403 1.991544 -0.900348 110 100 87
1.331743 1.974905 -0.882353 104 95 85
1.341068 1.986111 -0.878596 89 81 74
1.356916 1.975337 -0.905218 128 117 106
1.352158 1.988738 -0.886913 93 84 74
1.360619 1.982174 -0.895390 104 95 84
0.928337 2.217494 -0.327482 48 42 35
0.934412 2.223567 -0.300959 72 64 57
0.935406 2.238008 -0.326661 38 32 25
0.940696 2.242898 -0.308828 33 28 22
0.473742 2.168655 -0.683820 129 91 83
0.468995 2.164914 -0.699273 125 85 77
0.479996 2.154480 -0.686225 119 81 74
0.473826 2.166846 -0.714281 116 79 65
0.538460 2.140169 -0.649197 102 71 68
0.558262 2.126913 -0.643156 60 29 21
0.550380 2.133914 -0.633271 58 32 21
0.527821 2.144702 -0.629380 71 44 24
0.552769 2.137644 -0.628311 71 41 22
0.766623 1.925727 -0.789834 18 18 17
0.979789 2.259546 -0.463079 20 18 14
0.798461 2.288342 -0.523968 52 47 49
0.797414 2.296216 -0.524994 56 48 52
0.810583 2.296140 -0.524493 64 55 59
0.811403 2.303576 -0.516232 47 45 43
0.818654 2.311640 -0.504561 16 12 8
0.817822 2.307742 -0.525654 59 49 55
0.807771 2.320648 -0.525770 53 48 50
0.811363 2.295173 -0.511983 13 10 6
0.950516 2.262483 -0.321431 50 42 36
0.839540 2.309102 -0.444456 31 25 18
0.844580 2.310769 -0.432729 32 28 23
0.841938 2.309703 -0.460667 29 24 17
1.075601 1.941384 -0.922255 27 21 13
1.060431 1.944812 -0.920338 23 16 14
1.067346 1.951815 -0.924211 31 24 17
1.076589 1.951971 -0.935269 34 29 24
1.050875 1.956048 -0.931187 72 64 50
1.069800 1.951864 -0.513830 34 32 28
1.089391 1.931633 -0.509605 37 35 35
1.092693 1.948637 -0.511625 35 34 33
0.682253 2.158858 -0.498923 115 105 99
0.681859 2.175193 -0.507627 13 12 8
0.674176 2.158040 -0.507867 89 82 75
0.683980 2.158609 -0.512382 116 105 97
0.672027 2.154679 -0.514170 110 97 85
0.816458 1.929101 -0.775433 33 32 33
0.798584 1.931858 -0.761947 54 48 55
1.312480 1.948165 -0.844290 70 65 59
1.302339 1.941934 -0.839427 93 85 79
0.687629 2.014122 -0.654005 60 78 67
0.667033 2.014997 -0.630253 113 126 111
0.685678 2.014081 -0.633387 76 93 78
0.713900 2.101449 -0.565685 107 115 97
0.696330 2.122299 -0.560800 120 121 106
0.709450 2.077253 -0.573042 19 55 48
0.549475 2.332592 -0.616990 107 93 85
1.031464 1.959994 -0.960902 30 27 20
1.026992 1.966438 -0.950701 51 45 36
1.015825 1.961107 -0.962800 68 59 49
1.048595 1.948089 -0.971256 62 55 42
1.036051 1.957161 -0.949032 44 39 30
1.017968 1.945460 -0.974591 29 26 22
1.034297 1.957698 -0.963953 43 37 30
1.036566 1.950143 -0.957349 31 28 20
1.052117 1.957819 -0.957258 47 37 32
0.817485 2.100697 -0.499996 136 124 113
0.819098 2.107621 -0.500403 145 134 122
0.848084 2.097284 -0.519435 106 97 87
0.987467 2.170122 -0.279664 124 110 96
1.005502 2.163684 -0.261395 127 111 99
0.991489 2.168262 -0.260468 126 109 101
1.007141 2.160911 -0.247618 122 106 95
1.050304 2.265856 -0.483813 14 12 11
1.047139 2.261076 -0.503932 12 11 10
1.056584 2.278529 -0.481985 15 12 10
0.935388 1.958752 -0.966396 24 21 16
1.265797 2.046876 -0.866705 92 83 66
1.256137 2.035224 -0.865949 92 84 70
1.255621 2.030739 -0.853370 91 81 64
1.261214 2.030650 -0.867202 91 82 68
1.245196 2.025001 -0.862863 93 82 66
1.253624 2.115047 -0.537154 47 42 32
0.786088 2.092731 -0.544882 147 140 123
0.766819 2.103354 -0.545799 151 143 125
1.068276 2.266160 -0.627776 41 34 23
1.097952 2.247440 -0.626198 42 33 21
1.093531 2.266562 -0.626241 40 31 19
1.310843 1.955335 -0.881789 86 70 54
1.312865 1.927188 -0.884255 125 114 104
0.857707 2.152651 -0.543850 186 166 149
0.854681 2.132313 -0.552089 147 134 120
0.857919 2.146223 -0.533932 192 174 153
0.855554 2.150736 -0.558167 174 158 141
0.855303 2.132936 -0.537036 133 123 112
0.852368 2.142425 -0.560568 188 172 152
0.681401 2.182257 -0.516557 51 47 42
0.689141 2.195846 -0.517254 13 10 6
0.785950 2.434000 -0.621302 50 40 29
0.800895 2.438935 -0.622757 50 40 29
0.792300 2.420390 -0.622334 55 46 36
0.808316 2.430757 -0.617820 47 35 27
1.003393 1.961440 -0.505793 41 46 48
1.002149 1.983851 -0.511079 40 45 47
1.246156 1.939962 -0.811878 204 194 184
1.238755 1.937183 -0.802219 205 188 179
1.256806 1.941073 -0.800588 192 171 158
1.241339 1.944664 -0.802522 185 172 165
1.259241 1.938972 -0.811054 187 173 157
0.707318 2.237198 -0.568105 40 33 25
0.716790 2.250689 -0.574210 63 55 39
0.710177 2.228412 -0.593715 51 42 33
0.707173 2.227921 -0.575184 46 37 29
0.717407 2.246850 -0.586319 44 36 29
0.797511 2.065030 -0.559967 91 103 90
1.173019 1.934936 -0.520048 76 77 89
0.767241 1.949051 -0.787345 49 44 47
0.761136 1.938486 -0.789423 25 25 24
1.030547 2.230903 -0.525875 9 9 7
1.019922 2.219712 -0.513477 15 14 11
1.035002 2.238801 -0.510854 15 13 10
1.043877 2.256033 -0.499137 11 9 10
1.021101 2.224628 -0.500146 13 12 9
0.713881 1.986115 -0.744900 36 36 34
0.712575 1.972919 -0.740088 14 16 13
0.717874 1.965895 -0.735226 14 15 13
1.329534 1.963409 -0.885193 91 84 78
1.305745 1.969567 -0.881205 109 93 75
1.315867 1.973330 -0.879478 117 102 84
0.990123 2.286343 -0.513951 13 12 10
0.985036 2.258568 -0.499985 14 13 9
0.989831 2.276485 -0.523661 13 12 10
0.988463 2.262052 -0.513822 18 17 12
0.749983 2.135190 -0.510938 115 103 91
0.733819 2.152305 -0.505926 134 118 104
0.743757 2.126703 -0.518166 151 144 128
0.735853 2.128519 -0.524710 160 151 132
0.726149 2.140459 -0.511077 141 131 116
0.758671 2.150597 -0.508320 179 165 155
0.724391 2.154242 -0.503877 167 149 139
0.947376 2.008609 -0.602383 34 33 29
0.511729 2.151883 -0.641634 67 57 49
0.719975 1.930779 -0.611880 130 119 116
1.355163 1.953530 -0.562859 98 86 69
1.351025 1.927019 -0.575684 99 88 70
1.335219 1.940928 -0.570406 106 95 75
0.984011 2.175773 -0.336028 33 28 16
1.003148 2.163380 -0.345713 34 29 17
1.007283 2.177074 -0.349250 30 27 15
1.364022 1.949716 -0.854067 72 66 56
1.333040 1.948100 -0.846713 73 67 56
0.803154 1.929442 -0.692282 26 35 37
0.686913 2.143064 -0.549412 163 149 134
0.702029 2.138433 -0.541211 166 152 136
0.715599 2.137751 -0.525447 165 153 132
0.712436 2.121789 -0.559471 153 147 127
0.697757 2.134985 -0.552103 161 153 132
0.554526 2.094613 -0.694041 48 43 43
0.541282 2.081593 -0.692126 49 44 43
0.546932 2.089743 -0.679522 55 49 47
0.688848 2.006124 -0.732340 20 13 21
0.683099 1.999286 -0.744526 59 33 40
0.668283 2.008710 -0.736384 40 25 30
0.686227 2.006938 -0.739129 25 17 19
0.672499 2.002855 -0.744590 50 42 49
0.662049 2.020624 -0.730193 29 21 21
0.663074 2.023798 -0.720306 31 22 26
0.675642 2.018725 -0.731077 81 40 43
1.155018 2.141452 -0.347104 57 49 39
1.168724 2.157593 -0.347980 37 32 22
0.833189 2.337023 -0.332737 16 12 9
0.836261 2.339921 -0.319413 13 11 7
0.707397 1.996808 -0.766575 54 45 52
0.698470 1.993307 -0.774581 26 25 29
0.712985 1.996276 -0.755977 89 76 83
1.000631 2.233616 -0.495457 17 15 10
0.990194 2.240514 -0.489837 17 15 10
0.990796 2.242566 -0.476929 20 19 14
0.981707 2.248425 -0.468558 22 21 15
1.006038 2.231952 -0.476626 18 16 12
1.387535 1.972855 -0.922467 143 134 120
1.085276 2.118978 -0.324411 176 157 142
1.072273 2.125381 -0.323242 148 132 117
1.074579 2.131505 -0.299655 176 157 142
0.786662 1.964032 -0.631951 121 116 107
0.763335 1.914242 -0.627575 113 114 103
0.779434 1.942871 -0.629003 113 112 105
1.075154 2.126619 -0.196768 118 106 92
0.534637 2.166924 -0.620277 81 53 28
0.504281 2.186028 -0.619719 86 56 27
0.708172 2.234109 -0.616357 64 59 51
0.716655 2.235666 -0.612551 51 50 43
0.685503 2.210238 -0.616018 73 68 58
0.719638 2.233953 -0.603198 44 44 37
0.824986 2.056663 -0.555449 54 60 51
1.353502 1.978213 -0.865676 62 57 43
1.380660 1.988403 -0.878877 60 54 43
1.374578 1.976449 -0.869453 52 46 35
0.976440 2.251360 -0.382739 23 19 14
0.966963 2.251285 -0.373799 21 20 12
0.592226 2.230779 -0.617592 104 93 85
0.624851 2.262341 -0.618101 105 92 87
0.630028 1.953474 -0.678377 30 21 24
0.636393 1.943830 -0.674722 28 17 23
0.658987 1.938292 -0.678482 34 34 30
0.641464 1.935909 -0.680443 60 29 44
0.640597 1.934814 -0.673860 161 92 100
0.650296 1.927124 -0.674237 79 56 54
0.650957 1.937850 -0.684851 10 11 9
0.633095 2.121350 -0.689865 82 72 70
0.647921 2.117268 -0.669490 82 71 69
0.651158 2.101168 -0.652789 56 52 47
0.655303 2.108451 -0.668000 58 53 50
0.633668 2.121106 -0.664954 90 79 74
0.648292 2.112738 -0.658572 73 67 61
0.840805 2.142046 -0.576018 126 115 96
0.850703 2.150787 -0.567805 95 82 61
0.850832 2.126101 -0.564847 159 148 130
0.853014 2.126917 -0.572255 148 134 119
0.844876 2.127427 -0.580704 123 107 89
0.848017 2.136978 -0.583856 117 100 79
0.840055 2.149467 -0.582113 108 92 75
0.819880 2.153573 -0.579864 48 36 34
1.184755 2.079354 -0.307894 118 104 91
1.195287 2.082498 -0.280940 119 103 90
1.177352 2.088024 -0.292642 132 118 106
1.010361 2.153283 -0.193060 121 108 92
1.030876 2.145866 -0.181382 122 107 92
1.023414 2.148151 -0.201725 119 108 90
1.020296 2.149220 -0.175759 121 108 95
0.621618 1.946717 -0.681987 9 12 11
1.066165 2.299865 -0.626878 35 26 17
1.053162 2.297801 -0.625483 34 25 16
0.924228 1.940769 -0.754911 42 39 37
0.928035 1.936263 -0.772291 44 39 37
0.934070 1.953897 -0.769172 41 38 35
0.933480 1.943392 -0.777706 44 39 37
0.939277 1.964017 -0.776323 40 38 37
0.927902 1.953732 -0.762203 39 34 39
0.928522 1.971166 -0.777678 37 32 34
0.886508 2.162323 -0.607105 118 103 90
0.891604 2.168518 -0.608113 101 88 84
0.904819 2.170067 -0.603373 115 106 100
0.905846 2.181275 -0.606306 116 106 99
0.898775 2.185585 -0.607329 118 103 96
0.887321 2.162494 -0.596564 122 105 89
0.886399 2.151670 -0.597170 120 104 86
0.763937 2.026647 -0.598489 116 120 115
0.782515 2.023335 -0.594629 38 63 57
0.877491 2.310517 -0.397742 53 44 36
0.852976 2.306339 -0.420087 43 37 29
0.863881 2.305238 -0.409497 47 38 31
0.873289 2.307113 -0.417664 55 45 37
0.863358 2.300098 -0.422357 43 37 30
0.974022 2.255892 -0.420717 21 18 11
0.975328 2.252905 -0.403286 22 19 12
0.977912 2.258894 -0.435721 22 18 14
0.981531 2.272388 -0.432294 21 18 12
0.647434 2.084219 -0.786559 55 43 41
0.669958 2.154270 -0.547854 90 81 73
0.676464 2.154926 -0.536157 103 93 84
0.684672 2.137065 -0.558329 143 134 123
0.677457 2.147904 -0.558778 127 114 105
0.652781 2.018534 -0.751313 49 37 47
0.650264 2.024532 -0.720318 32 24 23
0.655756 2.019002 -0.732368 32 24 23
0.634387 2.016021 -0.744223 54 36 47
0.638827 2.010110 -0.742354 57 37 50
0.658098 2.001779 -0.740045 59 37 54
0.643075 1.999870 -0.737449 55 36 51
0.656196 2.001945 -0.735338 55 31 35
0.649387 2.023661 -0.733222 52 45 42
1.200382 2.021252 -0.987970 73 63 58
1.184238 2.010178 -0.989063 74 67 57
1.191469 1.993983 -0.985986 63 56 45
1.197579 2.002578 -0.987037 65 56 49
1.202134 2.012282 -0.978073 64 55 48
1.193674 2.010540 -0.988872 72 63 56
1.183091 1.987218 -0.986201 67 61 50
0.718831 2.388307 -0.618222 75 67 60
0.752563 2.401059 -0.621646 77 68 61
0.737699 2.384075 -0.620604 75 67 59
1.015863 2.349485 -0.611046 17 14 9
1.018275 2.344371 -0.593120 14 13 10
0.535481 2.002347 -0.753814 77 53 32
0.776880 1.965154 -0.729323 18 21 19
0.751384 1.977424 -0.728643 15 16 15
0.766457 1.977365 -0.731062 12 14 14
0.981447 2.252685 -0.482358 16 15 10
0.982745 2.262241 -0.476011 17 15 12
0.652620 2.025208 -0.708993 56 30 35
0.637583 2.026440 -0.685029 39 26 34
0.759165 2.097561 -0.557267 153 142 127
0.750997 2.110363 -0.552825 161 147 131
0.730060 2.118811 -0.556910 154 147 130
0.727117 2.125365 -0.552421 158 150 131
0.870436 2.304060 -0.348310 50 42 36
0.880929 2.313025 -0.356046 55 45 39
0.857332 2.300564 -0.349508 49 41 35
0.857796 2.301673 -0.365577 48 42 34
0.663450 2.148961 -0.613987 66 58 51
0.682204 2.155133 -0.597840 44 48 42
0.674098 2.131182 -0.597664 36 48 40
0.681281 2.159808 -0.606229 51 51 45
0.819646 2.191154 -0.563236 85 76 64
0.837425 2.347095 -0.369221 20 16 14
0.844131 2.362099 -0.383067 15 13 10
1.020868 2.112867 -0.605840 40 33 25
0.720423 1.987867 -0.685464 16 29 17
0.676186 2.143342 -0.582422 38 46 38
0.674601 2.131581 -0.571913 42 47 39
0.699961 2.451173 -0.620901 69 60 51
0.717493 2.441166 -0.619742 66 56 49
0.997698 2.270299 -0.627125 28 45 39
0.997346 2.253399 -0.624712 14 29 22
1.006344 2.262819 -0.627101 22 42 38
0.562745 2.145222 -0.623349 78 49 23
1.204731 2.025513 -0.980259 74 65 61
0.604252 2.056872 -0.762204 60 33 23
0.594135 2.047696 -0.755421 55 23 18
0.622262 2.036883 -0.782055 84 63 60
0.627383 2.026453 -0.776351 83 72 68
0.600392 2.037107 -0.764669 58 30 19
0.427917 2.073678 -0.790559 50 42 35
0.441297 2.079642 -0.797284 56 49 42
0.429771 2.056862 -0.796272 67 58 51
0.747664 1.988863 -0.610117 128 119 116
0.731754 2.011516 -0.607683 130 118 117
0.748821 2.019568 -0.604401 127 118 116
0.472668 2.105210 -0.721635 94 50 35
0.470357 2.118815 -0.711135 102 55 39
0.472479 2.106453 -0.689873 81 32 29
1.088945 2.209041 -0.620345 43 34 24
1.085271 2.219431 -0.622140 43 33 24
0.645188 2.016558 -0.608448 91 86 80
1.005998 1.930577 -1.012527 68 57 44
0.681996 2.062706 -0.596013 113 116 111
0.658298 2.063149 -0.603467 87 88 85
0.663764 2.085493 -0.595325 39 55 46
0.958144 2.170750 -0.139516 159 138 118
1.386490 1.985837 -0.596210 112 95 74
1.385929 1.974393 -0.593211 118 98 75
0.934100 2.201725 -0.201825 82 71 60
0.943310 2.183342 -0.181056 97 85 71
0.934039 2.209476 -0.185160 66 57 47
0.935962 2.192309 -0.188676 91 80 68
0.932563 2.202934 -0.165517 70 63 51
0.563867 1.935194 -0.755485 86 98 100
0.584774 2.198908 -0.617956 95 79 63
0.677055 1.930318 -0.628145 129 126 117
0.967338 1.972558 -0.939646 38 35 27
0.974271 1.973464 -0.934161 57 52 41
0.962364 1.975883 -0.937075 35 32 26
0.959860 1.987802 -0.940163 52 42 32
0.958676 1.985013 -0.929522 53 42 34
0.977583 1.962533 -0.924335 30 25 17
0.965007 1.976689 -0.928023 37 32 24
0.972238 1.972964 -0.924263 37 32 24
0.958317 1.978652 -0.924724 41 32 27
0.902379 1.985168 -0.622125 39 48 47
0.646544 1.948239 -0.628568 91 107 93
0.637089 1.924894 -0.626701 129 130 119
0.619663 1.966462 -0.629592 115 121 109
0.781313 2.251000 -0.513130 83 73 72
0.782048 2.238631 -0.508798 131 121 112
0.777522 2.243854 -0.499710 21 17 13
0.761212 2.236844 -0.506792 87 79 72
0.771497 2.234842 -0.499627 31 23 17
0.774755 2.219882 -0.505559 103 93 85
0.770396 2.243007 -0.509641 86 78 73
1.150720 2.102413 -0.270987 119 104 92
1.146256 2.101265 -0.291824 119 106 93
1.159653 2.095925 -0.297851 122 109 98
0.467042 1.980186 -0.769255 61 57 13
0.468358 1.992270 -0.758505 63 55 27
0.464509 1.999125 -0.770610 53 50 12
0.632226 1.936779 -0.610835 136 126 123
0.992108 2.317853 -0.450445 16 15 10
0.835375 2.349781 -0.440913 13 12 7
0.842386 2.365736 -0.446929 18 15 11
0.847080 2.370813 -0.460211 16 16 11
0.837826 2.349238 -0.459839 15 12 10
1.006846 2.335510 -0.551164 20 18 14
0.994857 2.320419 -0.555805 29 24 20
1.004205 2.323295 -0.547093 22 19 15
1.003289 2.329833 -0.535296 22 19 15
0.999580 2.337660 -0.555456 23 17 12
0.437963 2.181440 -0.637870 86 61 40
0.428885 2.197676 -0.662935 142 123 110
0.468231 2.182953 -0.623925 86 54 25
0.464981 2.171799 -0.632143 86 57 32
0.414022 2.189829 -0.631992 87 61 38
0.456420 2.180242 -0.649864 149 130 118
0.751573 1.984860 -0.719892 25 34 29
0.743344 1.990223 -0.707608 27 38 33
0.759042 1.975898 -0.693002 9 14 9
0.756598 1.988010 -0.704738 24 37 28
0.731079 1.999578 -0.709243 28 37 33
0.748092 1.993291 -0.695404 21 41 28
0.755314 1.987640 -0.694100 10 14 7
0.743228 1.989262 -0.687108 10 15 8
0.452532 2.423783 -0.616272 53 36 15
0.967726 2.292929 -0.341562 17 15 10
0.975304 2.297378 -0.362929 20 16 10
0.966380 2.284679 -0.358065 19 15 10
1.022152 2.334007 -0.612440 15 12 6
1.021707 2.345541 -0.613667 17 14 8
1.017277 2.317481 -0.617281 13 11 4
1.013935 2.320286 -0.600863 12 12 6
1.020381 2.336814 -0.618532 26 19 12
1.021684 2.344110 -0.604230 13 12 9
1.019933 2.333830 -0.600849 13 12 8
0.724987 2.250737 -0.611366 49 48 40
0.723112 2.240057 -0.596273 50 46 35
0.839457 2.352489 -0.427797 12 11 7
0.837541 2.337794 -0.410960 14 10 8
0.839489 2.323537 -0.396607 15 10 7
0.838470 2.321174 -0.431533 23 19 16
0.842331 2.322658 -0.408390 28 23 17
0.609781 1.960845 -0.676160 35 18 20
0.614018 1.932360 -0.682239 7 11 10
0.600063 1.932151 -0.681734 8 12 10
0.609658 1.947347 -0.682272 13 14 13
0.603044 1.934684 -0.667188 148 77 85
0.623764 1.933468 -0.667978 91 50 50
0.626265 1.957174 -0.672104 96 51 51
0.606381 1.949898 -0.671553 153 82 86
0.619344 1.964811 -0.671923 152 80 89
0.614217 1.947834 -0.667905 167 85 94
0.485846 2.154817 -0.744768 100 75 62
0.470114 2.178418 -0.715179 110 85 67
0.478538 2.176570 -0.740610 112 86 68
1.092698 2.117274 -0.344118 10 9 6
1.097191 2.101550 -0.339958 14 11 6
1.076493 2.124938 -0.344110 13 11 5
0.987374 1.941219 -0.502182 40 43 45
0.973751 1.971080 -0.504085 26 29 30
1.011019 1.949664 -0.506174 57 61 68
1.003240 1.932187 -0.504725 62 65 70
0.820627 1.951755 -0.724779 21 19 26
0.942053 2.192032 -0.258836 112 99 84
0.933507 2.207319 -0.277484 68 60 49
0.941115 2.188165 -0.291377 106 93 78
0.964844 2.177215 -0.221918 122 109 95
0.962673 2.179657 -0.233545 124 108 94
0.981376 2.169600 -0.207922 121 108 93
0.964508 2.179070 -0.208997 122 107 93
0.946319 2.186059 -0.204151 123 108 95
0.993418 2.164586 -0.227722 123 108 97
0.509036 1.973125 -0.759641 57 36 13
0.525028 1.979887 -0.758594 44 19 7
0.454930 2.134809 -0.790883 42 35 31
0.446295 2.131269 -0.787025 29 25 20
1.068407 2.132687 -0.227443 124 108 96
1.088255 2.122758 -0.231231 123 108 95
0.870929 2.306685 -0.486423 27 21 13
0.814440 1.950971 -0.741768 38 33 37
0.806700 1.940663 -0.722110 17 19 18
0.783116 1.966433 -0.723487 17 22 17
0.794270 1.953485 -0.722566 18 21 20
0.809581 1.939601 -0.729265 16 17 20
0.794198 1.938636 -0.732104 18 20 19
0.809223 1.938655 -0.741662 24 23 26
0.815900 1.935860 -0.754293 40 37 49
1.352965 2.037930 -0.543369 26 25 19
1.076719 1.929989 -0.506506 48 48 50
0.711699 1.990571 -0.631725 41 57 41
0.698204 1.964805 -0.629388 95 99 87
0.711270 1.963439 -0.627960 96 99 87
0.697052 2.005320 -0.633760 80 85 70
0.725909 1.997488 -0.633234 62 76 60
0.880507 1.995192 -0.604175 9 32 30
0.862432 1.995890 -0.594841 9 32 30
0.946674 2.125052 -0.601450 24 21 10
0.962085 2.128969 -0.602319 20 33 27
0.969944 2.148887 -0.603256 20 38 30
1.060505 2.256595 -0.627032 38 38 29
1.043751 2.253707 -0.628521 37 38 30
1.047961 2.282557 -0.628542 31 38 29
1.054054 2.274868 -0.630685 38 37 31
1.071488 2.285900 -0.627144 41 36 29
1.041868 2.262197 -0.629218 31 36 29
0.850529 1.961022 -0.684788 28 23 31
0.874969 1.989076 -0.664300 69 87 80
0.857077 1.972476 -0.663586 40 61 51
0.866518 1.981456 -0.658871 29 22 25
1.031881 2.256205 -0.624813 33 39 30
1.037802 2.271842 -0.627486 35 40 30
1.039585 2.290209 -0.627136 39 38 30
1.024907 2.252685 -0.624506 28 42 33
1.026833 2.264119 -0.627863 29 40 31
1.091560 2.125085 -0.289106 163 145 131
0.985627 2.301836 -0.385880 20 18 13
0.979983 2.296865 -0.370819 20 17 11
0.980273 2.273808 -0.385866 23 19 13
0.944209 1.962040 -0.952384 48 42 34
0.952686 1.976007 -0.946513 45 39 31
0.962295 1.975473 -0.956200 55 49 39
0.954772 1.963979 -0.964679 56 52 41
0.952058 1.967962 -0.973403 56 52 41
0.946071 1.985662 -0.944673 40 33 23
0.963063 1.984392 -0.944733 42 36 25
0.970212 1.978626 -0.949569 45 40 34
0.987996 2.279363 -0.491197 13 12 9
0.989415 2.282466 -0.478923 22 19 14
0.988763 2.296268 -0.460185 19 17 11
0.992121 2.299941 -0.467909 20 18 11
0.942222 2.379045 -0.571875 31 30 22
0.946703 2.380648 -0.577552 38 35 27
0.723624 2.255848 -0.590094 50 40 32
0.995369 1.959624 -0.953856 55 48 34
1.012755 1.953287 -0.972055 60 53 43
1.003546 1.955087 -0.970271 62 54 39
1.002753 1.956142 -0.959344 69 59 46
0.991885 1.957459 -0.958853 63 55 39
0.995168 1.963239 -0.967677 43 36 23
1.047018 2.139503 -0.339323 21 21 16
1.066314 2.131316 -0.342626 11 10 4
0.860301 2.145276 -0.588914 127 106 95
0.876984 2.147421 -0.593340 122 105 87
0.695184 2.151370 -0.496964 162 146 137
0.704585 2.145759 -0.519199 171 157 138
0.708565 2.157593 -0.505088 160 143 132
0.727514 2.135532 -0.515702 166 153 134
0.691849 2.154326 -0.521030 145 131 120
1.153816 1.988824 -0.531378 54 55 59
0.602364 2.466080 -0.618190 76 67 57
0.628067 2.449064 -0.617391 77 66 56
0.631726 2.196653 -0.618490 103 91 82
0.615226 2.204779 -0.617944 92 78 64
0.874792 1.979645 -0.781630 50 46 51
0.876920 1.958827 -0.793785 50 50 57
0.864389 1.961857 -0.790716 62 60 66
1.202961 1.975294 -0.529577 67 70 78
1.186265 1.971462 -0.526677 65 67 74
1.203346 1.997739 -0.529795 76 76 81
1.198213 1.964077 -0.529819 67 71 83
0.611691 2.165665 -0.618761 78 56 36
1.182494 2.086624 -0.253948 116 104 87
0.789858 1.954688 -0.766172 49 43 47
0.800720 1.946753 -0.775179 36 30 39
0.801096 1.943628 -0.784152 31 28 34
0.808687 1.940406 -0.778996 29 25 36
0.475029 2.145401 -0.715827 113 72 56
0.471735 2.149751 -0.699755 101 54 49
0.474350 2.129611 -0.694482 80 39 39
0.478606 2.141462 -0.690693 83 48 45
0.470186 2.123700 -0.702746 110 61 46
0.620837 1.968352 -0.675925 97 49 52
0.768130 2.339254 -0.612785 49 40 32
1.002775 1.970618 -0.948034 55 53 40
1.071143 1.940527 -0.960161 57 48 37
1.067847 1.941031 -0.966468 70 62 49
1.071426 1.955487 -0.958823 75 65 55
1.069254 1.954024 -0.945335 71 62 51
1.052089 1.960310 -0.941896 61 53 46
1.061951 1.959868 -0.948220 80 68 57
1.057372 1.954251 -0.959613 42 40 34
1.113036 2.113125 -0.236090 116 106 92
1.104594 2.119179 -0.262554 119 107 92
1.204282 2.001998 -0.939141 53 43 39
0.649102 1.930950 -0.789147 15 14 14
0.634193 1.931207 -0.787626 16 13 14
0.635983 1.950939 -0.789970 10 12 10
0.658906 1.956905 -0.791292 7 13 13
0.706784 1.932708 -0.627061 130 121 115
0.808295 1.974362 -0.660386 38 53 41
0.818916 1.967436 -0.661750 33 65 45
0.796896 1.972592 -0.662855 48 64 49
0.890947 2.324916 -0.406199 55 45 38
0.878490 2.309721 -0.433286 53 44 35
0.894866 2.329271 -0.448215 54 45 36
0.745852 2.307856 -0.616127 58 50 42
0.748480 2.297540 -0.609636 50 44 33
1.065877 1.930601 -1.009251 59 50 43
1.066296 1.939460 -0.997401 66 57 45
1.040680 1.941588 -0.993396 85 73 56
1.056225 1.942420 -0.974664 73 64 51
1.060590 1.938034 -0.985580 51 45 33
0.472080 2.322079 -0.618680 57 38 18
0.501383 2.356609 -0.619053 58 38 19
0.477818 2.196859 -0.620455 93 59 29
0.479726 2.219779 -0.619246 86 60 28
1.266580 2.106985 -0.535174 70 62 47
1.290449 2.120017 -0.535397 74 68 52
1.049392 2.258702 -0.405340 33 30 19
1.052716 2.264172 -0.420257 34 32 19
1.055773 2.268723 -0.434797 33 30 20
1.204139 1.935327 -0.556083 100 93 100
1.199966 1.953751 -0.540394 124 111 103
1.192105 1.938978 -0.542828 92 88 98
1.003390 2.151954 -0.169616 124 109 96
1.015942 2.144903 -0.159657 128 114 96
0.685225 2.382967 -0.617411 86 77 71
0.697582 2.359872 -0.617002 85 77 69
1.013045 2.307703 -0.612641 13 12 5
0.987130 2.287072 -0.618899 32 30 22
1.012250 2.291895 -0.604010 14 15 6
1.009647 2.299169 -0.599806 13 12 7
0.987193 2.300089 -0.616493 35 28 19
0.992069 2.301019 -0.620026 41 31 26
1.006201 2.316071 -0.624617 31 24 14
1.331747 1.984704 -0.872677 93 84 76
1.330146 1.981794 -0.867649 73 68 59
1.356641 1.989223 -0.875061 79 74 64
1.324908 1.968038 -0.857055 70 64 55
1.276294 1.997938 -0.870374 156 139 119
1.298200 1.994446 -0.876035 140 120 102
1.278431 2.026196 -0.864391 141 131 120
1.280933 2.017351 -0.861127 149 133 118
1.285848 2.014402 -0.853794 128 112 94
1.276167 2.005213 -0.852834 149 132 113
1.277996 2.018897 -0.844106 109 99 87
0.659368 2.010252 -0.765851 56 51 59
0.639285 2.024550 -0.752021 56 44 46
0.632992 2.005782 -0.783935 42 34 36
0.639014 2.004786 -0.775799 47 45 43
0.628237 2.021934 -0.770054 58 50 45
0.639811 2.022913 -0.766337 45 42 40
0.941056 2.319376 -0.623505 56 49 37
0.946426 2.331861 -0.624188 57 50 38
0.907979 2.065785 -0.589146 14 43 32
0.894823 2.063074 -0.577849 13 32 22
0.906177 2.090950 -0.589564 22 40 28
0.965012 2.272474 -0.362984 18 16 10
0.956757 2.270394 -0.354541 18 15 10
1.025892 1.996521 -0.518451 43 48 49
0.917988 1.975815 -0.797371 10 12 14
0.954355 1.934248 -0.510439 57 65 74
0.837111 2.183865 -0.510541 171 155 145
1.032861 1.944496 -0.923147 34 28 24
1.052967 2.259274 -0.551189 8 8 6
1.053047 2.263386 -0.528978 9 8 6
1.062383 2.283869 -0.527523 8 8 6
1.064862 2.276079 -0.552179 9 9 7
1.054119 2.266304 -0.540004 9 9 7
1.045532 2.250947 -0.535448 9 9 7
1.061921 2.281315 -0.559289 8 9 6
0.590225 2.374778 -0.615868 100 88 80
0.580789 2.385186 -0.616404 101 88 82
0.948818 2.305560 -0.623613 39 33 23
0.947754 2.288929 -0.620813 39 33 23
1.001930 2.120636 -0.607301 35 35 28
1.001063 2.137333 -0.609819 37 36 31
1.021353 2.129023 -0.609666 39 34 28
1.000583 2.163669 -0.611403 31 35 28
0.773601 1.971778 -0.610087 128 118 117
1.042256 1.946426 -0.980109 56 49 37
1.022551 1.933236 -0.992379 50 39 34
1.034696 1.944616 -0.984550 50 42 31
1.036436 1.934643 -1.005143 49 45 33
1.005754 1.932498 -0.993801 58 48 42
1.018580 1.945929 -0.984514 41 32 27
1.034743 1.950119 -0.977351 44 34 30
0.699044 1.940467 -0.628125 132 122 116
0.736797 1.942102 -0.629012 130 121 115
0.709908 1.944080 -0.627231 128 120 113
1.370202 1.993551 -0.895437 111 101 88
0.998413 1.949440 -0.985105 73 64 52
0.997195 1.944308 -0.976611 56 49 38
1.000639 1.944808 -0.991545 89 81 65
1.009958 1.948245 -0.981894 75 66 55
1.000681 1.936922 -1.000059 77 71 55
0.993063 1.952063 -0.978959 51 44 34
1.276301 2.084104 -0.536049 87 80 64
1.288769 2.060095 -0.542620 72 64 50
1.283389 2.067655 -0.539484 78 73 55
1.273120 1.993265 -0.875566 86 78 66
1.246371 1.968843 -0.871309 123 113 96
1.252431 1.995442 -0.866162 84 77 64
1.243127 1.985853 -0.856614 120 112 97
1.234166 1.990414 -0.852702 123 110 97
1.244535 1.990498 -0.850132 120 112 97
1.259396 1.996071 -0.872925 139 125 103
1.236203 1.975303 -0.857324 98 89 75
1.242317 1.979931 -0.852419 142 128 111
1.257505 1.968429 -0.850125 151 134 119
1.249438 1.985898 -0.851825 149 134 117
1.259359 1.982755 -0.856730 154 133 114
1.245375 1.982286 -0.867093 81 77 61
1.025373 2.153817 -0.293938 125 110 99
1.237204 1.975129 -0.849051 131 121 107
0.628602 2.012576 -0.615911 79 79 74
1.128466 2.109631 -0.293633 117 104 91
1.019520 2.230258 -0.477037 17 15 13
1.043413 2.253902 -0.483389 14 10 10
1.037915 2.247457 -0.471960 20 17 12
1.031532 2.237288 -0.494809 14 11 11
1.024252 2.229432 -0.484833 13 12 11
1.017171 2.222908 -0.493566 15 12 11
1.018914 2.224978 -0.458642 18 15 10
0.649095 2.114582 -0.718990 63 56 55
0.660370 2.110753 -0.701762 61 56 52
0.648992 2.116913 -0.695677 71 63 59
0.635014 2.117365 -0.715159 66 60 55
0.895811 2.329288 -0.370991 56 46 38
0.448455 2.162035 -0.775027 51 45 35
0.460448 2.164392 -0.771366 38 31 28
0.447608 2.174695 -0.769508 91 78 65
0.467032 2.185651 -0.752801 111 94 82
0.452631 2.182829 -0.755498 128 109 96
0.459995 2.179933 -0.756782 93 79 71
0.429821 2.186220 -0.776342 110 95 84
0.885710 1.934972 -0.802453 36 36 55
0.897104 1.970933 -0.797067 36 35 53
0.880124 1.910273 -0.802323 27 27 32
0.912395 1.935554 -0.794031 29 28 30
0.898966 1.947229 -0.801176 25 26 30
0.985722 2.049253 -0.594902 35 32 21
0.732975 2.275750 -0.614862 56 51 42
0.744508 2.285543 -0.606618 47 42 33
0.731234 2.252831 -0.595509 47 42 33
0.735193 2.266846 -0.605323 48 43 34
0.630430 1.987292 -0.609547 128 121 118
0.668711 1.983657 -0.610602 131 120 119
0.437601 1.986778 -0.798365 96 86 77
0.448631 2.015655 -0.796819 85 77 70
0.887839 2.096947 -0.585384 76 93 82
0.900420 2.084672 -0.583935 28 38 31
0.898780 2.110360 -0.588077 31 46 40
0.887800 2.117864 -0.588976 48 67 55
0.882225 2.127828 -0.589626 75 85 72
0.907465 2.121097 -0.591004 59 74 67
0.913873 2.103178 -0.594569 65 71 60
1.022787 2.227287 -0.427285 34 31 21
1.040921 2.245564 -0.421505 32 31 22
1.033198 2.238303 -0.439289 32 30 21
1.022909 2.226359 -0.410308 36 34 22
1.016668 2.224854 -0.415962 41 36 25
1.038989 2.245358 -0.401531 32 28 18
1.016020 2.227613 -0.394493 42 35 27
1.023854 2.230031 -0.398748 42 35 27
0.941468 2.249630 -0.323967 20 15 11
0.892756 2.033563 -0.577688 12 38 35
0.889287 2.069156 -0.576386 15 21 13
0.464340 2.042192 -0.780657 39 34 30
1.212229 2.069345 -0.338134 33 28 17
1.190170 2.076850 -0.321867 61 51 39
1.193238 2.083018 -0.334328 37 30 20
1.197861 2.073660 -0.318324 166 150 137
1.167796 2.090371 -0.322101 172 155 141
1.180480 2.095008 -0.335442 92 79 62
0.840159 1.964873 -0.671969 21 39 29
0.827615 1.969017 -0.663224 24 48 36
0.831128 1.965158 -0.690169 16 17 18
0.837163 1.968418 -0.683632 20 20 22
0.947201 2.002079 -0.580543 41 34 25
0.960225 2.017779 -0.585693 39 35 27
0.956094 2.019807 -0.575239 37 30 21
0.952005 2.006561 -0.562145 38 30 22
0.963367 2.020020 -0.563736 38 31 22
0.968082 2.026244 -0.588558 35 31 23
0.506715 2.058856 -0.686738 34 31 36
0.506804 2.031998 -0.699840 20 17 17
0.527281 2.060717 -0.697306 32 28 23
0.724704 2.004050 -0.698020 25 45 31
0.733004 1.998454 -0.696272 23 41 28
1.245206 2.116656 -0.539631 34 28 19
1.241051 2.118638 -0.543388 32 26 18
1.235947 2.116765 -0.548495 29 25 20
1.244447 2.127490 -0.549979 28 23 18
1.254994 2.139943 -0.545642 28 21 16
1.256675 2.145377 -0.550451 30 26 21
1.256288 2.140942 -0.556204 29 24 20
1.264752 1.927085 -0.580878 98 89 73
0.973768 2.277100 -0.614583 30 26 17
0.987634 2.247087 -0.624594 21 40 34
0.982000 2.264252 -0.622097 26 43 37
1.014343 2.269644 -0.593479 16 13 5
1.010510 2.280212 -0.598479 14 14 7
0.448014 1.981100 -0.795971 100 88 78
0.461498 1.976165 -0.788219 87 79 66
0.457492 2.007843 -0.791819 81 75 62
0.462451 1.987402 -0.786179 79 73 58
0.932789 2.011436 -0.614777 30 34 23
0.917274 2.003994 -0.616462 26 34 24
0.940864 2.025702 -0.610369 29 30 21
0.960932 2.110965 -0.602617 22 35 29
0.921400 1.961383 -0.562918 43 40 33
0.916980 1.936825 -0.559395 49 48 42
0.923633 1.933517 -0.543967 55 59 57
0.924536 1.948296 -0.524935 49 53 58
0.932359 1.924726 -0.540405 48 55 62
0.738630 2.001215 -0.649686 38 60 44
0.753149 1.995851 -0.640701 46 59 49
0.737823 2.006828 -0.638382 44 59 47
0.727796 2.007681 -0.646621 41 60 44
0.543127 2.397294 -0.618549 63 46 33
0.548547 2.450288 -0.618304 45 31 12
1.104462 2.148530 -0.349030 12 10 5
1.016295 2.145392 -0.148894 137 121 104
1.027902 2.142490 -0.165627 124 108 95
0.485115 2.154966 -0.789530 40 35 30
0.474880 2.134340 -0.796307 54 45 41
0.465855 2.129097 -0.796927 49 40 37
0.470915 2.144989 -0.791273 41 34 31
0.491611 2.142622 -0.786448 39 35 28
0.583112 1.931911 -0.624542 66 68 59
0.595124 1.955162 -0.624102 37 40 31
0.955046 2.187068 -0.259995 123 110 95
0.894886 1.975788 -0.628336 37 49 44
0.883754 1.990609 -0.652304 73 81 67
0.885782 1.975944 -0.628533 40 52 48
0.910729 1.980711 -0.632008 31 39 38
0.900284 1.986712 -0.650234 40 45 44
0.859910 1.975694 -0.695588 39 29 38
0.849733 1.964636 -0.699466 33 27 33
0.873615 1.991248 -0.707017 36 27 28
0.865314 1.982107 -0.679926 31 26 36
0.874475 1.992730 -0.688414 31 27 37
0.748353 2.237792 -0.509439 67 58 55
0.660213 2.084855 -0.720810 28 24 26
1.400006 1.972282 -0.562858 83 71 55
1.387140 2.000301 -0.592474 112 97 76
0.883101 2.048216 -0.572178 17 31 22
0.963806 2.371006 -0.595358 58 55 41
0.952524 2.342988 -0.620234 57 54 39
0.975420 2.361279 -0.594942 112 104 90
0.972207 2.350722 -0.607564 48 42 35
0.956372 2.355128 -0.609277 60 56 37
0.953147 2.372020 -0.602098 69 65 48
1.133487 2.176332 -0.348565 8 5 3
1.131265 2.166917 -0.349384 15 13 9
1.143895 2.145618 -0.350533 12 11 6
1.010064 2.198284 -0.352901 34 30 19
0.992851 2.187638 -0.343848 37 32 21
0.471965 2.038232 -0.679021 33 13 17
0.460391 2.047390 -0.683436 57 13 14
0.857984 2.170567 -0.588804 119 99 83
0.865953 2.182068 -0.592998 123 103 88
0.947616 2.003563 -0.543171 32 22 12
1.008730 1.928490 -1.003124 62 52 39
0.835515 1.979185 -0.761250 46 38 51
0.844978 1.986631 -0.759496 43 34 41
0.835036 1.984589 -0.754979 36 29 37
0.830914 1.957047 -0.763169 41 34 39
0.839092 1.967038 -0.763104 61 56 64
0.848966 1.970981 -0.760973 64 59 73
0.856380 1.971412 -0.760986 52 47 72
0.787281 2.208866 -0.509911 167 158 149
0.797132 2.190184 -0.509818 169 157 145
0.819539 2.209944 -0.510607 170 158 146
0.527970 2.250995 -0.616947 112 100 92
0.514225 2.280997 -0.617786 103 91 79
1.385134 1.956983 -0.912763 149 138 125
0.853132 2.117425 -0.563660 112 103 90
0.854975 2.113366 -0.538744 116 106 97
0.852386 2.100891 -0.551401 65 58 50
0.857274 2.125315 -0.525780 115 107 97
0.839687 2.177732 -0.558968 44 39 35
0.855318 2.169162 -0.560775 191 177 159
0.762609 2.049066 -0.575456 19 57 50
0.766844 2.072124 -0.566357 20 57 49
1.033651 2.241768 -0.456494 21 19 12
1.011670 2.228610 -0.424778 38 35 24
1.012066 2.226355 -0.458851 30 29 18
1.016106 2.226083 -0.438072 31 30 20
1.105887 1.934949 -0.959676 78 68 56
1.087799 1.940673 -0.953356 73 66 52
1.109761 1.933303 -0.975427 42 36 28
1.081942 1.937796 -0.969468 61 49 38
1.105836 1.934089 -0.948043 83 70 66
1.083925 1.930569 -0.961218 62 55 46
1.080865 1.953318 -0.953803 51 49 34
1.084755 1.949702 -0.945403 55 50 36
0.825263 2.313083 -0.508310 13 9 6
0.823153 2.300913 -0.512358 20 14 9
0.851535 2.294470 -0.502279 21 16 13
0.842025 2.294765 -0.503428 21 15 12
0.717785 2.001037 -0.609466 126 117 115
0.704566 2.013764 -0.607848 129 119 117
1.205594 1.929080 -0.929363 152 142 122
0.904040 2.286337 -0.606013 77 64 57
0.916151 2.256766 -0.616343 95 81 71
0.888022 2.269337 -0.602365 98 81 67
0.902972 2.275729 -0.602731 95 80 68
0.901839 2.267004 -0.604247 108 91 78
0.896595 2.263092 -0.601740 105 87 74
0.912638 2.268364 -0.610528 48 39 38
0.983796 2.266181 -0.545517 16 11 10
0.818522 1.956256 -0.609660 118 112 111
0.528225 2.361029 -0.618451 82 69 58
0.556476 2.374528 -0.616668 88 76 67
0.627059 2.115005 -0.624099 63 40 17
1.273875 1.985117 -0.555452 50 49 47
1.279315 1.970932 -0.560182 82 78 71
0.536086 2.150425 -0.624037 80 49 21
0.843702 2.366988 -0.486989 14 15 10
0.842051 2.362869 -0.473670 14 13 10
0.835838 2.348691 -0.473429 13 12 8
0.841474 2.358602 -0.493451 13 12 7
0.496325 1.940942 -0.789312 83 64 50
0.434469 2.377242 -0.617324 52 35 14
0.680772 1.998250 -0.675419 19 25 19
0.664045 2.005355 -0.681317 34 28 34
0.656732 2.012650 -0.672652 24 25 21
0.669122 2.005886 -0.671121 24 25 22
0.679187 2.017389 -0.667798 39 39 33
0.685285 2.022946 -0.656744 94 105 95
0.675270 2.012134 -0.685056 50 28 38
0.688267 2.015825 -0.666872 45 57 48
0.667866 2.042704 -0.663549 45 50 44
0.660084 1.996229 -0.678795 76 43 54
0.972032 2.168417 -0.180412 123 110 94
0.982783 2.165270 -0.188134 124 110 97
0.958951 2.174854 -0.190843 123 110 94
0.974543 2.170727 -0.198334 123 111 97
0.949663 1.927363 -0.518745 54 62 73
1.034291 1.959954 -0.933852 59 52 42
1.037221 1.964674 -0.943834 57 43 36
0.929730 1.979834 -0.544122 36 27 21
0.937052 1.989604 -0.549707 37 27 22
1.010332 2.210641 -0.616656 31 40 32
0.987629 2.208616 -0.610103 27 42 33
0.695529 2.006749 -0.753669 67 44 56
0.695369 2.001318 -0.761111 43 37 42
1.355798 1.932438 -0.907923 151 139 127
0.454798 2.013640 -0.700182 51 26 21
0.463468 2.004873 -0.718197 28 23 23
0.461663 1.997025 -0.702550 27 23 24
0.455075 2.025223 -0.689460 54 19 19
0.459146 2.001915 -0.691870 28 25 31
0.824574 1.935390 -0.760837 41 37 54
0.831831 1.935524 -0.778318 36 32 36
0.819196 1.940020 -0.783900 32 29 34
0.828741 1.940216 -0.783492 39 36 38
0.824825 1.948202 -0.759009 40 35 40
0.843395 1.951867 -0.769387 44 39 51
0.845163 1.957643 -0.764119 54 49 71
0.824714 1.932633 -0.765383 35 34 35
0.844146 1.941075 -0.785373 34 30 35
0.835835 1.937628 -0.776252 36 32 39
0.951847 2.321497 -0.620101 57 50 37
0.955693 2.335604 -0.610808 57 53 39
0.446008 2.142159 -0.784200 28 23 19
0.467863 2.154418 -0.782148 39 34 30
0.850121 1.928075 -0.794901 34 29 33
0.829094 1.926023 -0.788540 37 33 38
1.152303 2.173257 -0.349963 31 26 19
1.155245 2.158266 -0.350179 34 30 22
0.620955 1.972670 -0.789727 4 12 10
0.647923 1.976816 -0.789259 35 23 30
0.643847 1.992730 -0.783932 27 21 26
0.630381 1.993113 -0.787927 5 12 11
0.523883 2.000083 -0.757594 76 53 32
0.530772 2.012046 -0.750803 75 57 35
1.017339 1.955534 -0.924919 38 32 27
0.537765 1.963953 -0.741194 102 77 59
0.558293 1.944637 -0.736496 55 45 28
0.560630 1.983616 -0.739552 58 40 25
0.816251 2.181687 -0.506114 171 156 148
0.799684 2.168857 -0.507012 174 162 149
0.850171 2.231482 -0.599828 50 37 34
0.845279 2.245482 -0.598308 49 36 33
0.847282 2.215730 -0.593411 75 58 51
0.567719 1.925104 -0.770164 53 45 47
1.069380 2.198503 -0.618603 41 33 23
1.036126 2.206436 -0.619566 37 31 25
1.060807 2.209052 -0.624398 39 32 23
1.045107 2.218965 -0.621334 41 34 27
1.057613 2.194712 -0.620876 41 33 26
1.382200 1.940194 -0.590670 96 86 65
1.363898 1.935432 -0.573459 98 87 69
1.391302 1.953090 -0.574707 85 73 54
1.389436 1.958341 -0.587480 93 81 63
1.369311 1.959906 -0.560622 91 79 62
1.378963 1.955719 -0.559598 76 68 52
1.373690 1.940773 -0.568259 91 80 63
1.387314 1.948442 -0.572045 74 63 48
1.213958 2.065578 -0.327726 107 96 80
1.231745 2.061782 -0.330383 73 64 50
0.678566 2.347498 -0.617085 90 78 73
0.693299 2.321088 -0.617572 88 78 70
1.234390 1.948414 -0.567599 97 93 86
1.248920 1.942536 -0.571666 92 90 82
0.926800 2.377948 -0.528844 32 32 21
0.464661 2.091592 -0.798000 51 43 36
0.455251 2.061400 -0.797773 54 47 41
0.933861 2.380609 -0.561014 102 94 86
0.644450 2.093186 -0.624235 40 39 32
0.646191 2.079760 -0.636039 52 51 45
0.643660 2.098369 -0.635838 39 37 31
0.648221 2.067608 -0.638928 49 50 44
0.655890 2.087169 -0.652563 48 47 43
0.643239 2.060083 -0.630796 53 55 49
1.062310 2.136471 -0.289095 123 109 94
1.045261 2.146341 -0.280934 122 108 94
1.058254 2.135148 -0.306210 126 109 94
0.502726 2.295280 -0.618809 63 42 23
0.865191 2.208686 -0.592118 110 89 76
0.857651 2.186954 -0.589608 106 88 69
0.936274 2.195868 -0.278937 84 73 64
0.935210 2.196042 -0.241678 91 79 67
0.935406 2.200250 -0.256799 82 71 63
0.942791 2.364638 -0.599448 93 87 71
