ply
format ascii 1.0
element vertex 1238
property float x
property float y
property float z
property uchar red
property uchar green
property uchar blue
end_header
-0.376856 -0.264528 0.440333 0 0 255
-0.454936 -0.266329 0.404333 0 0 255
-0.467510 -0.267765 0.408333 0 0 255
-0.440828 -0.267292 0.424332 0 0 255
-0.389769 -0.262798 0.396333 0 0 255
-0.351214 -0.268950 0.414073 0 0 255
-0.463892 -0.260363 0.442333 0 0 255
-0.415707 -0.264540 0.392333 0 0 255
-0.515496 -0.262655 0.462805 0 0 255
-0.369468 -0.271202 0.394333 0 0 255
-0.516215 -0.275660 0.384333 0 0 255
-0.476471 -0.261827 0.438333 0 0 255
-0.447073 -0.248573 0.463500 0 0 255
-0.359985 -0.271173 0.382333 0 0 255
-0.421055 -0.270460 0.373412 0 0 255
-0.402721 -0.270781 0.456333 0 0 255
-0.346679 -0.257229 0.450333 0 0 255
-0.354941 -0.238386 0.422333 0 0 255
-0.361720 -0.274893 0.450333 0 0 255
-0.349598 -0.232489 0.409464 0 0 255
-0.442532 -0.256067 0.462332 0 0 255
-0.354127 -0.249928 0.450333 0 0 255
-0.499600 -0.245586 0.467072 0 0 255
-0.383151 -0.265289 0.382333 0 0 255
-0.456085 -0.262115 0.438333 0 0 255
-0.433022 -0.269045 0.390333 0 0 255
-0.372126 -0.261517 0.426332 0 0 255
-0.410964 -0.261467 0.452332 0 0 255
-0.491300 -0.269842 0.436333 0 0 255
-0.376868 -0.264585 0.388332 0 0 255
-0.443208 -0.268869 0.408333 0 0 255
-0.467511 -0.267773 0.386333 0 0 255
-0.376027 -0.260632 0.418333 0 0 255
-0.451027 -0.267176 0.430333 0 0 255
-0.406622 -0.260277 0.410333 0 0 255
-0.477707 -0.267645 0.434332 0 0 255
-0.410949 -0.261396 0.404333 0 0 255
-0.368794 -0.274700 0.444332 0 0 255
-0.355589 -0.237349 0.376333 0 0 255
-0.351214 -0.268950 0.426633 0 0 255
-0.372025 -0.270658 0.424103 0 0 255
-0.504505 -0.278282 0.434332 0 0 255
-0.451987 -0.233215 0.457409 0 0 255
-0.348783 -0.261286 0.370332 0 0 255
-0.470957 -0.264748 0.462332 0 0 255
-0.443406 -0.269798 0.462406 0 0 255
-0.441035 -0.277887 0.388332 0 0 255
-0.401979 -0.262247 0.396333 0 0 255
-0.370900 -0.274988 0.458385 0 0 255
-0.347675 -0.255388 0.458333 0 0 255
-0.348016 -0.243046 0.380333 0 0 255
-0.379965 -0.269535 0.462332 0 0 255
-0.355471 -0.255775 0.386333 0 0 255
-0.424345 -0.266699 0.382333 0 0 255
-0.347867 -0.257391 0.430333 0 0 255
-0.399549 -0.260719 0.406332 0 0 255
-0.428817 -0.278118 0.438333 0 0 255
-0.461515 -0.278042 0.418333 0 0 255
-0.354876 -0.228456 0.428333 0 0 255
-0.489474 -0.265284 0.454333 0 0 255
-0.394253 -0.259800 0.375332 0 0 255
-0.493683 -0.275469 0.375877 0 0 255
-0.351214 -0.268950 0.455541 0 0 255
-0.465175 -0.237541 0.456333 0 0 255
-0.396734 -0.257227 0.458333 0 0 255
-0.392835 -0.272369 0.435081 0 0 255
-0.380939 -0.274118 0.448333 0 0 255
-0.482045 -0.268812 0.400333 0 0 255
-0.348524 -0.261341 0.422333 0 0 255
-0.347876 -0.253302 0.378332 0 0 255
-0.379940 -0.259802 0.372333 0 0 255
-0.437004 -0.278162 0.428333 0 0 255
-0.417851 -0.265007 0.413367 0 0 255
-0.511528 -0.272846 0.424332 0 0 255
-0.397477 -0.217251 0.458333 0 0 255
-0.502803 -0.251040 0.465873 0 0 255
-0.380939 -0.274120 0.414333 0 0 255
-0.355789 -0.242374 0.444332 0 0 255
-0.348034 -0.245089 0.448333 0 0 255
-0.393473 -0.275373 0.450333 0 0 255
-0.479852 -0.277731 0.392333 0 0 255
-0.427510 -0.252731 0.457496 0 0 255
-0.359728 -0.270527 0.418333 0 0 255
-0.354030 -0.249949 0.406332 0 0 255
-0.348889 -0.238773 0.398178 0 0 255
-0.411689 -0.274496 0.411653 0 0 255
-0.355610 -0.237343 0.400333 0 0 255
-0.501393 -0.263645 0.466333 0 0 255
-0.354502 -0.251892 0.438333 0 0 255
-0.420614 -0.278008 0.438333 0 0 255
-0.351357 -0.231144 0.422333 0 0 255
-0.417041 -0.270813 0.456333 0 0 255
-0.449376 -0.278650 0.424332 0 0 255
-0.360760 -0.265762 0.370332 0 0 255
-0.348181 -0.245056 0.424453 0 0 255
-0.448650 -0.275234 0.440333 0 0 255
-0.457439 -0.278103 0.434332 0 0 255
-0.467694 -0.278254 0.432333 0 0 255
-0.430884 -0.239746 0.457483 0 0 255
-0.488547 -0.268383 0.464333 0 0 255
-0.359660 -0.270205 0.456333 0 0 255
-0.398810 -0.262003 0.386333 0 0 255
-0.439598 -0.261503 0.456333 0 0 255
-0.351485 -0.268890 0.388332 0 0 255
-0.431285 -0.270493 0.446333 0 0 255
-0.405575 -0.255348 0.463217 0 0 255
-0.465589 -0.277971 0.390333 0 0 255
-0.431838 -0.253857 0.462573 0 0 255
-0.475812 -0.277966 0.384333 0 0 255
-0.431938 -0.235086 0.462332 0 0 255
-0.473376 -0.266508 0.390333 0 0 255
-0.477860 -0.277981 0.400333 0 0 255
-0.420271 -0.237913 0.462494 0 0 255
-0.457724 -0.270845 0.448333 0 0 255
-0.372120 -0.261488 0.406332 0 0 255
-0.386230 -0.260534 0.424332 0 0 255
-0.357679 -0.270504 0.444332 0 0 255
-0.356299 -0.235153 0.462991 0 0 255
-0.451301 -0.278082 0.408333 0 0 255
-0.435385 -0.270542 0.454333 0 0 255
-0.488816 -0.262192 0.467098 0 0 255
-0.481161 -0.245417 0.461516 0 0 255
-0.488647 -0.232534 0.458333 0 0 255
-0.414865 -0.260578 0.446333 0 0 255
-0.486321 -0.250454 0.467131 0 0 255
-0.404785 -0.270872 0.416332 0 0 255
-0.379311 -0.256842 0.457470 0 0 255
-0.387845 -0.248894 0.457438 0 0 255
-0.443119 -0.268452 0.450333 0 0 255
-0.433295 -0.260710 0.436333 0 0 255
-0.461221 -0.267036 0.420333 0 0 255
-0.501321 -0.272924 0.400333 0 0 255
-0.491421 -0.264826 0.448333 0 0 255
-0.465560 -0.268211 0.400333 0 0 255
-0.452980 -0.266747 0.418333 0 0 255
-0.452980 -0.266745 0.398332 0 0 255
-0.473804 -0.268522 0.408333 0 0 255
-0.355736 -0.237316 0.434332 0 0 255
-0.359547 -0.260054 0.428333 0 0 255
-0.411275 -0.272551 0.436333 0 0 255
-0.424680 -0.277897 0.426332 0 0 255
-0.391300 -0.274767 0.442333 0 0 255
-0.490101 -0.277853 0.384333 0 0 255
-0.348426 -0.265451 0.380265 0 0 255
-0.445100 -0.277771 0.432333 0 0 255
-0.472248 -0.270817 0.446333 0 0 255
-0.443113 -0.278040 0.419194 0 0 255
-0.355264 -0.230286 0.394333 0 0 255
-0.375937 -0.269827 0.374197 0 0 255
-0.358208 -0.263372 0.462775 0 0 255
-0.382273 -0.270775 0.378332 0 0 255
-0.479203 -0.239698 0.464333 0 0 255
-0.347800 -0.257406 0.384333 0 0 255
-0.486191 -0.279106 0.392333 0 0 255
-0.476001 -0.240379 0.457412 0 0 255
-0.474840 -0.254154 0.466333 0 0 255
-0.424654 -0.277771 0.414333 0 0 255
-0.451463 -0.240370 0.458333 0 0 255
-0.424348 -0.266714 0.430333 0 0 255
-0.468129 -0.270679 0.453605 0 0 255
-0.352632 -0.256378 0.373399 0 0 255
-0.486074 -0.278147 0.404333 0 0 255
-0.358548 -0.226496 0.461297 0 0 255
-0.435047 -0.278572 0.394333 0 0 255
-0.415984 -0.256222 0.456333 0 0 255
-0.403111 -0.272619 0.442333 0 0 255
-0.393884 -0.229208 0.457439 0 0 255
-0.482808 -0.272400 0.442333 0 0 255
-0.409273 -0.236160 0.464333 0 0 255
-0.463385 -0.267597 0.433456 0 0 255
-0.376855 -0.264526 0.452332 0 0 255
-0.453480 -0.259480 0.457399 0 0 255
-0.502438 -0.268562 0.378332 0 0 255
-0.364299 -0.263172 0.384333 0 0 255
-0.516929 -0.264395 0.456333 0 0 255
-0.465005 -0.255981 0.456333 0 0 255
-0.502515 -0.278542 0.382333 0 0 255
-0.409147 -0.243299 0.456333 0 0 255
-0.496483 -0.264652 0.452332 0 0 255
-0.394465 -0.260801 0.414333 0 0 255
-0.450492 -0.260115 0.442333 0 0 255
-0.506842 -0.270628 0.456333 0 0 255
-0.400532 -0.270103 0.410333 0 0 255
-0.347538 -0.255417 0.396333 0 0 255
-0.435921 -0.234585 0.455397 0 0 255
-0.444115 -0.263515 0.435380 0 0 255
-0.457642 -0.230959 0.456333 0 0 255
-0.496400 -0.278633 0.406332 0 0 255
-0.391507 -0.270607 0.424332 0 0 255
-0.471380 -0.247496 0.457555 0 0 255
-0.396563 -0.270670 0.378332 0 0 255
-0.463558 -0.278034 0.410333 0 0 255
-0.393159 -0.273893 0.402333 0 0 255
-0.504490 -0.278214 0.412333 0 0 255
-0.403741 -0.265963 0.369659 0 0 255
-0.477665 -0.248205 0.457332 0 0 255
-0.412935 -0.270739 0.448333 0 0 255
-0.497456 -0.273977 0.434332 0 0 255
-0.389679 -0.238281 0.462594 0 0 255
-0.520117 -0.255539 0.462803 0 0 255
-0.353566 -0.248001 0.396333 0 0 255
-0.510768 -0.277973 0.388332 0 0 255
-0.452219 -0.267925 0.376333 0 0 255
-0.352766 -0.231813 0.402333 0 0 255
-0.421365 -0.252678 0.462332 0 0 255
-0.364580 -0.274111 0.400333 0 0 255
-0.428205 -0.227142 0.458333 0 0 255
-0.477635 -0.228827 0.458333 0 0 255
-0.396965 -0.224464 0.462726 0 0 255
-0.457261 -0.277267 0.378332 0 0 255
-0.509837 -0.264893 0.452332 0 0 255
-0.365036 -0.228159 0.458333 0 0 255
-0.370594 -0.263926 0.380333 0 0 255
-0.351179 -0.268955 0.446333 0 0 255
-0.366662 -0.264669 0.446333 0 0 255
-0.433022 -0.269047 0.400333 0 0 255
-0.414921 -0.277899 0.400333 0 0 255
-0.434978 -0.268627 0.428333 0 0 255
-0.395390 -0.274769 0.458333 0 0 255
-0.381970 -0.264456 0.406332 0 0 255
-0.497889 -0.266397 0.462288 0 0 255
-0.382984 -0.274122 0.442333 0 0 255
-0.347665 -0.249256 0.418333 0 0 255
-0.365078 -0.247601 0.465922 0 0 255
-0.303011 -0.157604 0.552333 255 255 0
-0.359890 -0.175095 0.361350 255 255 0
-0.383207 -0.145601 0.470333 255 255 0
-0.363312 -0.133472 0.629300 255 255 0
-0.294303 -0.135872 0.425942 255 255 0
-0.383505 -0.149628 0.552333 255 255 0
-0.317509 -0.190235 0.480332 255 255 0
-0.312079 -0.113691 0.495386 255 255 0
-0.357243 -0.191496 0.426332 255 255 0
-0.305747 -0.141619 0.363487 255 255 0
-0.325768 -0.176212 0.606333 255 255 0
-0.349243 -0.192339 0.530333 255 255 0
-0.307936 -0.184092 0.400333 255 255 0
-0.324356 -0.123350 0.589275 255 255 0
-0.382098 -0.149927 0.422333 255 255 0
-0.293741 -0.156439 0.504333 255 255 0
-0.366451 -0.186722 0.486333 255 255 0
-0.359344 -0.182144 0.574332 255 255 0
-0.317485 -0.139124 0.631124 255 255 0
-0.300703 -0.175406 0.442333 255 255 0
-0.382561 -0.156696 0.510333 255 255 0
-0.314036 -0.113277 0.397352 255 255 0
-0.366002 -0.139034 0.588333 255 255 0
-0.299633 -0.141712 0.466333 255 255 0
-0.315283 -0.119144 0.534509 255 255 0
-0.311257 -0.186777 0.522333 255 255 0
-0.319933 -0.179499 0.363741 255 255 0
-0.324384 -0.190819 0.560099 255 255 0
-0.343720 -0.195211 0.390333 255 255 0
-0.356747 -0.169928 0.626333 255 255 0
-0.376788 -0.177635 0.399338 255 255 0
-0.375592 -0.175846 0.452332 255 255 0
-0.293733 -0.152351 0.394333 255 255 0
-0.343654 -0.194902 0.458035 255 255 0
-0.306286 -0.153772 0.586414 255 255 0
-0.378356 -0.127295 0.526332 255 255 0
-0.324977 -0.193609 0.430333 255 255 0
-0.303810 -0.127718 0.564332 255 255 0
-0.313049 -0.113485 0.464333 255 255 0
-0.371977 -0.178659 0.546332 255 255 0
-0.339415 -0.184578 0.502333 255 255 0
-0.313043 -0.113487 0.432333 255 255 0
-0.293178 -0.140202 0.528673 255 255 0
-0.339384 -0.117098 0.626333 255 255 0
-0.350941 -0.161850 0.598333 255 255 0
-0.297148 -0.170027 0.476333 255 255 0
-0.332795 -0.172674 0.579334 255 255 0
-0.369666 -0.182608 0.514333 255 255 0
-0.329591 -0.167221 0.631944 255 255 0
-0.302859 -0.162680 0.418333 255 255 0
-0.298584 -0.165632 0.370926 255 255 0
-0.375312 -0.161068 0.574332 255 255 0
-0.296627 -0.166048 0.528574 255 255 0
-0.295741 -0.133522 0.492333 255 255 0
-0.321304 -0.181252 0.456333 255 255 0
-0.298638 -0.128819 0.384333 255 255 0
-0.318839 -0.151104 0.608333 255 255 0
-0.308278 -0.175840 0.572333 255 255 0
-0.303451 -0.178911 0.499071 255 255 0
-0.375834 -0.163527 0.487331 255 255 0
-0.346820 -0.180939 0.552333 255 255 0
-0.341306 -0.145376 0.632333 255 255 0
-0.331175 -0.184290 0.408333 255 255 0
-0.293280 -0.152449 0.444332 255 255 0
-0.383648 -0.142572 0.446333 255 255 0
-0.372894 -0.159315 0.532333 255 255 0
-0.300334 -0.125771 0.448333 255 255 0
-0.305831 -0.180489 0.546332 255 255 0
-0.330648 -0.177219 0.532333 255 255 0
-0.301839 -0.123232 0.514333 255 255 0
-0.364342 -0.186417 0.381572 255 255 0
-0.364890 -0.147449 0.610332 255 255 0
-0.323032 -0.126743 0.612333 255 255 0
-0.342185 -0.189079 0.366333 255 255 0
-0.341575 -0.185122 0.479338 255 255 0
-0.375725 -0.177862 0.428333 255 255 0
-0.322748 -0.192741 0.382333 255 255 0
-0.358993 -0.180490 0.466333 255 255 0
-0.355685 -0.184166 0.405339 255 255 0
-0.301823 -0.130184 0.406332 255 255 0
-0.376297 -0.136847 0.569399 255 255 0
-0.307782 -0.184124 0.422333 255 255 0
-0.353106 -0.181654 0.444332 255 255 0
-0.331500 -0.195440 0.519682 255 255 0
-0.383829 -0.143425 0.491089 255 255 0
-0.305001 -0.162224 0.458333 255 255 0
-0.324233 -0.113153 0.571355 255 255 0
-0.320123 -0.191725 0.502333 255 255 0
-0.357313 -0.172588 0.530333 255 255 0
-0.340557 -0.189949 0.572333 255 255 0
-0.311862 -0.160767 0.624932 255 255 0
-0.296702 -0.137545 0.548333 255 255 0
-0.312816 -0.174875 0.383350 255 255 0
-0.308801 -0.151194 0.534333 255 255 0
-0.378408 -0.160934 0.438333 255 255 0
-0.300421 -0.150930 0.484333 255 255 0
-0.298028 -0.147348 0.568333 255 255 0
-0.308232 -0.134071 0.582332 255 255 0
-0.345861 -0.176428 0.610332 255 255 0
-0.316056 -0.170097 0.590333 255 255 0
-0.380578 -0.166607 0.468621 255 255 0
-0.335314 -0.194143 0.544333 255 255 0
-0.305918 -0.123180 0.479344 255 255 0
-0.357216 -0.191370 0.502333 255 255 0
-0.366030 -0.153341 0.628332 255 255 0
-0.331266 -0.160730 0.596333 255 255 0
-0.341778 -0.195694 0.438333 255 255 0
-0.307776 -0.165724 0.512333 255 255 0
-0.346347 -0.178713 0.590333 255 255 0
-0.357811 -0.165312 0.581364 255 255 0
-0.294459 -0.148108 0.376333 255 255 0
-0.303679 -0.179985 0.462332 255 255 0
-0.314396 -0.168407 0.532333 255 255 0
-0.305742 -0.166155 0.398332 255 255 0
-0.382146 -0.145126 0.524333 255 255 0
-0.363180 -0.171331 0.560333 255 255 0
-0.293838 -0.148239 0.412333 255 255 0
-0.339807 -0.196041 0.420333 255 255 0
-0.299463 -0.140909 0.511364 255 255 0
-0.317782 -0.178999 0.438333 255 255 0
-0.377347 -0.175472 0.376333 255 255 0
-0.320797 -0.140465 0.594333 255 255 0
-0.305918 -0.123180 0.369334 255 255 0
-0.367715 -0.173429 0.499328 255 255 0
-0.327586 -0.194227 0.466333 255 255 0
-0.332382 -0.195253 0.490332 255 255 0
-0.312614 -0.173925 0.484333 255 255 0
-0.312808 -0.160564 0.362333 255 255 0
-0.304641 -0.121408 0.548333 255 255 0
-0.379423 -0.166853 0.556333 255 255 0
-0.352338 -0.182833 0.516333 255 255 0
-0.365929 -0.155407 0.593217 255 255 0
-0.310451 -0.159021 0.568333 255 255 0
-0.379378 -0.132103 0.553354 255 255 0
-0.379254 -0.169996 0.520333 255 255 0
-0.323088 -0.121576 0.628332 255 255 0
-0.379616 -0.156588 0.454333 255 255 0
-0.309364 -0.134716 0.532333 255 255 0
-0.359054 -0.190397 0.546332 255 255 0
-0.305722 -0.122259 0.420333 255 255 0
-0.368455 -0.186529 0.440333 255 255 0
-0.316943 -0.175053 0.558333 255 255 0
-0.327390 -0.194269 0.448333 255 255 0
-0.301750 -0.151672 0.430333 255 255 0
-0.341785 -0.176489 0.626333 255 255 0
-0.319907 -0.187681 0.542333 255 255 0
-0.368547 -0.177343 0.413342 255 255 0
-0.327774 -0.163517 0.616333 255 255 0
-0.361478 -0.163326 0.610332 255 255 0
-0.323137 -0.184950 0.575757 255 255 0
-0.355427 -0.192574 0.476333 255 255 0
-0.347514 -0.130697 0.628332 255 255 0
-0.293852 -0.156416 0.468333 255 255 0
-0.322523 -0.182062 0.394333 255 255 0
-0.304977 -0.162230 0.494333 255 255 0
-0.344410 -0.159983 0.627414 255 255 0
-0.302510 -0.126389 0.464333 255 255 0
-0.301211 -0.139515 0.440333 255 255 0
-0.368736 -0.173212 0.476333 255 255 0
-0.302163 -0.153614 0.520333 255 255 0
-0.364447 -0.186913 0.528333 255 255 0
-0.326563 -0.151506 0.632333 255 255 0
-0.324478 -0.181641 0.516333 255 255 0
-0.347941 -0.193991 0.490332 255 255 0
-0.300040 -0.171457 0.558333 255 255 0
-0.296189 -0.166142 0.386333 255 255 0
-0.337460 -0.185001 0.380333 255 255 0
-0.361037 -0.190105 0.454333 255 255 0
-0.383413 -0.141468 0.509458 255 255 0
-0.313450 -0.139381 0.616333 255 255 0
-0.300471 -0.175455 0.410333 255 255 0
-0.332720 -0.133841 0.627365 255 255 0
-0.316559 -0.178169 0.470333 255 255 0
-0.317168 -0.190310 0.412333 255 255 0
-0.345780 -0.195282 0.406332 255 255 0
-0.313808 -0.117414 0.560333 255 255 0
-0.293717 -0.152355 0.541941 255 255 0
-0.324471 -0.181608 0.492333 255 255 0
-0.352864 -0.190134 0.562333 255 255 0
-0.294968 -0.164356 0.434332 255 255 0
-0.315034 -0.166071 0.606333 255 255 0
-0.347321 -0.173676 0.575337 255 255 0
-0.322098 -0.180065 0.424332 255 255 0
-0.333127 -0.183853 0.438333 255 255 0
-0.304594 -0.126572 0.434332 255 255 0
-0.331392 -0.194929 0.398332 255 255 0
-0.334252 -0.179527 0.564332 255 255 0
-0.339336 -0.193829 0.558333 255 255 0
-0.372351 -0.174490 0.532333 255 255 0
-0.309671 -0.185768 0.448333 255 255 0
-0.352505 -0.193020 0.376333 255 255 0
-0.345766 -0.195217 0.510333 255 255 0
-0.329918 -0.178375 0.592332 255 255 0
-0.342925 -0.181854 0.538333 255 255 0
-0.294333 -0.162447 0.406332 255 255 0
-0.302181 -0.119886 0.528333 255 255 0
-0.307223 -0.177422 0.370332 255 255 0
-0.293407 -0.138107 0.452332 255 255 0
-0.302362 -0.140293 0.396333 255 255 0
-0.316115 -0.123058 0.577556 255 255 0
-0.380589 -0.166658 0.500332 255 255 0
-0.300501 -0.167271 0.542333 255 255 0
-0.319810 -0.154987 0.590333 255 255 0
-0.316546 -0.178173 0.504333 255 255 0
-0.353728 -0.184582 0.391366 255 255 0
-0.295843 -0.133501 0.477162 255 255 0
-0.374463 -0.147459 0.578505 255 255 0
-0.335794 -0.177164 0.362333 255 255 0
-0.319394 -0.167343 0.575340 255 255 0
-0.301747 -0.177229 0.518332 255 255 0
-0.369468 -0.172054 0.440333 255 255 0
-0.355072 -0.181282 0.492333 255 255 0
-0.355548 -0.145046 0.632333 255 255 0
-0.300494 -0.145761 0.498333 255 255 0
-0.306947 -0.172035 0.430333 255 255 0
-0.314168 -0.176634 0.412333 255 255 0
-0.339413 -0.184570 0.524333 255 255 0
-0.341368 -0.184149 0.398332 255 255 0
-0.328918 -0.189856 0.370332 255 255 0
-0.366418 -0.186567 0.396333 255 255 0
-0.383215 -0.140535 0.432333 255 255 0
-0.365995 -0.184576 0.558333 255 255 0
-0.377477 -0.152018 0.564332 255 255 0
-0.343751 -0.185741 0.428333 255 255 0
-0.297563 -0.135180 0.372333 255 255 0
-0.309660 -0.140787 0.603373 255 255 0
-0.339415 -0.184580 0.450333 255 255 0
-0.369396 -0.173073 0.572333 255 255 0
-0.379830 -0.160631 0.544333 255 255 0
-0.337457 -0.184984 0.466333 255 255 0
-0.328458 -0.190748 0.532333 255 255 0
-0.302164 -0.124760 0.500332 255 255 0
-0.303414 -0.121023 0.394333 255 255 0
-0.312281 -0.187258 0.492333 255 255 0
-0.294465 -0.164463 0.450333 255 255 0
-0.311404 -0.173132 0.452332 255 255 0
-0.329975 -0.183496 0.550333 255 255 0
-0.372386 -0.180616 0.464333 255 255 0
-0.382452 -0.156183 0.478333 255 255 0
-0.306825 -0.165926 0.580994 255 255 0
-0.337631 -0.166567 0.606333 255 255 0
-0.328800 -0.182735 0.478333 255 255 0
-0.304587 -0.180716 0.476333 255 255 0
-0.327976 -0.130760 0.599308 255 255 0
-0.308727 -0.146017 0.576333 255 255 0
-0.297881 -0.159649 0.564332 255 255 0
-0.331628 -0.176802 0.618333 255 255 0
-0.293839 -0.162552 0.487787 255 255 0
-0.341745 -0.166683 0.589352 255 255 0
-0.297190 -0.170019 0.506333 255 255 0
-0.343531 -0.184704 0.413316 255 255 0
-0.370313 -0.176029 0.388332 255 255 0
-0.374614 -0.177023 0.488333 255 255 0
-0.349375 -0.164101 0.616333 255 255 0
-0.313411 -0.187017 0.554332 255 255 0
-0.333267 -0.195066 0.506333 255 255 0
-0.305407 -0.178495 0.530531 255 255 0
-0.367185 -0.180552 0.370332 255 255 0
-0.305305 -0.153980 0.370332 255 255 0
-0.383312 -0.157846 0.524333 255 255 0
-0.293769 -0.148254 0.556333 255 255 0
-0.315311 -0.186613 0.373977 255 255 0
-0.360933 -0.179998 0.430333 255 255 0
-0.362475 -0.177635 0.452332 255 255 0
-0.303375 -0.140079 0.559406 255 255 0
-0.357335 -0.172691 0.592332 255 255 0
-0.314036 -0.113277 0.523335 255 255 0
-0.315951 -0.189621 0.464333 255 255 0
-0.320124 -0.170778 0.624333 255 255 0
-0.343761 -0.195408 0.472332 255 255 0
-0.383137 -0.155840 0.494333 255 255 0
-0.300141 -0.148945 0.454333 255 255 0
-0.371780 -0.168476 0.510333 255 255 0
-0.304180 -0.158310 0.442333 255 255 0
-0.301334 -0.154825 0.384333 255 255 0
-0.300106 -0.173489 0.488333 255 255 0
-0.352293 -0.177828 0.564332 255 255 0
-0.307241 -0.167883 0.469321 255 255 0
-0.301854 -0.138357 0.416332 255 255 0
-0.313783 -0.174671 0.520333 255 255 0
-0.362828 -0.188915 0.414333 255 255 0
-0.300784 -0.175987 0.392333 255 255 0
-0.355885 -0.180035 0.540333 255 255 0
-0.335920 -0.184278 0.582332 255 255 0
-0.292828 -0.156633 0.422333 255 255 0
-0.320538 -0.148699 0.620332 255 255 0
-0.354660 -0.192562 0.438333 255 255 0
-0.312510 -0.187208 0.386333 255 255 0
-0.353926 -0.185513 0.366333 255 255 0
-0.300350 -0.132544 0.522333 255 255 0
-0.291812 -0.144581 0.434332 255 255 0
-0.347607 -0.194260 0.548333 255 255 0
-0.327223 -0.194555 0.418333 255 255 0
-0.293717 -0.152355 0.529396 255 255 0
-0.357025 -0.180853 0.480332 255 255 0
-0.383413 -0.141468 0.543380 255 255 0
-0.329326 -0.194832 0.478333 255 255 0
-0.384025 -0.144344 0.458333 255 255 0
-0.313701 -0.188660 0.432333 255 255 0
-0.301306 -0.136429 0.572333 255 255 0
-0.367411 -0.185762 0.498333 255 255 0
-0.379524 -0.161652 0.426332 255 255 0
-0.350386 -0.183249 0.458333 255 255 0
-0.367318 -0.185783 0.474333 255 255 0
-0.359773 -0.179207 0.506333 255 255 0
-0.294877 -0.162333 0.516333 255 255 0
-0.315649 -0.184498 0.566333 255 255 0
-0.317145 -0.176001 0.541324 255 255 0
-0.293459 -0.141523 0.388332 255 255 0
-0.311702 -0.187380 0.510333 255 255 0
-0.300991 -0.175344 0.380333 255 255 0
-0.311410 -0.149019 0.628332 255 255 0
-0.296398 -0.168142 0.464333 255 255 0
-0.354866 -0.192518 0.464333 255 255 0
-0.366152 -0.156454 0.580333 255 255 0
-0.300424 -0.142750 0.538333 255 255 0
-0.303205 -0.158516 0.475286 255 255 0
-0.374416 -0.176096 0.562118 255 255 0
-0.365978 -0.174873 0.522333 255 255 0
-0.293193 -0.146332 0.476333 255 255 0
-0.320471 -0.191650 0.401043 255 255 0
-0.347613 -0.184668 0.580333 255 255 0
-0.326213 -0.165895 0.586333 255 255 0
-0.351651 -0.194046 0.416332 255 255 0
-0.293178 -0.140202 0.403519 255 255 0
-0.300883 -0.152876 0.404333 255 255 0
-0.323226 -0.175751 0.568333 255 255 0
-0.356368 -0.158522 0.624333 255 255 0
-0.361288 -0.176840 0.550333 255 255 0
-0.332325 -0.185041 0.422333 255 255 0
-0.292237 -0.145393 0.490332 255 255 0
-0.308389 -0.120611 0.456333 255 255 0
-0.371505 -0.162401 0.563354 255 255 0
-0.380960 -0.166525 0.448333 255 255 0
-0.309720 -0.165310 0.558333 255 255 0
-0.298929 -0.173738 0.422333 255 255 0
-0.310076 -0.142744 0.591024 255 255 0
-0.355146 -0.172012 0.605357 255 255 0
-0.303155 -0.129421 0.540333 255 255 0
-0.292697 -0.147560 0.518332 255 255 0
-0.320613 -0.192316 0.518332 255 255 0
-0.301007 -0.154894 0.576333 255 255 0
-0.310719 -0.152830 0.616333 255 255 0
-0.361012 -0.189993 0.514333 255 255 0
-0.339308 -0.174456 0.598333 255 255 0
-0.320359 -0.138514 0.606333 255 255 0
-0.349680 -0.194393 0.448333 255 255 0
-0.328023 -0.183912 0.504333 255 255 0
-0.333531 -0.195375 0.384333 255 255 0
-0.382952 -0.150614 0.437329 255 255 0
-0.349400 -0.183458 0.471344 255 255 0
-0.371015 -0.169714 0.462332 255 255 0
-0.318396 -0.191505 0.442333 255 255 0
-0.363873 -0.174593 0.582332 255 255 0
-0.355531 -0.193066 0.398332 255 255 0
-0.315189 -0.176416 0.581270 255 255 0
-0.316203 -0.131218 0.590333 255 255 0
-0.308206 -0.167677 0.376333 255 255 0
-0.337627 -0.166550 0.620332 255 255 0
-0.314896 -0.184658 0.532951 255 255 0
-0.361744 -0.145334 0.596333 255 255 0
-0.311804 -0.175091 0.394333 255 255 0
-0.299646 -0.173586 0.454333 255 255 0
-0.334295 -0.184624 0.488333 255 255 0
-0.307041 -0.166943 0.524333 255 255 0
-0.342307 -0.195189 0.522333 255 255 0
-0.333127 -0.183853 0.390333 255 255 0
-0.358852 -0.170210 0.570333 255 255 0
-0.305661 -0.121975 0.490332 255 255 0
-0.382250 -0.156027 0.466333 255 255 0
-0.313943 -0.156235 0.578333 255 255 0
-0.348362 -0.178574 0.528333 255 255 0
-0.335491 -0.194977 0.410333 255 255 0
-0.367838 -0.183628 0.422661 255 255 0
-0.377960 -0.144672 0.534386 255 255 0
-0.314340 -0.150015 0.598333 255 255 0
-0.321643 -0.158688 0.601006 255 255 0
-0.324900 -0.183626 0.446333 255 255 0
-0.341698 -0.195318 0.499132 255 255 0
-0.375309 -0.177950 0.506333 255 255 0
-0.371487 -0.166494 0.540333 255 255 0
-0.320376 -0.133482 0.622333 255 255 0
-0.341460 -0.194199 0.376333 255 255 0
-0.303520 -0.135960 0.484333 255 255 0
-0.314855 -0.170353 0.366333 255 255 0
-0.335515 -0.185469 0.512333 255 255 0
-0.322533 -0.158497 0.624333 255 255 0
-0.326845 -0.183159 0.466333 255 255 0
-0.294311 -0.137917 0.502333 255 255 0
-0.308880 -0.161400 0.538333 255 255 0
-0.295251 -0.130716 0.510333 255 255 0
-0.324677 -0.182579 0.377308 255 255 0
-0.324138 -0.170425 0.597368 255 255 0
-0.301542 -0.150692 0.419363 255 255 0
-0.363850 -0.145626 0.621243 255 255 0
-0.339627 -0.195198 0.482333 255 255 0
-0.351566 -0.184025 0.420333 255 255 0
-0.307734 -0.180046 0.560333 255 255 0
-0.300925 -0.147791 0.548333 255 255 0
-0.305794 -0.182503 0.436333 255 255 0
-0.369838 -0.168890 0.552333 255 255 0
-0.305810 -0.166142 0.482333 255 255 0
-0.338910 -0.191820 0.532608 255 255 0
-0.379345 -0.170427 0.478333 255 255 0
-0.321685 -0.178120 0.526332 255 255 0
-0.349627 -0.184523 0.506333 255 255 0
-0.302470 -0.150496 0.508332 255 255 0
-0.303462 -0.130865 0.554332 255 255 0
-0.383644 -0.142551 0.480332 255 255 0
-0.302469 -0.145435 0.528333 255 255 0
-0.337712 -0.195805 0.448333 255 255 0
-0.291613 -0.144623 0.460333 255 255 0
-0.337294 -0.155361 0.633458 255 255 0
-0.310958 -0.160957 0.592332 255 255 0
-0.308212 -0.167675 0.408333 255 255 0
-0.310882 -0.132349 0.572333 255 255 0
-0.320144 -0.180492 0.404333 255 255 0
-0.301870 -0.132996 0.456333 255 255 0
-0.347654 -0.184864 0.382333 255 255 0
-0.314983 -0.175449 0.494333 255 255 0
-0.366104 -0.156231 0.604333 255 255 0
-0.331419 -0.195059 0.438333 255 255 0
-0.343752 -0.185743 0.440333 255 255 0
-0.309479 -0.155138 0.606333 255 255 0
-0.364453 -0.177320 0.490332 255 255 0
-0.368721 -0.185484 0.406332 255 255 0
-0.344514 -0.184496 0.492333 255 255 0
-0.301894 -0.138350 0.382333 255 255 0
-0.331378 -0.185244 0.457365 255 255 0
-0.293256 -0.146318 0.424332 255 255 0
-0.298132 -0.130970 0.394333 255 255 0
-0.301442 -0.165026 0.572333 255 255 0
-0.351404 -0.154406 0.632491 255 255 0
-0.370012 -0.136137 0.579370 255 255 0
-0.356361 -0.158487 0.590333 255 255 0
-0.309028 -0.171591 0.420333 255 255 0
-0.357463 -0.191967 0.486333 255 255 0
-0.305472 -0.182571 0.486333 255 255 0
-0.308960 -0.171606 0.550333 255 255 0
-0.303717 -0.151306 0.560333 255 255 0
-0.363606 -0.173336 0.538333 255 255 0
-0.330377 -0.190155 0.568333 255 255 0
-0.295011 -0.164349 0.396333 255 255 0
-0.296577 -0.168104 0.496333 255 255 0
-0.305004 -0.162224 0.428333 255 255 0
-0.306202 -0.168102 0.388332 255 255 0
-0.364146 -0.155787 0.618333 255 255 0
-0.304580 -0.160269 0.504333 255 255 0
-0.335741 -0.176914 0.608333 255 255 0
-0.301623 -0.141453 0.430333 255 255 0
-0.324376 -0.147882 0.600332 255 255 0
-0.327092 -0.193941 0.550333 255 255 0
-0.292705 -0.158703 0.380333 255 255 0
-0.294105 -0.160450 0.548333 255 255 0
-0.379306 -0.170240 0.434332 255 255 0
-0.350648 -0.189327 0.539988 255 255 0
-0.322780 -0.192892 0.492333 255 255 0
-0.306864 -0.122980 0.384333 255 255 0
-0.376543 -0.157240 0.555353 255 255 0
-0.355409 -0.192490 0.522333 255 255 0
-0.298859 -0.128452 0.416332 255 255 0
-0.316026 -0.189978 0.422333 255 255 0
-0.366266 -0.166613 0.530333 255 255 0
-0.320471 -0.191650 0.455148 255 255 0
-0.292592 -0.156683 0.479716 255 255 0
-0.292852 -0.156628 0.458333 255 255 0
-0.328098 -0.140957 0.632745 255 255 0
-0.320953 -0.171103 0.614333 255 255 0
-0.322523 -0.182064 0.414333 255 255 0
-0.380714 -0.167250 0.458333 255 255 0
-0.351416 -0.173702 0.618333 255 255 0
-0.333517 -0.195311 0.458333 255 255 0
-0.313525 -0.168592 0.567320 255 255 0
-0.347741 -0.194893 0.430333 255 255 0
-0.292666 -0.154623 0.434332 255 255 0
-0.308987 -0.171600 0.504333 255 255 0
-0.355477 -0.183191 0.376333 255 255 0
-0.364954 -0.165838 0.588333 255 255 0
-0.382704 -0.147753 0.501732 255 255 0
-0.307042 -0.118853 0.403370 255 255 0
-0.355122 -0.152662 0.598333 255 255 0
-0.294069 -0.154325 0.494333 255 255 0
-0.328821 -0.182833 0.540333 255 255 0
-0.361731 -0.178791 0.440333 255 255 0
-0.353499 -0.193121 0.386333 255 255 0
-0.365636 -0.163649 0.573370 255 255 0
-0.307241 -0.167883 0.439324 255 255 0
-0.351572 -0.184057 0.434332 255 255 0
-0.356757 -0.126686 0.626333 255 255 0
-0.320905 -0.179291 0.550333 255 255 0
-0.354599 -0.179058 0.584333 255 255 0
-0.320148 -0.180511 0.482333 255 255 0
-0.292469 -0.146486 0.506687 255 255 0
-0.297243 -0.130468 0.440333 255 255 0
-0.334969 -0.125183 0.631194 255 255 0
-0.340716 -0.161842 0.598333 255 255 0
-0.324261 -0.180622 0.584381 255 255 0
-0.308770 -0.184696 0.412333 255 255 0
-0.309320 -0.122458 0.570333 255 255 0
-0.324063 -0.131592 0.631100 255 255 0
-0.339789 -0.167097 0.632101 255 255 0
-0.311421 -0.173128 0.462332 255 255 0
-0.299136 -0.158615 0.534333 255 255 0
-0.314380 -0.164320 0.616333 255 255 0
-0.378253 -0.136431 0.529428 255 255 0
-0.311188 -0.186453 0.472332 255 255 0
-0.364672 -0.187971 0.464333 255 255 0
-0.381080 -0.140108 0.558333 255 255 0
-0.378622 -0.167023 0.529379 255 255 0
-0.303456 -0.130838 0.424332 255 255 0
-0.377374 -0.161154 0.517367 255 255 0
-0.304579 -0.180717 0.508332 255 255 0
-0.303093 -0.134005 0.498333 255 255 0
-0.308463 -0.173634 0.538333 255 255 0
-0.343275 -0.178625 0.568333 255 255 0
-0.326217 -0.180206 0.559344 255 255 0
-0.357033 -0.180891 0.524333 255 255 0
-0.369795 -0.183212 0.454530 255 255 0
-0.320860 -0.111826 0.532333 255 255 0
-0.327770 -0.163519 0.606333 255 255 0
-0.314152 -0.148010 0.584333 255 255 0
-0.359768 -0.164896 0.597376 255 255 0
-0.329298 -0.175461 0.627541 255 255 0
-0.303056 -0.134012 0.470333 255 255 0
-0.349014 -0.172022 0.598333 255 255 0
-0.295830 -0.133440 0.464333 255 255 0
-0.366877 -0.179743 0.566333 255 255 0
-0.341377 -0.136091 0.633070 255 255 0
-0.300910 -0.147720 0.390333 255 255 0
-0.380039 -0.154453 0.445296 255 255 0
-0.305792 -0.166145 0.448333 255 255 0
-0.383561 -0.149616 0.516333 255 255 0
-0.377318 -0.170507 0.546332 255 255 0
-0.362117 -0.180756 0.390333 255 255 0
-0.308403 -0.120607 0.520333 255 255 0
-0.369632 -0.148487 0.586333 255 255 0
-0.309692 -0.185764 0.458333 255 255 0
-0.303417 -0.159513 0.392333 255 255 0
-0.327049 -0.184118 0.431369 255 255 0
-0.368547 -0.177343 0.379359 255 255 0
-0.300172 -0.134626 0.531600 255 255 0
-0.323074 -0.193142 0.392333 255 255 0
-0.324971 -0.193581 0.510333 255 255 0
-0.337050 -0.183071 0.556333 255 255 0
-0.348446 -0.169348 0.583348 255 255 0
-0.306273 -0.182571 0.378332 255 255 0
-0.349618 -0.184483 0.484333 255 255 0
-0.298599 -0.171764 0.400333 255 255 0
-0.339417 -0.184587 0.546332 255 255 0
-0.350389 -0.188110 0.572333 255 255 0
-0.353946 -0.137508 0.627418 255 255 0
-0.307042 -0.118853 0.468644 255 255 0
-0.347412 -0.164484 0.606333 255 255 0
-0.299586 -0.151108 0.463176 255 255 0
-0.316899 -0.155605 0.631431 255 255 0
-0.315413 -0.177471 0.374333 255 255 0
-0.301190 -0.144632 0.408333 255 255 0
-0.300456 -0.144789 0.370332 255 255 0
-0.302963 -0.128521 0.376333 255 255 0
-0.335676 -0.195845 0.430333 255 255 0
-0.296716 -0.156845 0.372333 255 255 0
-0.383888 -0.151590 0.486333 255 255 0
-0.373291 -0.180424 0.480011 255 255 0
-0.360953 -0.189713 0.444332 255 255 0
-0.343758 -0.185774 0.516333 255 255 0
-0.368341 -0.176374 0.404333 255 255 0
-0.320337 -0.191017 0.528333 255 255 0
-0.307613 -0.150396 0.362333 255 255 0
-0.302789 -0.156561 0.543367 255 255 0
-0.366935 -0.185865 0.548333 255 255 0
-0.299650 -0.141792 0.520333 255 255 0
-0.376342 -0.151150 0.528333 255 255 0
-0.327251 -0.194687 0.406332 255 255 0
-0.348446 -0.169348 0.631055 255 255 0
-0.300663 -0.175415 0.470043 255 255 0
-0.333258 -0.145994 0.627373 255 255 0
-0.329005 -0.183702 0.363787 255 255 0
-0.373040 -0.179241 0.444332 255 255 0
-0.359708 -0.166954 0.618333 255 255 0
-0.355463 -0.192743 0.408333 255 255 0
-0.378707 -0.157806 0.502333 255 255 0
-0.381164 -0.150126 0.543437 255 255 0
-0.360958 -0.180113 0.516333 255 255 0
-0.330757 -0.182323 0.524333 255 255 0
-0.380400 -0.165770 0.510333 255 255 0
-0.297087 -0.168211 0.414333 255 255 0
-0.320935 -0.164972 0.631047 255 255 0
-0.371591 -0.153185 0.572333 255 255 0
-0.314155 -0.176636 0.426332 255 255 0
-0.304921 -0.118494 0.428333 255 255 0
-0.307534 -0.159641 0.529348 255 255 0
-0.300710 -0.146778 0.445346 255 255 0
-0.371180 -0.180872 0.526332 255 255 0
-0.308290 -0.124722 0.534914 255 255 0
-0.369134 -0.180101 0.434332 255 255 0
-0.347254 -0.120529 0.628332 255 255 0
-0.361045 -0.190145 0.390333 255 255 0
-0.360112 -0.185755 0.566333 255 255 0
-0.376396 -0.161362 0.474333 255 255 0
-0.321443 -0.157743 0.614333 255 255 0
-0.305284 -0.168297 0.365893 255 255 0
-0.376347 -0.175562 0.470333 255 255 0
-0.298076 -0.128937 0.484333 255 255 0
-0.297459 -0.169962 0.520747 255 255 0
-0.317772 -0.178949 0.448333 255 255 0
-0.320556 -0.192049 0.472332 255 255 0
-0.376933 -0.173515 0.496333 255 255 0
-0.299608 -0.157236 0.412333 255 255 0
-0.361573 -0.189049 0.434332 255 255 0
-0.319099 -0.161272 0.584333 255 255 0
-0.299798 -0.173553 0.548333 255 255 0
-0.301662 -0.146576 0.474333 255 255 0
-0.356516 -0.188078 0.532464 255 255 0
-0.347677 -0.184971 0.372333 255 255 0
-0.346822 -0.180946 0.364333 255 255 0
-0.308301 -0.172871 0.476333 255 255 0
-0.331841 -0.158564 0.627530 255 255 0
-0.302123 -0.158747 0.466333 255 255 0
-0.306105 -0.181778 0.388332 255 255 0
-0.365981 -0.174889 0.468333 255 255 0
-0.317018 -0.117687 0.568333 255 255 0
-0.305936 -0.142506 0.568333 255 255 0
-0.295736 -0.139658 0.484333 255 255 0
-0.320144 -0.180490 0.384333 255 255 0
-0.293452 -0.151108 0.384333 255 255 0
-0.341575 -0.185122 0.389328 255 255 0
-0.364396 -0.186670 0.506333 255 255 0
-0.301525 -0.136383 0.448333 255 255 0
-0.369965 -0.164774 0.581432 255 255 0
-0.354401 -0.158886 0.608333 255 255 0
-0.360969 -0.189787 0.494333 255 255 0
-0.303757 -0.122635 0.410333 255 255 0
-0.329323 -0.194817 0.498333 255 255 0
-0.340666 -0.195538 0.398332 255 255 0
-0.304823 -0.141815 0.584333 255 255 0
-0.365980 -0.174883 0.510333 255 255 0
-0.293178 -0.140202 0.443097 255 255 0
-0.337739 -0.195932 0.466333 255 255 0
-0.321901 -0.174990 0.534333 255 255 0
-0.302093 -0.158752 0.512333 255 255 0
-0.303667 -0.179930 0.450333 255 255 0
-0.303156 -0.170795 0.566333 255 255 0
-0.375184 -0.145262 0.570333 255 255 0
-0.335504 -0.185417 0.430333 255 255 0
-0.358797 -0.189188 0.556333 255 255 0
-0.312050 -0.146414 0.610332 255 255 0
-0.372551 -0.167320 0.454333 255 255 0
-0.361138 -0.180964 0.411321 255 255 0
-0.311776 -0.175097 0.404333 255 255 0
-0.307874 -0.122765 0.557463 255 255 0
-0.301804 -0.156769 0.450333 255 255 0
-0.302476 -0.160717 0.378332 255 255 0
-0.335796 -0.177174 0.572333 255 255 0
-0.349816 -0.185413 0.399347 255 255 0
-0.354655 -0.179323 0.556333 255 255 0
-0.313967 -0.188944 0.396333 255 255 0
-0.374848 -0.176004 0.516333 255 255 0
-0.314483 -0.139763 0.582332 255 255 0
-0.310068 -0.185684 0.500332 255 255 0
-0.295509 -0.166286 0.424332 255 255 0
-0.339823 -0.176878 0.616333 255 255 0
-0.295214 -0.139769 0.556333 255 255 0
-0.296673 -0.161949 0.556333 255 255 0
-0.296520 -0.168118 0.442333 255 255 0
-0.294483 -0.137880 0.412333 255 255 0
-0.298801 -0.171721 0.432333 255 255 0
-0.379697 -0.160660 0.562333 255 255 0
-0.335290 -0.184412 0.369286 255 255 0
-0.299045 -0.134865 0.564332 255 255 0
-0.371811 -0.168470 0.524333 255 255 0
-0.371007 -0.169678 0.490332 255 255 0
-0.301393 -0.154812 0.498333 255 255 0
-0.301622 -0.141447 0.490332 255 255 0
-0.347706 -0.194725 0.480332 255 255 0
-0.293343 -0.146299 0.450333 255 255 0
-0.306253 -0.116974 0.500332 255 255 0
-0.302567 -0.132072 0.514333 255 255 0
-0.312523 -0.183117 0.542157 255 255 0
-0.302428 -0.170950 0.532333 255 255 0
-0.368803 -0.178547 0.396333 255 255 0
-0.331179 -0.184309 0.496333 255 255 0
-0.327272 -0.185165 0.400333 255 255 0
-0.293293 -0.144266 0.396333 255 255 0
-0.347663 -0.184906 0.450333 255 255 0
-0.353522 -0.193232 0.512333 255 255 0
-0.308618 -0.169634 0.494333 255 255 0
-0.363019 -0.141714 0.629104 255 255 0
-0.344995 -0.191591 0.564332 255 255 0
-0.340620 -0.171011 0.581341 255 255 0
-0.359414 -0.182470 0.422333 255 255 0
-0.371440 -0.171711 0.432333 255 255 0
-0.341370 -0.184155 0.458333 255 255 0
-0.344874 -0.181402 0.560333 255 255 0
-0.364440 -0.177261 0.460333 255 255 0
-0.367508 -0.172453 0.448333 255 255 0
-0.293377 -0.154472 0.512333 255 255 0
-0.302226 -0.158724 0.486333 255 255 0
-0.314190 -0.176628 0.512333 255 255 0
-0.348005 -0.148037 0.628332 255 255 0
-0.358604 -0.149801 0.626333 255 255 0
-0.363275 -0.181396 0.534333 255 255 0
-0.303451 -0.178911 0.427456 255 255 0
-0.348493 -0.140711 0.632673 255 255 0
-0.316915 -0.133110 0.612333 255 255 0
-0.311788 -0.175095 0.442333 255 255 0
-0.351580 -0.193712 0.456333 255 255 0
-0.376022 -0.174032 0.554332 255 255 0
-0.349194 -0.182487 0.544333 255 255 0
-0.337670 -0.195606 0.514333 255 255 0
-0.293981 -0.140030 0.380333 255 255 0
-0.333920 -0.168346 0.587345 255 255 0
-0.315510 -0.129833 0.582332 255 255 0
-0.294003 -0.156384 0.522333 255 255 0
-0.349697 -0.194471 0.502333 255 255 0
-0.365391 -0.143253 0.603386 255 255 0
-0.300710 -0.146778 0.381360 255 255 0
-0.359395 -0.182381 0.398332 255 255 0
-0.360939 -0.180029 0.498333 255 255 0
-0.319944 -0.131453 0.602332 255 255 0
-0.300558 -0.150900 0.438333 255 255 0
-0.339844 -0.186598 0.406332 255 255 0
-0.349370 -0.164076 0.590333 255 255 0
-0.314113 -0.142498 0.624333 255 255 0
-0.301919 -0.133228 0.506333 255 255 0
-0.302235 -0.125093 0.472332 255 255 0
-0.362385 -0.186832 0.373716 255 255 0
-0.381051 -0.154238 0.430333 255 255 0
-0.300396 -0.140711 0.458333 255 255 0
-0.296338 -0.135830 0.434332 255 255 0
-0.322645 -0.144161 0.627450 255 255 0
-0.304635 -0.152079 0.568333 255 255 0
-0.304793 -0.127508 0.527623 255 255 0
-0.309871 -0.185726 0.480332 255 255 0
-0.293819 -0.158466 0.388332 255 255 0
-0.333295 -0.194265 0.376333 255 255 0
-0.353067 -0.162231 0.631363 255 255 0
-0.360835 -0.154446 0.610332 255 255 0
-0.294152 -0.162485 0.474333 255 255 0
-0.305387 -0.164186 0.548333 255 255 0
-0.347405 -0.193308 0.556333 255 255 0
-0.342822 -0.190990 0.540922 255 255 0
-0.304793 -0.127508 0.399340 255 255 0
-0.300710 -0.146778 0.576313 255 255 0
-0.338371 -0.179668 0.590862 255 255 0
-0.296623 -0.168095 0.378332 255 255 0
-0.313617 -0.188263 0.404333 255 255 0
-0.292885 -0.148443 0.468078 255 255 0
-0.293074 -0.152493 0.402333 255 255 0
-0.360892 -0.160568 0.630629 255 255 0
-0.294478 -0.160372 0.442333 255 255 0
-0.299535 -0.150869 0.536332 255 255 0
-0.302445 -0.160723 0.404333 255 255 0
-0.306939 -0.161812 0.370332 255 255 0
-0.351574 -0.184065 0.412333 255 255 0
-0.356365 -0.158510 0.616333 255 255 0
-0.361743 -0.189013 0.402333 255 255 0
-0.375630 -0.162567 0.462332 255 255 0
-0.383641 -0.149599 0.452332 255 255 0
-0.377906 -0.173273 0.442333 255 255 0
-0.383243 -0.159906 0.485309 255 255 0
-0.366446 -0.186695 0.520333 255 255 0
-0.339846 -0.186605 0.420333 255 255 0
-0.304929 -0.123390 0.442333 255 255 0
-0.374130 -0.167978 0.568333 255 255 0
-0.338165 -0.178698 0.530333 255 255 0
-0.314178 -0.180721 0.574332 255 255 0
-0.331689 -0.187222 0.576333 255 255 0
-0.303450 -0.130810 0.490332 255 255 0
-0.364014 -0.175255 0.482333 255 255 0
-0.361841 -0.188992 0.480332 255 255 0
-0.355509 -0.183338 0.452332 255 255 0
-0.361715 -0.178795 0.474333 255 255 0
-0.328008 -0.183914 0.384333 255 255 0
-0.349624 -0.184511 0.498333 255 255 0
-0.357445 -0.182825 0.384333 255 255 0
-0.301353 -0.124151 0.456333 255 255 0
-0.300922 -0.147776 0.398332 255 255 0
-0.335512 -0.185453 0.474333 255 255 0
-0.333457 -0.195024 0.527290 255 255 0
-0.342712 -0.166477 0.612333 255 255 0
-0.325515 -0.172176 0.576333 255 255 0
-0.321180 -0.185368 0.368811 255 255 0
-0.332793 -0.172663 0.602332 255 255 0
-0.334256 -0.189163 0.538333 255 255 0
-0.374088 -0.164932 0.496333 255 255 0
-0.298936 -0.128811 0.548333 255 255 0
-0.295723 -0.132938 0.402333 255 255 0
-0.340221 -0.195631 0.550333 255 255 0
-0.383650 -0.142580 0.424332 255 255 0
-0.370747 -0.183008 0.384333 255 255 0
-0.303120 -0.177353 0.554332 255 255 0
-0.372545 -0.167294 0.480332 255 255 0
-0.330225 -0.122105 0.625419 255 255 0
-0.295845 -0.135544 0.516333 255 255 0
-0.320815 -0.140461 0.618333 255 255 0
-0.303908 -0.178814 0.418333 255 255 0
-0.294148 -0.144762 0.546332 255 255 0
-0.304286 -0.180779 0.406332 255 255 0
-0.303514 -0.135960 0.544333 255 255 0
-0.317751 -0.165649 0.596333 255 255 0
-0.311371 -0.119976 0.527351 255 255 0
-0.294293 -0.137920 0.470333 255 255 0
-0.300855 -0.175373 0.480332 255 255 0
-0.361855 -0.184338 0.542333 255 255 0
-0.373779 -0.168053 0.446333 255 255 0
-0.326543 -0.191359 0.542333 255 255 0
-0.322259 -0.190441 0.374333 255 255 0
-0.306345 -0.182907 0.516333 255 255 0
-0.371297 -0.180662 0.494333 255 255 0
-0.340791 -0.152573 0.627369 255 255 0
-0.300066 -0.143749 0.422333 255 255 0
-0.303635 -0.166603 0.500332 255 255 0
-0.374948 -0.163713 0.550333 255 255 0
-0.318022 -0.147188 0.592332 255 255 0
-0.322844 -0.193192 0.484805 255 255 0
-0.316893 -0.180143 0.462332 255 255 0
-0.347773 -0.195044 0.464333 255 255 0
-0.381372 -0.164394 0.492333 255 255 0
-0.314171 -0.176632 0.548333 255 255 0
-0.382582 -0.137556 0.523401 255 255 0
-0.370110 -0.158609 0.586333 255 255 0
-0.311092 -0.186001 0.440333 255 255 0
-0.320385 -0.191242 0.552333 255 255 0
-0.370597 -0.178951 0.556333 255 255 0
-0.302171 -0.158737 0.434332 255 255 0
-0.378597 -0.147667 0.558333 255 255 0
-0.345706 -0.185318 0.464333 255 255 0
-0.301905 -0.138346 0.476333 255 255 0
-0.301777 -0.156776 0.424332 255 255 0
-0.335505 -0.185421 0.414333 255 255 0
-0.304994 -0.162226 0.518332 255 255 0
-0.358977 -0.180418 0.370332 255 255 0
-0.321670 -0.175039 0.590333 255 255 0
-0.310170 -0.138634 0.576333 255 255 0
-0.375418 -0.161570 0.525403 255 255 0
-0.313190 -0.162529 0.574332 255 255 0
-0.324945 -0.160030 0.592332 255 255 0
-0.299129 -0.129723 0.430333 255 255 0
-0.340129 -0.130222 0.627393 255 255 0
-0.368342 -0.176376 0.424332 255 255 0
-0.293782 -0.152662 0.550333 255 255 0
-0.340680 -0.195534 0.490332 255 255 0
-0.335557 -0.195286 0.474333 255 255 0
-0.373861 -0.168036 0.472332 255 255 0
-0.316057 -0.132406 0.628332 255 255 0
-0.345727 -0.195034 0.382333 255 255 0
-0.318317 -0.143036 0.600831 255 255 0
-0.304109 -0.153151 0.528333 255 255 0
-0.364975 -0.141298 0.615337 255 255 0
-0.301611 -0.141399 0.552333 255 255 0
-0.331085 -0.193485 0.556555 255 255 0
-0.362726 -0.149954 0.589364 255 255 0
-0.310638 -0.152847 0.592332 255 255 0
-0.383208 -0.140501 0.500332 255 255 0
-0.320147 -0.180508 0.498333 255 255 0
-0.343654 -0.194902 0.414146 255 255 0
-0.306483 -0.141462 0.534333 255 255 0
-0.320146 -0.180498 0.510333 255 255 0
-0.366504 -0.186970 0.448333 255 255 0
-0.322235 -0.132612 0.594333 255 255 0
-0.344699 -0.166056 0.622333 255 255 0
-0.331132 -0.164848 0.623361 255 255 0
-0.323262 -0.180834 0.472332 255 255 0
-0.367512 -0.172472 0.546332 255 255 0
-0.331453 -0.195219 0.424332 255 255 0
-0.319521 -0.148699 0.632333 255 255 0
-0.369882 -0.174006 0.372333 255 255 0
-0.349617 -0.174860 0.626333 255 255 0
-0.365494 -0.167768 0.566333 255 255 0
-0.335596 -0.195469 0.392333 255 255 0
-0.300799 -0.137575 0.406332 255 255 0
-0.320226 -0.171257 0.606116 255 255 0
-0.353728 -0.184582 0.427341 255 255 0
-0.376691 -0.173567 0.526332 255 255 0
-0.315604 -0.178373 0.419357 255 255 0
-0.361019 -0.190023 0.472332 255 255 0
-0.296087 -0.134649 0.388332 255 255 0
-0.374247 -0.180222 0.406332 255 255 0
-0.377328 -0.173431 0.462332 255 255 0
-0.347444 -0.183872 0.523360 255 255 0
-0.327271 -0.185162 0.486333 255 255 0
-0.293182 -0.149841 0.484333 255 255 0
-0.304560 -0.126415 0.508332 255 255 0
-0.325634 -0.182375 0.438333 255 255 0
-0.385600 -0.157360 0.438333 255 255 0
-0.367018 -0.131672 0.584333 255 255 0
-0.372979 -0.169336 0.502333 255 255 0
-0.299763 -0.173561 0.512333 255 255 0
-0.378459 -0.171146 0.486333 255 255 0
-0.359572 -0.158804 0.602332 255 255 0
-0.294654 -0.164423 0.502333 255 255 0
-0.306102 -0.157900 0.562333 255 255 0
-0.347851 -0.195408 0.396333 255 255 0
-0.325972 -0.159811 0.632042 255 255 0
-0.325011 -0.174528 0.620332 255 255 0
-0.321596 -0.187323 0.534474 255 255 0
-0.326327 -0.176094 0.364333 255 255 0
-0.356707 -0.169737 0.612333 255 255 0
-0.350525 -0.179129 0.535240 255 255 0
-0.295673 -0.151939 0.563228 255 255 0
-0.309795 -0.134624 0.590333 255 255 0
-0.306456 -0.135334 0.567347 255 255 0
-0.382359 -0.160095 0.460333 255 255 0
-0.362967 -0.189569 0.422333 255 255 0
-0.353437 -0.192833 0.496333 255 255 0
-0.331609 -0.186335 0.446333 255 255 0
-0.293542 -0.156481 0.450333 255 255 0
-0.292958 -0.142292 0.418333 255 255 0
-0.296659 -0.143551 0.562333 255 255 0
-0.301332 -0.149706 0.492333 255 255 0
-0.295099 -0.164330 0.458333 255 255 0
-0.318479 -0.143801 0.612333 255 255 0
-0.295057 -0.162294 0.418333 255 255 0
-0.294568 -0.160353 0.428333 255 255 0
-0.297686 -0.167870 0.552333 255 255 0
-0.293025 -0.150457 0.500332 255 255 0
-0.307874 -0.170860 0.518332 255 255 0
-0.381682 -0.142942 0.550333 255 255 0
-0.353451 -0.192894 0.552333 255 255 0
-0.313138 -0.158449 0.612333 255 255 0
-0.331615 -0.186361 0.518332 255 255 0
-0.355078 -0.181311 0.548333 255 255 0
-0.347661 -0.184896 0.406332 255 255 0
-0.349626 -0.194139 0.518332 255 255 0
-0.347736 -0.194866 0.422333 255 255 0
-0.354954 -0.171106 0.576333 255 255 0
-0.333731 -0.167456 0.614333 255 255 0
-0.315729 -0.174257 0.528333 255 255 0
-0.362242 -0.157299 0.586333 255 255 0
-0.300851 -0.152884 0.470333 255 255 0
-0.362555 -0.168392 0.605325 255 255 0
-0.317638 -0.187941 0.560333 255 255 0
-0.318277 -0.190945 0.510333 255 255 0
-0.304817 -0.131594 0.576333 255 255 0
-0.296382 -0.145655 0.532155 255 255 0
-0.321410 -0.123978 0.582332 255 255 0
-0.373889 -0.154379 0.580333 255 255 0
-0.315838 -0.179472 0.398332 255 255 0
-0.380960 -0.149166 0.478333 255 255 0
-0.308168 -0.167686 0.542333 255 255 0
-0.311761 -0.169910 0.584333 255 255 0
-0.336408 -0.173950 0.630333 255 255 0
-0.300710 -0.146778 0.515302 255 255 0
-0.380455 -0.156410 0.530910 255 255 0
-0.320453 -0.172323 0.362333 255 255 0
-0.369910 -0.174135 0.456333 255 255 0
-0.303855 -0.137932 0.370332 255 255 0
-0.318201 -0.180969 0.430333 255 255 0
-0.303301 -0.178944 0.398332 255 255 0
-0.308139 -0.184050 0.466333 255 255 0
-0.296809 -0.168055 0.484333 255 255 0
-0.306239 -0.182407 0.493510 255 255 0
-0.382411 -0.155994 0.549314 255 255 0
-0.366119 -0.185160 0.430333 255 255 0
-0.368794 -0.149647 0.604333 255 255 0
-0.301498 -0.124119 0.522333 255 255 0
-0.308611 -0.183949 0.429371 255 255 0
-0.315359 -0.157978 0.597806 255 255 0
-0.373309 -0.132406 0.574332 255 255 0
-0.306202 -0.182238 0.524333 255 255 0
-0.334311 -0.184620 0.398332 255 255 0
-0.344703 -0.151741 0.633371 255 255 0
-0.306215 -0.168100 0.462332 255 255 0
-0.302582 -0.155586 0.458333 255 255 0
-0.300375 -0.174063 0.526332 255 255 0
-0.303090 -0.134005 0.436333 255 255 0
-0.312816 -0.174875 0.435356 255 255 0
-0.313856 -0.112431 0.530333 255 255 0
-0.375338 -0.165676 0.430333 255 255 0
-0.310199 -0.152941 0.573348 255 255 0
-0.372753 -0.168270 0.517349 255 255 0
-0.374520 -0.166967 0.438333 255 255 0
-0.368179 -0.146751 0.593003 255 255 0
-0.323742 -0.187801 0.568333 255 255 0
-0.335836 -0.182251 0.540333 255 255 0
-0.315939 -0.189569 0.380333 255 255 0
-0.371801 -0.180740 0.472332 255 255 0
-0.377788 -0.172720 0.510333 255 255 0
-0.309111 -0.118967 0.434332 255 255 0
-0.313430 -0.178835 0.366333 255 255 0
-0.343115 -0.182749 0.585368 255 255 0
-0.325310 -0.137461 0.627337 255 255 0
-0.309850 -0.118256 0.394333 255 255 0
-0.302130 -0.173058 0.372333 255 255 0
-0.361598 -0.163889 0.624333 255 255 0
-0.297006 -0.131208 0.500332 255 255 0
-0.342208 -0.140003 0.627339 255 255 0
-0.351666 -0.194117 0.470333 255 255 0
-0.294425 -0.146070 0.525104 255 255 0
-0.300838 -0.152885 0.376333 255 255 0
-0.354655 -0.131224 0.631194 255 255 0
-0.341868 -0.176880 0.604640 255 255 0
-0.336848 -0.191742 0.566333 255 255 0
-0.312721 -0.178986 0.536332 255 255 0
-0.382313 -0.149881 0.508332 255 255 0
-0.363319 -0.181602 0.404333 255 255 0
-0.314816 -0.188765 0.452332 255 255 0
-0.375844 -0.161478 0.538333 255 255 0
-0.316563 -0.178169 0.390333 255 255 0
-0.382986 -0.149076 0.464333 255 255 0
-0.314883 -0.188749 0.516333 255 255 0
-0.295550 -0.141741 0.495193 255 255 0
-0.315406 -0.177441 0.478333 255 255 0
-0.371260 -0.142006 0.582821 255 255 0
-0.369679 -0.182671 0.504333 255 255 0
-0.359138 -0.190792 0.380333 255 255 0
-0.318780 -0.116358 0.574877 255 255 0
-0.304037 -0.162430 0.411282 255 255 0
-0.295379 -0.137690 0.396333 255 255 0
-0.368662 -0.177883 0.540333 255 255 0
-0.302496 -0.164803 0.535456 255 255 0
-0.324375 -0.171537 0.630333 255 255 0
-0.316943 -0.190357 0.496333 255 255 0
-0.326652 -0.194427 0.456333 255 255 0
