ply
format ascii 1.0
element vertex 1149
property float x
property float y
property float z
property uchar red
property uchar green
property uchar blue
end_header
-1.125573 -0.741675 -0.226895 234 245 253
-1.124720 -0.735550 -0.238802 234 249 255
-1.125364 -0.730549 -0.254029 228 247 253
-1.264811 -0.720287 -0.093642 255 255 255
-1.269756 -0.730059 -0.074322 255 255 255
-1.274259 -0.714155 -0.064964 255 255 255
-1.250045 -0.674822 0.307125 255 255 255
-1.243781 -0.649273 0.312063 255 255 255
-1.032103 -0.770503 -0.368748 245 250 253
-1.064455 -0.765333 -0.376848 223 231 237
-0.911410 -0.814230 -0.342150 162 178 206
-0.889262 -0.816937 -0.341172 162 179 207
-0.900103 -0.813870 -0.346991 208 215 230
-1.109103 -0.690530 0.099527 255 255 255
-1.106415 -0.690823 0.079519 255 255 255
-1.124945 -0.680733 0.083867 255 255 255
-1.117159 -0.663826 0.104368 255 255 255
-0.879813 -0.766211 -0.403487 170 195 242
-0.876340 -0.774420 -0.431012 156 179 226
-0.867724 -0.781599 -0.449708 210 223 249
-0.860523 -0.778545 -0.424670 168 189 235
-0.894564 -0.750884 -0.477479 105 128 177
-0.883551 -0.744176 -0.451248 131 166 212
-0.885543 -0.750971 -0.453609 114 137 185
-0.967701 -0.755098 -0.358975 170 189 218
-0.953619 -0.771908 -0.354962 179 196 219
-0.956350 -0.743602 -0.360691 160 180 210
-0.993286 -0.719205 -0.175103 255 255 255
-1.000441 -0.706110 -0.186599 254 255 254
-0.974080 -0.740061 -0.190329 254 255 254
-0.985641 -0.728675 -0.183821 254 255 254
-0.988152 -0.714951 -0.176504 255 255 254
-0.967656 -0.715540 -0.177093 255 255 254
-1.003008 -1.011462 -0.344095 254 255 255
-0.978363 -1.011493 -0.344074 255 255 255
-1.225296 -0.732435 -0.338368 159 174 207
-1.255804 -0.731555 -0.331957 164 179 215
-1.042251 -0.690308 0.173217 254 255 255
-0.935648 -0.777532 -0.191141 254 255 255
-0.912930 -0.787074 -0.193560 255 255 255
-0.916552 -0.792145 -0.199110 254 255 255
-0.930516 -0.778888 -0.201090 254 255 255
-0.945315 -0.784818 -0.200024 253 255 255
-0.902755 -0.719356 -0.188774 255 255 255
-0.903038 -0.739013 -0.193262 254 254 255
-0.878616 -0.739136 -0.189504 255 255 255
-1.103878 -0.663467 0.232901 198 198 222
-1.092671 -0.672756 0.242810 218 217 236
-1.027963 -0.997234 -0.336995 254 255 255
-1.049309 -0.992298 -0.334663 255 255 255
-0.994639 -0.696122 0.028373 255 255 255
-0.994668 -0.696178 0.005446 255 255 255
-0.868091 -0.714194 -0.131723 254 255 255
-0.873615 -0.711854 -0.146045 254 255 255
-0.855439 -0.713577 -0.151297 254 255 255
-0.843301 -0.708720 -0.154932 254 255 255
-1.272311 -0.724953 -0.055807 254 255 255
-1.274206 -0.711693 -0.028260 253 255 255
-1.277637 -0.707379 -0.041690 255 255 255
-1.272635 -0.721551 -0.036848 254 255 255
-1.056487 -0.695483 -0.091045 255 255 255
-1.034828 -0.697310 -0.089344 254 255 255
-1.057907 -0.694613 -0.065380 255 255 255
-0.855288 -0.714952 0.005569 255 255 255
-0.862176 -0.720221 0.027914 255 255 255
-0.836332 -0.710302 0.029432 255 255 255
-1.269728 -0.759313 -0.171179 255 255 255
-1.265522 -0.655847 0.177783 254 254 255
-1.137607 -0.686917 -0.093226 254 254 255
-1.240753 -0.749923 -0.180365 255 255 255
-1.256180 -0.744248 -0.171091 255 255 255
-1.254754 -0.767073 -0.184977 255 255 255
-1.073845 -0.734971 0.310817 254 254 255
-1.105928 -0.742777 0.316125 255 255 255
-1.090178 -0.731534 0.310574 255 255 255
-1.082872 -0.748522 0.318953 255 255 255
-1.068468 -0.798940 -0.359467 255 255 255
-0.885783 -0.768430 -0.437709 137 164 215
-0.880053 -0.759294 -0.432485 123 146 197
-0.882031 -0.763953 -0.427098 136 160 214
-0.892916 -0.768051 -0.439641 133 157 207
-0.908136 -0.764877 -0.449950 129 153 203
-0.899080 -0.751519 -0.640676 124 147 203
-0.894332 -0.772877 -0.639114 144 170 224
-1.021015 -0.739242 0.309765 254 254 254
-1.011388 -0.744782 0.308435 255 255 255
-1.020284 -0.744755 0.313052 254 255 254
-1.008721 -0.763900 0.321879 255 255 255
-0.936852 -0.748049 -0.194411 254 255 255
-0.876119 -0.752628 -0.412006 121 149 202
-0.874822 -0.752606 -0.420958 121 149 202
-1.122879 -0.691580 -0.028459 253 254 254
-1.122596 -0.694080 -0.042956 253 254 255
-1.264596 -0.776024 0.094221 254 255 255
-1.027905 -0.720649 -0.175893 254 255 255
-1.010621 -0.719392 -0.176114 255 255 255
-1.008242 -0.710445 -0.181179 255 255 255
-1.012949 -0.738155 -0.188010 254 255 254
-1.035896 -0.707830 -0.185745 255 255 255
-0.929511 -0.696791 -0.065013 255 255 255
-0.906342 -0.697377 -0.032648 255 255 255
-1.275497 -0.672857 0.036717 255 255 255
-1.276049 -0.648703 0.058217 254 255 255
-1.277150 -0.616786 0.062217 255 255 255
-1.094399 -0.691810 0.205452 255 255 254
-1.095472 -0.693056 0.219111 254 254 255
-0.974611 -1.029804 -0.373343 213 221 243
-0.952095 -1.028607 -0.357618 235 239 252
-0.961453 -1.026671 -0.369228 253 254 254
-0.971705 -1.022653 -0.351718 253 253 255
-0.940975 -1.033769 -0.378603 177 186 215
-1.129848 -0.748687 -0.185586 254 255 255
-1.136224 -0.729396 -0.179670 255 255 255
-1.124651 -0.725439 -0.177856 255 255 255
-0.935344 -0.728296 -0.258625 216 234 254
-0.929430 -0.744703 -0.234162 233 242 254
-0.903698 -0.745338 -0.227954 233 242 253
-0.911390 -0.735045 -0.249253 216 234 254
-0.942264 -0.732939 -0.253410 215 232 252
-0.913612 -0.748644 -0.228197 223 234 251
-0.940375 -0.748025 -0.226687 232 241 251
-1.032357 -0.730616 -0.356207 122 133 166
-1.021028 -0.762224 -0.364652 218 226 245
-1.021483 -0.743627 -0.361422 192 203 231
-1.036540 -0.756437 -0.366816 213 222 242
-0.940077 -0.698513 0.037109 255 255 255
-0.962978 -0.696497 0.037173 255 255 255
-0.960769 -0.694878 0.059911 255 255 255
-0.938393 -0.696404 0.061202 255 255 255
-0.922329 -1.009846 -0.347619 254 255 255
-0.871633 -0.738563 -0.505504 153 181 234
-0.853084 -0.738527 -0.484568 160 188 235
-0.870713 -0.737508 -0.521153 150 179 232
-1.263692 -0.683798 0.172299 254 254 255
-1.261192 -0.701550 0.186808 254 255 255
-1.270542 -0.776718 -0.021702 254 255 255
-1.270888 -0.770246 -0.004266 255 255 255
-1.116661 -0.689312 0.019000 255 255 255
-0.918377 -0.883992 -0.332898 233 236 242
-0.909069 -0.903600 -0.331216 240 243 247
-0.959874 -0.772113 0.319024 255 255 255
-0.961694 -0.750145 0.306327 255 255 255
-0.966950 -0.767293 0.300990 255 255 255
-1.034202 -0.691361 0.041339 254 255 255
-1.014866 -0.691500 0.053717 254 255 255
-0.957087 -0.737437 0.335023 255 255 255
-0.954742 -0.716011 0.344899 255 255 255
-0.956830 -0.738517 0.321185 255 255 255
-0.902825 -0.716198 -0.095339 254 255 255
-0.877901 -0.711427 -0.096950 254 255 255
-0.901946 -0.714769 -0.114799 254 255 255
-0.874266 -0.711834 -0.123670 255 255 255
-0.900586 -0.699213 -0.117298 254 255 255
-1.072034 -0.692608 -0.087434 254 255 255
-1.064098 -0.692252 -0.058970 254 255 255
-1.067523 -0.692744 -0.098743 254 255 255
-1.172140 -0.666762 -0.141756 255 255 255
-1.176026 -0.666931 -0.158230 255 255 255
-1.170332 -0.670673 -0.139310 254 255 255
-1.168682 -0.659365 -0.142000 255 255 255
-1.193542 -0.744963 -0.214314 255 255 255
-1.206770 -0.759500 -0.194521 255 255 255
-1.212644 -0.749364 -0.203455 255 255 255
-1.193408 -0.758678 -0.190783 255 255 255
-0.884109 -0.738792 -0.547994 153 182 238
-0.870616 -0.734316 -0.571890 155 184 239
-0.887197 -0.743354 -0.571354 139 170 222
-0.893383 -0.747336 -0.546729 108 131 181
-1.265188 -0.782215 0.066169 254 255 254
-1.272564 -0.696343 0.042125 254 255 255
-1.272673 -0.685106 0.065113 254 255 255
-1.272747 -0.664771 0.072717 255 255 255
-1.079160 -0.728547 -0.293878 218 237 253
-1.038238 -0.706208 0.306690 255 255 255
-1.162547 -0.728610 -0.314620 209 227 249
-1.183113 -0.730580 -0.312591 216 235 253
-1.171679 -0.730592 -0.291785 228 246 255
-0.868973 -0.727081 -0.323281 217 234 255
-0.969125 -0.689215 0.092936 255 255 255
-0.968909 -0.690317 0.065776 254 255 255
-0.887073 -0.762494 -0.391599 192 217 247
-0.893441 -0.779474 -0.360181 223 235 253
-0.887823 -0.774480 -0.370077 198 212 229
-0.877857 -0.776629 -0.365646 201 214 229
-0.899900 -0.759626 -0.366282 187 210 250
-0.871419 -0.774258 -0.388171 206 229 254
-0.906908 -0.764475 -0.360293 180 194 226
-0.896087 -0.762207 -0.379668 154 181 230
-0.855614 -0.788569 -0.502802 155 184 238
-0.858915 -0.786811 -0.537778 156 186 240
-0.855404 -0.796875 -0.536233 158 187 239
-0.891291 -0.777509 -0.594920 131 155 206
-0.909114 -0.760981 -0.597784 121 143 195
-0.903960 -0.766250 -0.603807 113 137 187
-0.889659 -0.779172 -0.605945 133 158 208
-0.870867 -0.738023 -0.539001 146 177 230
-0.847027 -0.740647 -0.537781 174 206 250
-0.858782 -0.740150 -0.511812 157 189 235
-1.264723 -0.697327 0.134865 255 255 255
-1.265959 -0.670708 0.151530 255 254 255
-0.927380 -0.917425 -0.330817 255 255 255
-1.233941 -0.732861 -0.336317 199 215 243
-1.237036 -0.754882 -0.346594 241 246 253
-0.993019 -0.690276 0.120092 255 255 254
-0.974738 -0.689843 0.124780 255 255 255
-0.963926 -0.690448 0.115596 255 255 255
-1.092002 -0.718562 0.312560 255 255 255
-1.060702 -0.725431 0.307073 255 255 255
-1.078454 -0.697792 0.308682 255 255 255
-0.993054 -0.690873 0.074371 255 255 255
-1.002166 -0.691558 0.034717 254 255 255
-0.970765 -0.691026 0.037530 254 255 255
-1.073581 -0.939945 -0.326314 255 255 255
-1.075260 -0.926427 -0.323193 255 255 255
-1.279360 -0.665471 0.321246 127 127 127
-1.279231 -0.654950 0.324529 191 191 191
-0.930686 -0.735730 -0.358832 146 163 195
-0.943493 -0.731701 -0.353426 160 178 207
-0.960699 -0.732696 -0.356604 173 190 219
-1.062093 -0.731682 -0.250659 223 240 255
-1.035392 -0.731276 -0.252112 222 238 254
-1.070264 -0.742572 -0.225706 233 242 251
-1.037905 -0.745415 -0.222124 230 241 251
-1.043525 -0.736502 -0.240432 221 237 253
-1.187804 -0.731445 -0.331895 192 205 232
-1.199686 -0.736611 -0.340549 189 203 230
-1.180886 -0.739303 -0.339530 203 212 237
-1.275055 -0.695865 0.022603 254 255 255
-1.277224 -0.704004 -0.002550 255 255 255
-1.269089 -0.755537 0.038603 254 255 255
-1.266436 -0.745693 0.059954 254 255 254
-1.098820 -0.692537 0.153364 254 255 254
-0.919092 -0.689907 0.105967 255 255 254
-0.927617 -0.689602 0.135314 255 255 254
-1.011335 -0.689146 0.206505 255 255 254
-1.006210 -0.689586 0.223083 255 255 255
-1.000144 -0.690009 0.217909 254 255 254
-0.901254 -0.730437 -0.291844 218 235 255
-0.872518 -0.731391 -0.290851 217 233 254
-0.909440 -0.727269 -0.284657 215 233 254
-0.901822 -0.730263 -0.318983 218 235 255
-1.266185 -0.699198 -0.170925 254 255 255
-1.275713 -0.679684 -0.162082 254 255 255
-1.216072 -0.734170 -0.232404 255 255 255
-1.033862 -0.693273 -0.122036 254 255 255
-1.017396 -0.693048 -0.103783 255 255 255
-0.932269 -0.715946 -0.109892 255 255 255
-0.996995 -0.882232 -0.331620 255 255 255
-1.007593 -0.862589 -0.331659 255 255 255
-1.121449 -0.690997 -0.017240 255 255 254
-1.097571 -0.692652 0.003985 255 255 255
-1.096228 -0.692988 -0.028441 255 255 255
-0.998606 -0.729444 -0.315910 217 237 255
-1.001674 -0.728688 -0.290842 225 243 255
-1.031400 -0.729354 -0.290136 226 244 254
-0.901662 -0.703336 -0.085406 255 255 255
-0.905254 -0.709902 -0.066359 254 255 255
-0.914919 -0.711233 -0.074465 254 255 255
-0.926050 -0.710938 -0.085782 255 255 255
-0.905368 -0.696219 -0.090454 254 255 255
-0.905917 -0.694992 -0.056394 254 255 255
-0.915492 -0.695016 -0.054942 254 255 255
-0.928308 -0.691976 -0.098874 254 255 255
-0.974867 -0.729287 -0.316235 203 220 249
-0.971645 -0.731867 -0.333293 187 203 235
-0.988019 -0.729995 -0.344912 161 177 210
-0.999108 -0.730588 -0.344707 174 191 222
-0.875976 -0.708489 -0.174316 255 255 255
-0.898217 -0.713307 -0.148953 255 255 255
-0.875016 -0.712136 -0.183322 255 255 255
-0.903772 -0.713131 -0.180898 255 255 255
-0.932103 -0.691341 0.069059 255 255 255
-0.915418 -0.689269 0.091463 255 255 255
-1.106082 -0.755679 -0.199993 253 255 255
-1.260001 -0.760523 0.157636 254 255 255
-1.262685 -0.745785 0.133599 254 255 255
-1.260607 -0.740793 0.156458 254 255 255
-0.961350 -0.695983 -0.090442 255 255 255
-0.931419 -0.696017 -0.090894 254 255 255
-0.960938 -0.695304 -0.067246 255 255 255
-1.260761 -0.721418 -0.163034 255 255 255
-1.257830 -0.726732 0.208353 255 255 255
-1.259129 -0.722529 0.197508 255 255 255
-1.254791 -0.726267 0.220903 255 255 255
-0.912113 -0.762441 -0.527841 112 131 176
-0.897292 -0.771370 -0.537345 113 132 177
-0.901621 -0.770523 -0.527863 125 142 189
-0.888128 -0.775686 -0.518348 113 130 169
-0.885919 -0.775422 -0.537829 148 167 217
-0.897379 -0.758889 -0.517558 39 49 72
-0.882419 -0.755432 -0.513213 63 82 114
-1.262410 -0.710459 0.280207 255 255 254
-1.271734 -0.721022 0.283599 255 255 254
-0.886600 -1.035929 -0.364484 246 248 255
-0.912684 -1.023449 -0.367133 247 248 255
-0.883757 -1.031408 -0.356063 255 255 255
-0.903375 -1.024974 -0.359461 249 252 255
-1.089574 -0.757057 -0.376098 159 174 200
-1.079758 -0.760189 -0.377006 189 203 225
-1.094425 -0.754507 -0.366261 161 174 206
-1.090040 -0.733935 -0.360691 126 134 166
-1.086343 -0.753913 -0.369901 148 163 198
-1.085866 -0.745048 -0.369807 162 170 200
-1.073910 -0.739500 -0.362802 160 168 200
-1.074798 -0.757526 -0.365316 200 209 232
-1.085656 -0.728128 -0.351531 112 125 157
-1.096016 -0.737454 -0.370470 164 171 202
-0.973601 -1.029140 -0.419401 167 156 163
-1.200501 -0.690040 0.324321 255 255 255
-1.036060 -0.950996 -0.331649 255 255 255
-1.006590 -0.952792 -0.331350 255 255 255
-0.970961 -0.688927 0.169967 254 255 255
-0.961042 -0.688459 0.198269 255 255 255
-0.977613 -0.689654 0.159967 254 255 255
-0.884935 -0.939870 -0.336291 254 255 255
-0.901401 -0.984345 -0.340576 254 255 255
-1.274943 -0.667613 0.314093 255 255 255
-1.274326 -0.669887 0.287946 255 254 255
-1.276098 -0.653996 0.291790 255 255 255
-1.262346 -0.666664 0.294506 255 255 255
-1.279195 -0.660225 0.305749 255 255 253
-1.271825 -0.661337 0.316559 239 239 239
-1.269116 -0.654021 0.303272 255 255 254
-1.273747 -0.643237 0.301320 255 255 254
-1.275685 -0.644390 0.318212 223 223 223
-1.265688 -0.638682 0.318919 239 239 239
-1.256800 -0.647922 0.319027 247 247 247
-1.264210 -0.648965 0.320229 239 239 239
-1.260529 -0.767726 0.163075 255 255 255
-1.237571 -0.750402 -0.202442 255 255 255
-1.223712 -0.758444 -0.195690 255 255 255
-1.275605 -0.754333 -0.200345 255 255 255
-1.248103 -0.759790 -0.196500 255 255 255
-1.002258 -0.732406 -0.251027 219 236 254
-1.101522 -0.844213 -0.322819 192 203 227
-1.095242 -0.828749 -0.326356 213 221 235
-1.121089 -0.716648 -0.180556 255 255 255
-1.129755 -0.697496 -0.177833 255 255 255
-1.157619 -0.684470 -0.172740 255 255 255
-1.041142 -0.727494 -0.347052 118 133 167
-1.151819 -0.675742 -0.107402 255 255 255
-1.104687 -0.727555 -0.266904 229 249 255
-1.128033 -0.728985 -0.274783 233 250 255
-1.094213 -0.726136 -0.261201 228 247 253
-1.260067 -0.675135 0.261419 255 255 255
-1.262912 -0.696143 0.268518 255 255 255
-1.262369 -0.677172 0.281492 255 255 255
-1.275650 -0.691793 0.286165 255 255 255
-1.263077 -0.697290 0.277739 254 255 254
-1.183542 -0.740873 -0.182400 255 255 255
-1.123523 -0.683288 0.174944 254 255 254
-1.104821 -0.685479 0.180245 254 255 254
-1.125430 -0.677445 0.190374 254 254 255
-1.111281 -0.682341 0.192883 255 255 255
-1.122060 -0.661025 0.166149 255 254 255
-1.109228 -0.665104 0.194955 254 254 254
-1.114338 -0.668762 0.191189 255 255 254
-1.038404 -0.730380 0.307785 255 255 255
-1.041881 -0.746202 0.315494 254 254 255
-1.063232 -0.745728 0.317282 254 255 255
-1.052396 -0.734563 0.309113 254 255 255
-0.930811 -0.760194 -0.468968 87 106 141
-0.950175 -0.765466 -0.469379 126 149 196
-0.916765 -0.758739 -0.457996 100 123 170
-0.932298 -0.766855 -0.464074 102 120 155
-0.912386 -0.769408 -0.454939 140 163 209
-0.933624 -0.770014 -0.458198 104 124 160
-0.900621 -0.817613 -0.361190 172 175 183
-0.897988 -0.802841 -0.354785 255 253 254
-0.887967 -0.795678 -0.349005 255 254 255
-0.903767 -0.789904 -0.352296 208 215 230
-0.902243 -0.802529 -0.361509 122 133 154
-0.909359 -0.793403 -0.367099 120 130 152
-0.912678 -0.813404 -0.353770 120 131 155
-0.912603 -0.799172 -0.363640 141 154 181
-1.086548 -0.693040 0.044214 254 255 255
-0.961361 -0.690894 -0.059288 255 255 255
-0.937479 -0.691501 -0.058115 255 255 255
-0.937671 -0.691787 -0.036043 255 255 255
-0.951641 -0.886316 -0.329641 254 255 255
-0.947690 -0.905377 -0.329234 255 255 255
-0.970755 -0.878409 -0.333249 255 255 255
-0.927076 -0.869005 -0.332419 210 220 232
-1.174541 -0.700724 -0.179205 255 255 255
-1.185338 -0.714325 -0.179520 255 255 255
-0.962124 -0.678380 0.240213 226 226 242
-1.259008 -0.735806 -0.227399 255 255 255
-1.243138 -0.733997 -0.230214 255 255 255
-1.242955 -0.730276 -0.243256 255 255 255
-0.912743 -0.742252 -0.370276 151 183 235
-0.919926 -0.742997 -0.364913 133 153 196
-0.929700 -0.744193 -0.359900 155 174 213
-1.066808 -0.691760 0.165217 254 255 255
-1.060606 -0.691820 0.185217 254 254 255
-0.954138 -1.028952 -0.440121 162 149 163
-0.957454 -1.027653 -0.419458 166 153 164
-0.948999 -1.022901 -0.411171 166 155 166
-0.942608 -0.730213 -0.305783 218 235 254
-0.974859 -0.726633 -0.260994 218 235 255
-0.966250 -0.730408 -0.268162 215 231 254
-0.942705 -0.730668 -0.268928 216 232 254
-1.273468 -0.732866 -0.008053 255 255 255
-1.274869 -0.745219 -0.033051 255 255 255
-1.275340 -0.752465 -0.008552 254 255 255
-1.276962 -0.646659 -0.117096 255 255 255
-0.965421 -0.731778 -0.348094 166 184 215
-0.943402 -0.731498 -0.330953 197 214 242
-1.170328 -0.750258 -0.202673 255 255 255
-1.169340 -0.742117 -0.218721 255 255 255
-1.012666 -0.817064 -0.341688 255 255 255
-1.042604 -0.818579 -0.337280 248 249 249
-1.026463 -0.811063 -0.352158 242 244 250
-1.030533 -0.823488 -0.337317 202 209 223
-1.141357 -0.756652 -0.190385 254 255 255
-1.109141 -0.753591 -0.189422 254 255 254
-1.223752 -0.741429 -0.343460 236 245 254
-1.195715 -0.751174 -0.343357 236 245 254
-1.227601 -0.748818 -0.348008 237 246 254
-1.218105 -0.760243 -0.190641 255 255 255
-1.214179 -0.755787 -0.186799 255 255 255
-1.238704 -0.763480 -0.188972 255 255 255
-1.014182 -0.691617 -0.012783 255 255 255
-1.029705 -0.691915 -0.003503 255 255 255
-0.908611 -0.774044 -0.203963 254 255 255
-0.883217 -0.778520 -0.204065 254 255 255
-0.901788 -0.750785 -0.190626 254 255 255
-0.903471 -0.753287 -0.214390 255 255 255
-0.892339 -0.769099 -0.206880 255 255 255
-1.153790 -0.815819 -0.347468 255 255 255
-1.160398 -0.795823 -0.343733 254 254 253
-1.160347 -0.803898 -0.339013 254 254 253
-1.166982 -0.780062 -0.345518 251 252 255
-1.170770 -0.798056 -0.347716 254 253 253
-1.266096 -0.707274 0.126685 254 255 255
-1.265149 -0.717844 0.105341 254 255 255
-1.265324 -0.732336 0.129939 254 255 255
-1.269747 -0.705385 0.097851 254 255 255
-1.094407 -0.726330 -0.281381 212 227 254
-1.072948 -0.727162 -0.260307 215 230 254
-0.928203 -0.690124 0.038446 254 255 255
-0.914039 -0.691265 0.057714 254 255 255
-0.903969 -0.690512 0.024252 255 255 255
-0.960843 -0.785554 0.350280 255 255 255
-0.961296 -0.786168 0.320320 255 255 255
-0.924472 -0.801051 -0.354153 210 216 232
-0.925690 -0.808728 -0.356421 207 213 230
-0.932266 -0.804615 -0.360195 139 151 180
-0.926141 -0.790178 -0.354681 201 208 223
-0.936770 -0.786815 -0.351142 251 254 254
-1.260518 -0.747969 0.263909 255 255 254
-1.125040 -0.676845 0.103944 255 255 255
-1.105236 -0.691026 0.113346 255 255 254
-1.120030 -0.673579 0.129360 255 255 255
-1.122136 -0.676724 0.114888 255 255 255
-0.857651 -0.731734 -0.428348 145 178 222
-0.870694 -0.741272 -0.434568 131 162 208
-0.871134 -0.748206 -0.433567 117 142 193
-0.868955 -0.734625 -0.449525 142 174 220
-0.911643 -0.747175 -0.217760 254 255 254
-0.933569 -0.724878 -0.191100 255 255 255
-0.910432 -0.724258 -0.192772 255 255 255
-0.911643 -0.746662 -0.195548 255 255 255
-1.087966 -0.694479 -0.172368 254 255 255
-1.146319 -0.747876 -0.204777 255 255 255
-0.870003 -0.739165 -0.412677 144 177 222
-0.862739 -0.732623 -0.410172 147 180 224
-0.855003 -0.730850 -0.395603 156 181 224
-1.143298 -0.840483 -0.325196 255 255 255
-1.125214 -0.838770 -0.325701 255 255 255
-0.845700 -0.731160 -0.386730 157 186 226
-1.138034 -0.827477 -0.330935 255 255 255
-1.115230 -0.821367 -0.329756 255 255 255
-1.276532 -0.685170 0.309355 255 255 255
-1.270231 -0.681816 0.313757 255 255 255
-1.269742 -0.666432 0.308923 255 255 255
-1.278229 -0.680559 0.292758 255 255 255
-1.261122 -0.691534 0.300531 255 255 255
-1.260389 -0.675356 0.299859 255 254 254
-1.282255 -0.676178 0.302025 255 255 255
-1.088937 -0.694126 -0.024473 255 255 255
-1.073550 -0.692276 -0.026909 255 255 255
-1.235734 -0.690568 0.316877 255 255 255
-1.218237 -0.691867 0.322253 255 255 255
-1.246959 -0.690517 0.310024 255 255 255
-1.225225 -0.675678 0.320823 255 255 255
-1.124598 -0.689277 -0.161094 255 255 255
-1.100078 -0.693821 -0.136281 254 255 255
-1.119661 -0.690418 -0.133927 255 255 255
-0.907636 -1.020906 -0.539843 124 119 138
-0.897828 -1.022809 -0.538627 127 122 138
-0.886689 -1.029976 -0.539245 233 238 243
-0.909112 -1.021888 -0.514601 135 130 149
-1.091982 -0.921595 -0.322033 255 255 255
-1.094889 -0.906439 -0.321845 255 255 255
-1.094435 -0.884104 -0.321887 255 255 255
-1.208199 -0.794407 -0.356530 254 253 253
-1.182342 -0.780396 -0.354577 244 245 253
-1.189740 -0.800516 -0.353162 253 253 253
-0.986324 -0.743621 0.296020 255 255 255
-0.995915 -0.738291 0.303481 255 255 255
-0.980362 -0.769803 0.295460 255 255 255
-1.002572 -0.760564 0.307541 255 255 255
-0.850482 -0.749685 -0.217182 255 255 255
-0.868557 -0.741240 -0.191768 255 255 255
-0.870037 -0.748631 -0.218048 255 255 255
-0.841903 -0.741509 -0.193824 255 255 255
-1.179253 -0.751689 -0.186724 255 255 255
-1.282926 -0.673070 -0.052996 255 255 255
-1.276404 -0.699844 -0.068941 255 255 255
-1.262146 -0.731617 0.157819 254 255 255
-1.267658 -0.706677 0.137736 255 255 255
-1.264839 -0.706610 0.149023 255 255 255
-1.262515 -0.719167 0.137578 255 255 255
-1.105108 -0.727287 -0.336480 152 168 206
-1.090248 -0.729133 -0.312902 173 192 226
-0.901158 -0.710276 -0.009581 255 255 255
-0.891482 -0.708150 -0.033817 255 255 255
-0.884467 -0.713541 -0.007737 255 255 255
-0.890696 -0.705516 -0.009169 255 255 255
-0.897581 -0.690895 -0.020600 255 255 255
-0.878018 -0.698948 -0.013861 255 255 255
-1.188371 -0.758364 -0.348178 224 235 252
-1.174053 -0.764488 -0.345675 224 236 254
-1.181697 -0.766842 -0.350324 224 235 253
-0.944662 -0.690126 0.089803 255 255 255
-0.963467 -0.709489 0.304002 255 255 255
-0.960207 -0.725053 0.309324 255 255 255
-0.973435 -0.736233 0.296926 255 255 255
-0.989650 -0.750507 -0.367550 180 195 223
-0.975975 -0.769846 -0.361097 216 232 252
-1.002930 -0.751164 -0.364019 220 233 249
-0.987911 -0.751104 -0.364551 215 227 251
-0.853863 -0.789815 -0.579507 193 205 254
-0.879503 -0.727226 -0.266595 193 207 241
-1.027534 -0.798661 -0.355577 251 251 253
-1.042823 -0.692809 -0.170658 255 255 255
-1.061401 -0.696470 -0.178963 255 255 255
-0.869342 -0.712833 0.168285 254 255 255
-0.870663 -0.701502 0.161873 254 255 255
-0.842426 -0.708415 0.166113 254 255 255
-1.018320 -0.689601 0.171655 254 255 255
-0.989695 -0.689492 0.145217 254 255 255
-1.000665 -0.689502 0.172717 254 255 255
-1.279742 -0.643004 -0.149194 255 255 255
-1.264840 -0.729846 -0.317053 247 250 253
-1.262869 -0.771952 0.153976 254 255 255
-1.263771 -0.775887 0.131216 254 255 255
-1.092698 -0.742607 -0.225926 255 255 254
-1.080680 -0.757791 -0.198639 255 255 255
-1.102883 -0.758105 -0.194454 255 255 255
-1.069925 -0.756778 -0.194751 255 255 255
-1.082429 -0.746284 -0.211877 255 255 255
-1.117820 -0.675001 0.200061 255 255 255
-1.100259 -0.689516 0.205289 255 255 255
-1.106485 -0.675917 0.233266 252 252 255
-1.117179 -0.674663 0.217267 254 255 255
-1.108928 -0.666084 0.211919 239 240 243
-0.939234 -0.689268 0.149967 254 255 255
-0.956959 -0.689826 0.134592 255 255 255
-1.113082 -0.687964 0.064102 255 255 255
-1.097247 -0.691145 0.063895 255 255 255
-1.127655 -0.679854 0.063001 254 255 255
-1.127376 -0.682978 0.044008 254 255 255
-1.122325 -0.665454 0.047486 255 255 255
-1.090786 -0.869254 -0.321814 255 255 255
-1.254633 -0.773548 -0.193844 255 255 255
-0.920494 -0.688357 0.207112 255 255 254
-1.038540 -0.727268 -0.285134 203 219 252
-1.046881 -0.726616 -0.268389 205 221 251
-0.863263 -0.784492 -0.627654 161 180 239
-1.235441 -0.736749 0.316501 255 255 255
-1.237568 -0.755640 0.321020 255 255 255
-1.051529 -0.746076 -0.373493 147 160 189
-1.060009 -0.730307 -0.355925 127 140 173
-1.057375 -0.742804 -0.368854 147 156 188
-1.051439 -0.740772 -0.366102 154 162 194
-1.066109 -0.757440 -0.373989 178 192 216
-1.060090 -0.749880 -0.374076 109 120 144
-0.985461 -0.900878 -0.330530 255 255 255
-0.968908 -0.686844 0.230443 220 220 238
-0.985775 -0.685059 0.233598 223 223 240
-0.967601 -0.843631 -0.331921 255 255 255
-0.984691 -0.855225 -0.337702 255 255 255
-0.962537 -0.854786 -0.333436 255 255 255
-0.896603 -0.714732 -0.128130 255 255 255
-0.872992 -0.710178 -0.158739 255 255 255
-0.895750 -0.701496 -0.128920 255 255 255
-0.888712 -0.700159 -0.156990 255 255 255
-0.892582 -0.693186 -0.140592 254 255 255
-0.886573 -0.694692 -0.130903 254 255 255
-0.904231 -0.692871 -0.128474 254 255 255
-0.987397 -0.693097 -0.175799 255 255 255
-1.005973 -0.695797 -0.182650 255 255 255
-0.983364 -0.692035 -0.158764 254 255 255
-0.959563 -0.699263 -0.189356 255 255 255
-1.000232 -0.700722 -0.187556 255 255 255
-0.958665 -0.705665 -0.189731 255 255 255
-1.047713 -0.691896 -0.036830 255 255 255
-1.026135 -0.691265 -0.059323 255 255 255
-0.869595 -0.710289 -0.061390 254 255 255
-0.896916 -0.702735 -0.092961 254 255 255
-0.897579 -0.714684 -0.079055 255 255 255
-0.892446 -0.712407 -0.067701 255 255 255
-0.888468 -0.705589 -0.050659 254 255 255
-0.875054 -0.691782 -0.075602 255 255 255
-0.885023 -0.694690 -0.091324 255 255 255
-0.881700 -0.696443 -0.081534 255 255 255
-0.899774 -0.697536 -0.097441 255 255 255
-0.896374 -0.692154 -0.090447 254 255 255
-1.086287 -0.692643 0.134182 255 255 254
-1.067616 -0.692529 0.137127 255 255 254
-1.072778 -0.692342 0.106717 255 255 255
-0.945441 -0.789670 -0.195187 254 255 255
-0.944278 -0.771028 -0.193835 254 255 255
-1.265393 -0.771684 0.111360 254 255 255
-0.938065 -0.702970 -0.189385 255 255 255
-0.967156 -0.712163 -0.178216 255 255 255
-0.937811 -0.713175 -0.173737 255 255 255
-0.959228 -0.692576 -0.180201 255 255 255
-0.937623 -0.693050 -0.180182 255 255 255
-1.273246 -0.739825 -0.059942 255 255 255
-1.273646 -0.756372 -0.045959 255 255 255
-0.896541 -0.761125 -0.594694 115 141 192
-0.905471 -0.765891 -0.614490 109 137 189
-0.897960 -0.759213 -0.621359 106 133 182
-0.897518 -0.774843 -0.611973 115 135 178
-0.900882 -0.764654 -0.639533 123 145 200
-0.903186 -0.769975 -0.631496 124 150 206
-0.896965 -0.773710 -0.623357 134 159 216
-0.875369 -0.779769 -0.620085 153 176 232
-1.265992 -0.767153 -0.195901 255 255 255
-1.145146 -0.722854 -0.179191 255 255 255
-1.162558 -0.730920 -0.179559 255 255 255
-1.137746 -0.750340 -0.187231 255 255 255
-1.091802 -0.692507 -0.049327 255 255 254
-0.934115 -0.761203 -0.608135 75 95 128
-0.931324 -0.764046 -0.581942 92 109 145
-0.912021 -0.760974 -0.588758 78 96 130
-0.915708 -0.773583 -0.582335 103 121 157
-0.986443 -0.810444 0.334687 255 255 255
-0.981137 -0.813355 0.339286 255 255 255
-0.987020 -0.813584 0.348898 255 255 255
-0.877332 -0.824376 -0.336773 255 255 255
-1.116792 -0.782453 -0.348859 219 224 242
-1.151770 -0.773143 -0.346701 196 208 234
-1.162774 -0.753396 -0.343237 195 209 242
-1.008965 -0.725666 -0.283354 195 211 243
-0.974816 -0.727123 -0.282676 193 209 240
-1.120007 -0.757926 -0.194627 255 255 255
-0.988010 -0.751231 -0.205327 255 255 255
-1.007383 -0.761665 -0.198759 255 255 255
-0.991738 -0.762736 -0.198940 255 255 255
-1.001324 -0.746880 -0.208718 255 255 255
-1.149268 -0.757580 -0.343840 155 175 216
-1.196884 -0.729473 -0.330732 207 218 241
-1.225254 -0.730082 -0.329578 198 211 236
-1.118561 -0.689596 -0.116974 255 255 255
-1.092665 -0.693151 -0.120271 254 255 255
-0.970151 -0.789958 -0.353275 252 253 252
-0.967828 -0.778043 -0.354888 249 254 255
-0.949612 -1.027780 -0.389405 164 184 222
-0.973162 -1.020228 -0.410363 205 221 249
-0.959003 -1.027768 -0.394044 204 220 248
-0.973624 -1.027344 -0.392736 165 186 222
-1.017909 -0.777126 -0.357333 252 255 254
-1.009256 -0.767433 -0.357149 242 248 254
-1.028634 -0.781724 -0.363266 231 235 236
-0.837463 -0.704169 0.232267 251 252 254
-0.943940 -0.754315 -0.355005 206 217 246
-0.903857 -0.751942 -0.360629 163 184 229
-0.921046 -0.759228 -0.355946 163 184 229
-0.921197 -0.784792 -0.353241 242 251 254
-0.936410 -0.769567 -0.355333 218 232 249
-0.918611 -0.773224 -0.357539 214 227 246
-1.278486 -0.675101 0.006405 254 255 255
-1.278777 -0.644386 0.017529 255 255 255
-0.896674 -1.021513 -0.451812 235 239 248
-0.909768 -1.020314 -0.450946 163 164 197
-0.984188 -0.813749 0.316809 255 255 255
-0.980567 -0.809953 0.309272 255 255 255
-1.071283 -0.902467 -0.323493 255 255 255
-1.046198 -0.898674 -0.328983 255 255 255
-0.956874 -0.867064 -0.331114 255 255 255
-0.935487 -0.844853 -0.334310 255 255 255
-1.105533 -0.699591 -0.178815 255 255 255
-1.072368 -0.700016 -0.181324 255 255 255
-1.093577 -0.707161 -0.182530 255 255 255
-1.092467 -0.724511 -0.178479 255 255 255
-1.081540 -0.712609 -0.183074 255 255 255
-1.261608 -0.723006 0.173573 255 255 255
-0.928368 -0.760812 -0.572504 80 97 133
-0.908801 -0.758751 -0.544905 102 122 165
-0.911921 -0.758282 -0.554687 117 138 186
-0.917244 -0.767837 -0.562810 108 129 170
-0.883804 -0.782126 -0.501657 177 198 244
-0.868198 -0.781895 -0.500050 181 202 248
-0.862404 -0.785978 -0.489499 185 204 249
-0.869322 -0.783849 -0.481528 184 204 249
-0.851730 -0.792054 -0.486410 191 208 251
-1.230440 -0.728822 -0.266783 255 255 255
-1.240866 -0.729235 -0.285065 255 255 255
-1.247066 -0.728763 -0.263027 255 255 255
-1.018460 -0.693467 -0.122783 254 255 255
-1.021147 -0.692440 -0.145658 254 255 255
-1.279514 -0.744277 -0.216660 255 255 255
-1.273799 -0.733605 -0.233537 255 255 255
-1.267553 -0.748247 -0.204367 255 255 255
-0.890389 -0.712243 0.097047 254 255 255
-0.877950 -0.714594 0.068058 255 255 255
-0.888990 -0.711135 0.074962 255 255 255
-0.873803 -0.701988 0.099476 254 255 255
-0.871675 -0.692421 0.085252 254 255 255
-0.866058 -0.712183 0.080917 254 255 255
-0.895764 -0.710781 0.085247 254 255 255
-0.889035 -0.713887 0.086698 254 255 254
-0.875945 -0.700469 0.088787 254 255 255
-0.876025 -0.699880 0.063569 255 255 255
-0.871260 -0.697874 0.079848 255 255 255
-0.934088 -0.726789 -0.320783 175 191 226
-0.933719 -0.728170 -0.346555 162 181 217
-0.986946 -0.685039 0.295168 255 255 255
-0.981112 -0.694361 0.295142 255 255 255
-0.995266 -0.688459 0.300426 255 255 255
-0.890988 -0.744850 -0.642059 118 143 194
-0.900116 -0.751960 -0.625561 117 147 195
-0.891719 -0.746597 -0.618270 117 148 194
-0.885876 -0.737341 -0.634381 120 153 199
-1.005763 -0.849731 -0.333671 255 255 255
-0.986991 -0.839633 -0.333756 255 255 255
-1.240488 -0.636133 0.321357 223 223 223
-1.242039 -0.657224 0.324679 247 247 247
-1.217378 -0.672701 0.324025 254 255 254
-0.987853 -0.726572 -0.260280 201 215 248
-1.027258 -0.727217 -0.259697 202 216 248
-1.197655 -0.813262 -0.344548 255 255 255
-1.196899 -0.810324 -0.336471 255 255 255
-1.181122 -0.801116 -0.338322 255 255 255
-1.184962 -0.803035 -0.346890 254 254 253
-0.908900 -0.840468 -0.336608 255 255 255
-0.892510 -0.830178 -0.337374 255 255 255
-1.273646 -0.707456 0.021107 255 255 255
-1.272754 -0.722640 0.014656 255 255 255
-1.214728 -0.667467 -0.175936 254 255 255
-1.187508 -0.664715 -0.169995 255 255 255
-1.221040 -0.644490 -0.171706 254 255 255
-1.197879 -0.654571 -0.170584 255 255 255
-1.193953 -0.677417 -0.177425 254 255 255
-0.992402 -0.692814 -0.114783 254 255 255
-0.959431 -0.692274 -0.098993 254 255 255
-1.165550 -0.728461 -0.282941 226 243 254
-0.994233 -0.783230 0.306945 255 255 255
-0.999762 -0.769459 0.304801 255 255 255
-0.982780 -0.798657 0.306790 255 255 255
-0.985492 -0.784924 0.299200 255 255 255
-0.879031 -0.715125 0.150288 254 255 255
-0.875447 -0.701781 0.147964 254 255 255
-0.893670 -0.715573 0.141480 254 255 255
-0.894392 -0.710708 0.140343 254 255 255
-0.885747 -0.711342 0.160134 254 255 255
-1.271955 -0.719090 -0.002823 255 255 255
-1.275327 -0.725682 -0.025026 254 255 255
-0.931782 -0.714472 -0.088954 255 255 255
-0.922383 -0.716924 -0.092549 255 255 255
-1.261368 -0.678921 0.214390 254 254 255
-1.259813 -0.687182 0.223634 253 253 255
-1.262110 -0.678965 0.194468 255 255 255
-1.231153 -0.714276 -0.176051 255 255 255
-1.214100 -0.726386 -0.177671 255 255 255
-1.184493 -0.726114 -0.179037 255 255 255
-1.211674 -0.745562 -0.182544 255 255 255
-1.056427 -0.699070 0.306260 255 255 255
-1.042667 -0.688568 0.311927 254 255 255
-0.951011 -1.014860 -0.346311 255 255 255
-0.950656 -1.010994 -0.345387 254 255 254
-1.003522 -0.913720 -0.331530 255 255 255
-1.030542 -0.900952 -0.330703 255 255 255
-1.013822 -0.894207 -0.331873 255 255 255
-1.005887 -0.927949 -0.331090 255 255 255
-0.988990 -1.024072 -0.358321 255 255 255
-0.983493 -1.023863 -0.370142 218 229 254
-1.004098 -1.018714 -0.351956 253 255 255
-0.989369 -1.019973 -0.350029 252 255 255
-1.072959 -0.693720 -0.121783 255 255 255
-1.103481 -0.692660 -0.099018 254 255 255
-0.992122 -0.691806 -0.088774 254 254 255
-0.969727 -0.691367 -0.066782 254 255 255
-0.969766 -0.691890 -0.089253 254 255 255
-1.263205 -0.730685 0.278934 255 255 253
-1.276515 -0.697625 0.301224 255 255 255
-1.276076 -0.711317 0.290465 255 255 255
-1.259709 -0.703126 0.298044 255 255 255
-1.276024 -0.705517 0.308447 255 255 254
-1.264419 -0.722109 0.299998 255 255 255
-1.268771 -0.710600 0.309580 255 255 255
-1.272444 -0.698410 0.306120 255 255 254
-1.271477 -0.762893 -0.095428 255 255 255
-1.269069 -0.750659 -0.107355 255 255 255
-1.272355 -0.759669 -0.127886 255 255 255
-1.281151 -0.679299 -0.024533 255 255 255
-1.280333 -0.661755 -0.013033 255 255 255
-1.150930 -0.680883 -0.118882 254 255 255
-1.146169 -0.682870 -0.133564 255 255 255
-1.148597 -0.662286 -0.101725 255 255 255
-1.137337 -0.727056 -0.257012 210 226 254
-1.154511 -0.727149 -0.264340 213 231 254
-1.145992 -0.873181 -0.323821 255 255 255
-1.122396 -0.853982 -0.323421 255 255 255
-1.126461 -0.889639 -0.323652 255 255 255
-0.986479 -0.692836 -0.140720 254 255 255
-0.867692 -0.714223 0.093473 254 255 254
-0.842664 -0.706513 0.074995 255 255 255
-0.842467 -0.708523 0.103541 255 255 255
-1.228607 -0.744933 0.323834 254 255 255
-1.201583 -0.722261 0.321524 255 255 255
-1.217986 -0.732876 0.320955 254 255 255
-0.868901 -0.728058 -0.345838 174 193 226
-0.846039 -0.727899 -0.346837 173 192 226
-1.273217 -0.763298 -0.029401 255 255 255
-1.273506 -0.780863 -0.040108 254 255 255
-1.275116 -0.770435 -0.059633 253 254 255
-1.118447 -0.692995 -0.067740 255 255 255
-1.098284 -0.694103 -0.064165 255 255 255
-1.101804 -0.693904 -0.089689 255 255 255
-1.113401 -0.718493 0.313733 255 254 255
-1.105155 -0.697217 0.312576 255 255 255
-1.124617 -0.699863 0.313359 255 255 255
-1.270691 -0.652434 0.101217 255 255 254
-0.963288 -0.691038 -0.027603 255 255 255
-0.937272 -0.690412 -0.009914 255 255 255
-1.254685 -0.693901 0.231904 169 174 203
-1.026329 -0.692243 0.006206 255 255 255
-1.097506 -0.749585 -0.188696 255 255 255
-1.058705 -0.751617 -0.190825 255 255 255
-1.102994 -0.694001 0.122960 255 254 254
-1.161274 -0.676448 -0.140221 253 255 255
-1.154739 -0.702025 0.315290 255 255 255
-1.154756 -0.684358 0.324496 255 255 255
-1.141148 -0.685201 0.320526 255 255 255
-1.100722 -0.731612 -0.358012 159 167 199
-1.108984 -0.744828 -0.362128 159 167 199
-1.123008 -0.737089 -0.352438 131 144 184
-1.039822 -0.691162 0.066217 255 255 255
-1.061766 -0.692477 0.032628 255 255 255
-0.984670 -0.879812 -0.333446 255 255 255
-0.884739 -0.708442 0.032385 255 255 255
-0.876649 -0.715251 0.022821 255 255 255
-0.895417 -0.710837 0.014212 255 255 255
-0.881579 -0.701812 0.012749 255 255 255
-0.899405 -0.713280 -0.000942 255 255 255
-0.891660 -0.715073 0.012130 255 255 255
-0.873840 -0.698297 0.033319 254 255 255
-0.870074 -0.710059 -0.086813 255 255 255
-0.842611 -0.704271 -0.076673 255 255 255
-1.029544 -0.915371 -0.331869 255 255 255
-0.878105 -0.733786 -0.642873 132 161 209
-0.915272 -0.939103 -0.334229 254 255 255
-0.902367 -0.935207 -0.334206 255 255 255
-1.261362 -0.759090 0.166321 255 255 255
-1.259393 -0.765007 0.194079 255 255 255
-1.259583 -0.752192 0.184485 255 255 255
-1.051276 -0.801973 -0.353029 254 255 254
-1.057787 -0.805613 -0.339933 254 255 254
-1.056707 -0.822229 -0.330391 255 254 255
-0.934119 -0.727027 -0.297783 183 201 233
-0.909880 -0.726787 -0.315283 185 200 234
-0.971490 -0.698602 0.028176 255 255 255
-0.971236 -0.698109 0.005566 255 255 255
-0.961702 -0.690837 0.028401 255 255 255
-0.960941 -0.690807 0.002265 255 255 255
-0.933987 -0.691900 0.004520 255 255 255
-0.936985 -0.691144 0.029562 255 255 255
-1.276038 -0.730033 -0.255621 255 255 255
-1.094250 -0.751875 0.325298 255 255 255
-1.119197 -0.753116 0.325523 254 254 255
-1.057367 -0.692224 -0.156428 254 255 255
-1.060376 -0.693271 -0.132252 254 255 255
-1.190797 -0.811893 -0.359409 239 239 240
-1.037057 -0.736754 -0.185788 255 255 255
-1.001594 -0.691371 -0.026494 255 255 255
-0.988878 -0.690943 -0.016033 255 255 255
-1.000886 -0.691022 -0.002110 255 255 255
-0.974531 -0.691472 -0.003570 255 255 255
-1.147133 -0.683267 -0.163261 254 255 255
-0.944592 -0.756996 -0.194822 255 255 255
-0.962217 -0.760736 -0.202916 255 255 255
-0.960834 -0.762153 -0.195346 255 255 255
-0.962024 -0.751119 -0.208279 255 255 255
-0.970687 -0.746484 -0.212129 255 255 255
-0.944964 -0.746904 -0.218238 255 255 254
-0.941950 -0.749010 -0.212184 254 254 254
-0.964093 -0.765152 -0.199030 255 255 255
-0.975064 -0.745058 -0.220175 254 254 255
-0.876784 -0.803780 -0.340260 255 255 254
-0.856251 -0.808520 -0.337897 255 254 255
-0.876924 -0.787890 -0.350261 254 254 255
-0.855113 -0.797534 -0.343969 254 254 255
-1.267443 -0.676500 0.322745 127 127 127
-1.030613 -0.974986 -0.334985 252 253 255
-1.008467 -0.994848 -0.336521 252 253 255
-0.956898 -0.694581 0.315269 255 255 255
-1.158917 -0.738021 -0.341219 135 154 191
-1.161055 -0.731915 -0.335281 134 151 192
-1.123144 -0.727035 -0.323721 174 192 226
-1.136661 -0.744722 -0.350072 159 174 215
-1.136657 -0.733845 -0.344154 150 166 207
-1.149528 -0.729379 -0.329347 164 183 215
-1.125831 -0.728765 -0.341213 137 153 195
-1.263504 -0.658816 0.268117 254 254 255
-1.264401 -0.661501 0.277727 255 255 255
-1.265867 -0.648273 0.281903 255 255 255
-1.274417 -0.658702 0.284401 255 255 255
-1.274938 -0.634927 0.284990 255 255 255
-1.066396 -0.692174 0.001142 255 255 255
-1.067945 -0.691463 0.024528 255 255 255
-0.972751 -1.018424 -0.450302 139 131 141
-0.948877 -1.018568 -0.473665 138 128 139
-0.948179 -1.018873 -0.450522 141 130 139
-1.136223 -0.732253 -0.242261 255 254 255
-1.154942 -0.733766 -0.238817 255 254 255
-1.140123 -0.742619 -0.221075 255 255 255
-0.879313 -0.743486 -0.235707 243 246 253
-0.866247 -0.733409 -0.251031 205 218 240
-0.849015 -0.746288 -0.230775 252 253 255
-1.265809 -0.759294 0.121624 254 255 255
-1.267572 -0.748310 0.084853 254 255 255
-1.267009 -0.762992 0.096739 254 255 255
-0.956832 -0.983669 -0.336459 254 254 255
-0.971894 -0.998261 -0.337909 254 255 254
-1.007595 -0.671745 0.245220 223 222 240
-1.014638 -0.685472 0.233646 212 211 231
-0.875884 -1.016082 -0.347989 255 255 255
-0.901209 -1.001986 -0.345173 255 254 255
-1.136841 -0.751091 0.323047 255 255 255
-1.154082 -0.731637 0.315721 255 255 255
-1.159889 -0.721488 0.319274 255 255 255
-0.976413 -0.742528 -0.230015 249 252 255
-1.225838 -0.777025 -0.360368 247 250 255
-1.211148 -0.775187 -0.361132 245 247 254
-1.134530 -0.676685 0.015157 255 255 255
-1.127674 -0.683876 0.024721 255 255 255
-1.127069 -0.686807 -0.001921 255 255 255
-1.133640 -0.674102 0.033057 255 255 255
-1.124978 -0.665241 0.027586 175 187 213
-1.127236 -0.666080 0.006608 255 255 255
-1.076315 -0.956950 -0.325840 255 255 255
-0.896935 -0.710514 -0.046868 255 255 255
-0.890447 -0.714185 -0.044516 255 255 255
-0.876089 -0.713739 -0.042016 255 255 255
-0.899125 -0.714173 -0.059210 255 255 255
-0.888770 -0.711763 -0.023779 255 255 255
-0.897227 -0.691130 -0.064330 255 255 255
-0.872755 -0.695440 -0.036842 255 255 255
-0.881168 -0.698590 -0.063522 255 255 255
-0.870637 -0.732649 -0.546949 138 169 214
-0.862030 -0.734724 -0.569002 139 172 218
-0.857275 -0.734138 -0.545871 140 174 218
-1.049141 -0.691234 -0.003392 255 255 255
-0.896960 -0.750678 -0.585840 94 118 168
-0.880250 -0.734219 -0.580751 122 152 202
-0.893687 -0.744274 -0.594276 118 145 194
-0.892737 -0.747757 -0.601414 118 146 194
-0.877320 -0.732994 -0.604785 133 164 208
-0.885391 -0.736857 -0.599661 119 148 195
-1.072088 -0.727709 -0.321333 177 194 229
-1.068691 -0.727241 -0.339611 177 195 230
-0.888143 -1.030957 -0.386292 192 207 242
-0.905745 -1.026448 -0.411006 213 227 248
-0.907427 -1.026534 -0.392964 168 183 229
-0.903137 -1.035786 -0.376865 236 246 254
-0.894166 -1.027567 -0.400408 204 222 240
-0.885739 -1.034034 -0.409514 234 242 248
-0.860797 -0.787872 -0.633780 172 187 246
-0.926317 -0.755595 -0.546024 101 120 163
-0.912986 -0.759827 -0.534386 101 121 164
-0.915658 -0.762550 -0.516086 49 60 83
-1.095986 -0.766165 -0.379529 207 221 237
-1.104165 -0.762382 -0.375274 228 236 246
-1.092198 -0.789454 -0.368524 254 255 255
-1.098840 -0.764468 -0.367947 203 215 234
-1.092376 -0.782442 -0.375551 252 254 254
-1.092026 -0.776392 -0.376378 251 254 254
-1.001079 -0.690937 0.127851 255 255 254
-1.265819 -0.725553 -0.132035 254 255 255
-1.267275 -0.718950 -0.150927 255 255 255
-1.266246 -0.716843 -0.130177 255 255 255
-1.277967 -0.700499 -0.134768 255 255 255
-1.037085 -0.698003 -0.181675 255 255 255
-1.053874 -0.708805 -0.185377 255 255 255
-1.059902 -0.722964 -0.178651 255 255 255
-1.039495 -0.720913 -0.178827 255 255 255
-1.089118 -0.687943 0.315876 255 255 255
-1.063380 -0.685731 0.315607 254 254 254
-1.063105 -0.726190 -0.315656 165 184 216
-1.036527 -0.725845 -0.323180 170 188 221
-1.201508 -0.760626 -0.359907 199 216 247
-1.211561 -0.752012 -0.349224 217 230 251
-1.237577 -0.759310 -0.363397 222 236 254
-1.217138 -0.765553 -0.361086 216 230 252
-1.195758 -0.777552 -0.357847 207 222 248
-1.234537 -0.769283 -0.359401 231 242 255
-1.220997 -0.755674 -0.359901 208 223 248
-1.237212 -0.728975 -0.315298 220 231 248
-1.210850 -0.728991 -0.296283 229 243 254
-1.198254 -0.729060 -0.307234 190 206 239
-1.140679 -0.677927 -0.018447 254 254 254
-1.133456 -0.666535 -0.014940 254 254 254
-1.136102 -0.675263 -0.002685 255 255 255
-1.015407 -0.691758 -0.165900 254 255 255
-1.013321 -0.693652 -0.177482 255 255 255
-1.028883 -0.699073 -0.182519 255 255 255
-1.048950 -0.690437 0.220604 255 255 255
-1.065983 -0.691685 0.201967 255 255 255
-1.029846 -0.689784 0.222692 254 254 254
-0.992529 -0.708078 0.299205 255 255 255
-0.994623 -0.678188 0.302711 255 255 255
-1.030571 -0.685319 0.312641 255 255 255
-1.008816 -0.676743 0.314351 255 255 255
-1.011392 -0.692043 0.306268 255 255 255
-1.276201 -0.686938 -0.127636 255 255 255
-1.278162 -0.694808 -0.155444 255 255 255
-1.278438 -0.680947 -0.149989 255 255 255
-1.268747 -0.773662 0.036378 254 255 254
-1.030891 -0.734720 -0.240720 237 244 254
-0.935302 -0.717389 -0.185781 255 255 255
-0.996586 -0.743464 -0.365929 136 150 179
-0.981395 -0.729893 -0.357991 123 137 172
-0.973863 -0.735798 -0.361426 125 138 169
-1.256535 -0.666574 -0.172401 254 255 255
-1.249467 -0.692268 -0.174952 255 255 255
-1.115136 -0.926011 -0.321316 255 255 255
-0.862749 -0.853917 -0.335175 255 255 255
-0.875187 -0.874517 -0.333144 255 255 255
-0.866782 -0.776304 -0.411115 186 213 253
-0.852797 -0.778916 -0.393273 197 221 252
-1.269003 -0.727204 -0.102114 255 255 255
-1.268363 -0.734763 -0.119540 255 255 255
-1.273289 -0.704480 -0.087348 255 255 255
-1.266428 -0.716262 -0.104144 255 255 255
-1.121585 -0.753019 0.345125 253 254 254
-1.145254 -0.753795 0.329561 254 255 255
-0.875975 -0.726580 -0.281567 190 207 240
-0.846790 -0.728973 -0.257743 192 211 242
-1.147903 -0.757716 -0.194891 255 255 255
-0.857701 -0.712798 0.036026 254 255 255
-0.860698 -0.711884 0.057031 254 255 255
-0.843143 -0.707080 0.054548 254 255 255
-0.946899 -0.708260 0.462627 255 255 255
-0.938469 -0.711087 0.479583 255 255 255
-0.939290 -0.711984 0.447372 255 255 255
-0.946865 -0.700150 0.467161 255 255 255
-1.009253 -0.752175 0.578570 246 244 239
-1.010081 -0.755038 0.608011 246 244 236
-1.010778 -0.752393 0.597092 246 244 236
-1.004679 -0.761216 0.484157 255 255 255
-0.926849 -0.698367 0.648531 255 255 252
-0.916154 -0.702193 0.655461 254 253 248
-0.906369 -0.702338 0.648378 255 255 250
-0.914451 -0.694032 0.657359 247 246 240
-0.930662 -0.699412 0.656982 254 253 251
-0.928856 -0.688783 0.649042 254 253 250
-0.920794 -0.689285 0.651139 254 253 249
-0.920973 -0.695570 0.633326 255 255 252
-0.906503 -0.694395 0.660779 255 254 234
-0.973889 -0.793110 0.421107 255 255 255
-0.959344 -0.785397 0.421481 255 255 255
-0.965752 -0.789744 0.440358 255 255 255
-1.017182 -0.758858 0.685316 218 208 182
-1.033185 -0.759988 0.698777 218 208 180
-1.000616 -0.769788 0.354117 255 255 255
-0.952373 -0.737028 0.485946 255 255 255
-0.956583 -0.754357 0.497538 255 255 254
-0.963498 -0.770460 0.485317 255 255 254
-0.957358 -0.757627 0.509773 255 255 255
-0.972186 -0.770381 0.510233 255 255 255
-0.965216 -0.770258 0.508960 255 255 255
-0.930315 -0.717628 0.511311 255 255 255
-1.015933 -0.754035 0.355017 255 255 255
-0.981298 -0.786095 0.541536 255 255 253
-0.995377 -0.781503 0.541320 255 255 252
-0.988555 -0.786122 0.529932 255 255 254
-0.998690 -0.782093 0.518562 255 255 254
-0.997791 -0.776484 0.528867 255 255 255
-0.976947 -0.772393 0.513034 255 255 255
-0.979359 -0.777803 0.512040 255 255 255
-1.064167 -0.750247 0.380628 240 242 247
-1.042149 -0.751755 0.384894 238 238 242
-1.090399 -0.751925 0.576278 234 228 208
-0.969008 -0.777863 0.591137 255 255 253
-0.944987 -0.757795 0.691719 215 203 176
-1.026478 -0.753385 0.431238 253 254 254
-1.031633 -0.750931 0.441800 222 220 216
-1.010367 -0.759456 0.421800 253 254 253
-1.133057 -0.751995 0.398445 248 248 249
-1.162195 -0.752472 0.397591 251 252 250
-1.162656 -0.753023 0.429467 249 250 248
-1.036639 -0.755459 0.634134 221 212 189
-1.020539 -0.754136 0.618140 239 235 223
-1.024240 -0.755671 0.603628 239 235 223
-1.005953 -0.768480 0.419143 254 255 255
-0.880280 -0.723642 0.873738 255 254 234
-0.888336 -0.740752 0.880841 248 241 212
-0.879279 -0.717206 0.888261 255 255 237
-0.929323 -0.696009 0.634332 255 255 253
-0.929750 -0.687678 0.625406 255 255 254
-0.915769 -0.709816 0.605837 255 255 252
-0.928763 -0.695875 0.608899 255 255 252
-0.903271 -0.702664 0.619005 255 255 252
-0.916715 -0.700716 0.621554 255 255 252
-0.932617 -0.761478 0.816542 219 207 177
-0.918358 -0.758552 0.800622 214 205 174
-0.926981 -0.760478 0.826011 214 203 174
-0.906582 -0.756211 0.825160 219 209 178
-1.080238 -0.751894 0.407560 230 230 228
-1.090024 -0.753015 0.396977 233 233 231
-0.969661 -0.784781 0.537056 255 255 252
-0.975372 -0.774348 0.543912 255 255 253
-0.974933 -0.773117 0.547141 255 255 252
-0.966127 -0.778794 0.517701 255 255 254
-0.967876 -0.780869 0.554488 255 255 252
-0.981248 -0.785481 0.514090 255 255 254
-0.972861 -0.776187 0.517240 255 255 255
-1.008064 -0.765865 0.351145 255 255 255
-1.038274 -0.750349 0.366523 246 246 248
-1.012282 -0.757579 0.379262 254 255 255
-1.022097 -0.751984 0.381231 250 250 251
-1.005848 -0.766101 0.384135 254 255 255
-1.022520 -0.753072 0.367934 248 249 252
-0.981696 -0.758580 0.729715 214 203 173
-1.006214 -0.760678 0.721902 214 203 174
-0.980418 -0.755464 0.712990 213 202 174
-0.996597 -0.757839 0.734416 214 203 175
-0.942959 -0.699572 0.597346 255 255 252
-0.951095 -0.690374 0.601618 255 254 251
-0.949191 -0.687805 0.565656 255 254 253
-0.939084 -0.680441 0.607811 254 255 252
-0.931462 -0.685909 0.610337 254 255 252
-1.124665 -0.751105 0.559124 242 238 223
-1.043061 -0.752581 0.455087 227 223 215
-1.085862 -0.753107 0.479885 226 223 216
-1.047362 -0.752322 0.443945 225 223 215
-1.001413 -0.760349 0.570285 252 252 250
-0.999985 -0.757254 0.580082 255 255 254
-0.993988 -0.769025 0.549856 255 255 252
-1.001169 -0.765964 0.556155 255 255 252
-0.980078 -0.770593 0.549324 255 255 252
-0.995711 -0.772151 0.543807 255 255 252
-0.937445 -0.709421 0.597000 255 255 253
-0.937729 -0.708169 0.581123 255 255 253
-0.909435 -0.729464 0.634942 255 255 252
