ply
format ascii 1.0
element vertex 1198
property float x
property float y
property float z
property uchar red
property uchar green
property uchar blue
end_header
-0.814815 0.347865 0.257889 205 191 187
-0.697673 0.817628 0.460837 212 197 186
-0.831929 0.611987 0.697892 218 210 218
-0.829952 0.620975 0.669826 219 211 221
-0.847199 0.545517 0.913594 223 215 222
-0.848252 0.547751 0.932907 221 215 222
-0.065569 0.686559 1.135422 155 139 125
-0.075172 0.677114 1.133467 123 111 101
-0.084214 0.671223 1.134383 124 111 101
-0.090445 0.657239 1.147383 120 111 100
-0.060511 0.669847 1.147298 121 113 99
-0.077726 0.680682 1.148318 123 113 99
-0.101909 0.676177 1.147680 122 113 99
-0.434134 0.870890 1.127199 193 178 166
-0.430332 0.869458 1.106265 193 179 165
-0.855414 0.474967 1.036384 206 197 200
-0.706214 0.024877 0.263038 228 219 222
-0.717734 0.021556 0.261561 228 219 222
-0.736569 0.041684 0.264168 223 215 217
-0.715203 0.036191 0.262974 238 228 234
-0.698943 0.032318 0.275060 236 227 231
-0.693325 0.019597 0.267972 234 228 229
-0.689081 0.022646 0.284529 242 230 237
-0.855775 0.639743 1.103556 190 184 186
-0.198893 0.855652 0.881594 233 217 203
-0.179643 0.854986 0.887306 233 216 202
-0.362289 0.844755 0.773836 220 205 196
-0.365432 0.844778 0.784907 220 205 196
-0.825330 0.750655 0.671847 216 211 220
-0.825514 0.730824 0.678601 214 212 223
-0.826378 0.750500 0.698190 213 211 223
-0.825203 0.749036 0.688808 213 211 223
-0.829067 0.180520 0.540648 228 216 220
-0.829727 0.210333 0.515624 226 215 218
-0.459589 1.080205 0.287428 148 126 99
-0.460351 1.072184 0.308836 148 126 100
-0.456547 1.101296 0.282732 148 126 99
-0.843700 0.433036 0.790442 220 211 215
-0.819926 0.387834 0.377418 226 215 221
-0.276793 0.873529 1.127836 203 185 170
-0.257831 0.821540 0.424067 232 212 201
-0.237436 0.821844 0.445330 230 212 199
-0.511740 0.851958 0.890190 215 202 195
-0.432153 0.878955 0.414808 191 177 157
-0.437447 0.882891 0.418568 184 167 155
-0.433186 0.909174 0.423064 185 168 155
-0.335560 0.819992 0.408253 210 193 179
-0.478560 0.993264 0.405012 146 120 94
-0.476433 0.987079 0.411768 127 110 90
-0.274273 0.831235 0.549190 225 209 201
-0.278643 0.831495 0.562431 225 210 199
-0.825593 0.222050 0.445549 227 212 218
-0.827194 0.226588 0.477554 224 213 218
-0.501946 0.831513 0.565328 214 202 193
-0.764289 0.830109 0.658836 205 192 190
-0.759283 0.832257 0.684086 204 194 191
-0.392274 0.832045 0.583605 221 209 201
-0.368819 0.832097 0.604836 222 208 201
-0.024535 0.618299 1.175862 162 149 131
-0.048055 0.610260 1.172199 161 149 132
-0.032317 0.622395 1.175998 163 150 132
-0.044967 0.494813 1.174012 164 154 140
-0.044952 0.487228 1.148136 168 155 138
-0.819901 0.412592 0.388373 224 215 220
-0.043929 0.377298 1.180279 174 163 146
-0.151027 0.850242 0.810643 242 222 208
-0.137897 0.849666 0.825940 241 223 209
-0.327097 0.864611 1.035961 207 191 178
-0.329164 0.864459 1.021166 210 195 184
-0.462132 0.850984 0.281057 198 178 154
-0.195633 1.119462 0.260019 173 149 119
-0.176782 1.121127 0.267680 172 150 112
-0.209311 1.119958 0.276653 168 146 119
-0.829327 0.296730 0.537554 225 213 214
-0.828016 0.314632 0.513336 225 214 216
-0.853646 0.387774 0.987010 210 199 200
-0.854979 0.382885 1.010042 207 197 199
-0.459633 0.929010 0.385656 139 120 94
-0.460611 0.925623 0.395268 120 105 81
-0.457010 0.921754 0.391679 125 107 86
-0.473936 0.945148 0.399719 143 121 96
-0.468260 0.923296 0.400192 152 129 93
-0.459216 0.911114 0.382629 140 118 95
-0.478869 1.059248 0.397287 130 110 85
-0.482166 1.069015 0.405401 122 105 79
-0.466273 1.072927 0.380180 135 113 82
-0.474486 1.084691 0.392774 113 91 65
-0.647573 0.838365 0.739024 208 196 189
-0.615859 0.838460 0.757533 207 196 188
-0.637308 0.840164 0.769586 207 196 190
-0.271325 0.850933 0.837369 225 211 200
-0.604005 0.643800 1.196600 179 162 152
-0.833613 0.352264 0.610336 223 212 216
-0.835553 0.363623 0.629603 224 213 214
-0.814610 0.813868 0.409623 211 189 168
-0.828903 0.167117 0.514232 227 218 223
-0.827344 0.141162 0.496547 227 216 221
-0.829089 0.145109 0.532950 226 217 224
0.075537 0.521041 1.175228 165 151 134
-0.059426 0.383474 1.179495 176 164 152
-0.075230 0.364531 1.177671 180 168 152
-0.077718 0.378962 1.178147 176 164 151
-0.367534 0.861954 0.995500 210 196 184
-0.388029 0.861954 0.992163 209 194 179
-0.361294 0.863867 1.017535 209 195 181
-0.064650 0.842825 0.743622 235 220 206
-0.860116 0.480297 1.093245 198 190 193
-0.561540 0.802449 0.248048 210 194 180
-0.098539 0.870473 1.086710 212 193 179
-0.101437 0.869313 1.110132 210 192 173
-0.082713 0.868636 1.107654 206 189 172
-0.828003 0.350784 0.507347 225 214 217
-0.249724 0.653145 1.205674 182 170 156
-0.226077 0.636637 1.211260 181 168 161
-0.242697 0.641456 1.208907 181 169 160
-0.138916 0.379479 1.179137 175 166 150
-0.129439 0.379199 1.179786 177 169 152
-0.136633 0.362514 1.182959 185 172 160
-0.848441 0.831724 0.886677 215 209 212
-0.847852 0.841566 0.923514 215 210 211
-0.836678 0.848092 0.916836 202 190 184
-0.843658 0.843331 0.894128 200 190 187
-0.850310 0.835107 0.908195 213 207 209
-0.815468 0.736204 0.485836 207 197 196
-0.182781 0.854212 0.876408 232 217 204
-0.162695 0.854405 0.877582 233 218 202
-0.138356 0.857101 0.894074 233 215 203
-0.165645 0.855783 0.898060 230 215 201
-0.748104 0.825013 0.574836 206 193 190
-0.762607 0.823479 0.546836 202 192 183
-0.421672 0.697937 1.203656 176 164 154
-0.434739 0.835657 0.639836 219 207 196
-0.411390 0.837536 0.651961 217 207 201
-0.196941 0.863307 0.953151 223 207 191
-0.194548 0.864199 0.976715 219 205 188
0.045184 0.395708 1.178200 174 161 149
0.052252 0.371546 1.180507 177 164 152
-0.831864 0.672187 0.773219 213 207 218
-0.833088 0.676076 0.791025 213 208 216
-0.850983 0.820633 0.902593 215 211 217
-0.843868 0.788836 0.913586 213 208 216
-0.360649 0.577233 1.212078 176 165 155
-0.358816 0.595816 1.211964 179 166 157
-0.370624 0.604335 1.212196 177 164 155
-0.708507 -0.037976 0.264518 222 212 214
-0.538146 0.817145 0.352180 223 207 193
-0.857994 0.343748 1.075443 206 196 195
-0.858425 0.327239 1.070860 206 196 196
-0.857420 0.308341 1.068336 206 196 194
-0.859495 0.343218 1.084321 206 197 192
-0.855512 0.298510 1.051845 208 199 196
-0.854538 0.321250 1.019836 210 199 200
-0.853218 0.286677 1.021801 209 198 200
-0.857800 0.320879 1.047433 210 197 197
-0.095325 0.835777 0.648412 233 219 207
-0.125921 0.837008 0.656758 231 221 206
-0.866219 0.395316 1.155873 198 189 189
-0.866308 0.430083 1.156592 195 188 189
-0.556973 0.848174 0.867086 208 196 188
-0.545537 0.845837 0.836240 208 198 189
-0.564536 0.847728 0.846570 208 197 190
-0.736254 -0.019944 0.266680 206 199 196
-0.719388 -0.018439 0.261566 226 217 222
-0.840617 0.659236 0.889836 217 213 221
-0.840528 0.638239 0.871836 217 210 216
-0.065551 0.834935 0.618829 229 218 201
-0.122397 0.646808 1.127242 82 73 68
-0.134831 0.818977 0.422573 236 221 203
-0.151205 0.819315 0.428008 241 225 204
-0.130469 0.821407 0.415683 240 223 206
-0.146794 0.819629 0.417261 231 215 196
-0.135652 0.826182 0.411721 221 205 185
-0.165668 0.825291 0.411123 231 215 195
-0.818208 0.303067 0.323942 229 219 221
-0.849557 0.562206 0.976549 211 205 209
-0.462708 0.998527 0.325586 146 125 98
-0.819249 0.453677 0.338294 226 218 222
-0.818155 0.450911 0.316589 226 217 221
-0.818344 0.431966 0.327836 225 213 219
-0.816226 0.414436 0.320593 225 213 216
-0.816277 0.224661 0.279715 233 223 223
-0.815304 0.224655 0.247215 231 221 225
-0.463119 0.841403 0.386278 141 124 101
-0.468492 0.831686 0.389304 166 148 129
-0.470007 0.824739 0.401858 202 186 169
-0.456374 0.829047 0.401312 177 159 140
-0.442283 0.828065 0.405034 212 198 182
-0.456326 0.823050 0.413353 212 198 182
-0.625819 0.849583 0.889393 205 193 187
-0.640769 0.848105 0.863836 207 195 187
-0.743081 0.057953 0.300012 242 231 235
-0.754766 0.054867 0.314619 245 235 235
-0.757567 0.060861 0.309659 240 230 236
-0.758610 0.065450 0.298907 245 234 231
-0.818358 0.563268 0.440516 222 216 222
-0.819501 0.570601 0.452690 224 214 223
-0.239881 0.827975 0.547369 227 211 200
-0.238378 0.828983 0.571668 226 212 199
-0.252620 0.830696 0.560999 229 213 201
-0.853250 0.181026 0.975698 215 204 202
-0.704225 0.813198 0.358586 215 199 188
-0.674656 0.813102 0.365279 215 201 190
-0.814662 0.336156 0.250182 227 216 213
-0.814296 0.344926 0.281411 199 188 187
-0.572668 0.827229 0.540086 211 198 190
-0.545530 0.826217 0.520024 212 199 188
-0.813176 0.673004 0.411606 218 208 209
-0.811428 0.665982 0.384529 219 207 207
-0.811625 0.680933 0.397336 216 205 206
-0.627436 0.851785 0.935392 209 198 189
-0.656472 0.852044 0.944086 206 196 185
-0.821381 0.803064 0.394296 212 193 165
-0.815898 0.803681 0.352702 212 190 166
-0.819152 0.792224 0.355680 213 192 167
-0.818966 0.778878 0.376796 213 195 180
-0.835229 0.326821 0.634821 223 212 214
-0.832311 0.324413 0.603836 222 211 213
-0.840326 0.462156 0.727943 222 213 217
-0.847786 0.589129 0.956272 214 208 213
-0.847709 0.616151 0.950259 212 206 214
-0.848409 0.604756 0.974679 210 205 208
-0.196561 0.847825 0.785741 228 214 198
-0.235009 0.845456 0.788860 227 212 200
-0.216477 0.843842 0.761473 227 213 200
-0.788245 0.857714 1.028521 192 181 169
-0.792544 0.858024 1.048640 186 175 167
-0.261206 0.822687 0.446044 238 221 210
-0.836090 0.287600 0.643599 225 214 215
-0.837845 0.293928 0.662176 224 213 215
-0.459701 0.953078 0.263211 194 169 148
-0.460738 0.945917 0.279836 176 157 129
-0.841550 0.395876 0.743836 219 209 208
-0.766319 0.024947 0.323293 243 233 231
-0.793284 0.011239 0.332956 244 234 233
-0.853602 0.267787 0.959888 216 204 205
-0.852650 0.255926 0.988733 214 203 203
-0.778393 0.810047 0.328336 213 195 170
-0.787316 0.811593 0.349836 213 191 171
-0.130803 0.324203 1.184008 183 173 157
-0.136464 0.295325 1.184230 185 172 157
-0.143882 0.323378 1.183475 186 174 162
-0.137631 0.305144 1.185189 185 173 158
-0.834962 0.591873 0.738983 216 212 217
-0.833883 0.594312 0.718057 217 210 218
-0.596368 0.813038 0.325836 220 205 195
-0.573350 0.814037 0.342086 221 205 194
-0.011141 0.655212 1.139355 162 145 131
0.007160 0.674351 1.132330 155 137 127
-0.001907 0.670837 1.130951 154 137 124
-0.006830 0.686048 1.132693 160 142 131
-0.010372 0.670255 1.133820 159 143 129
-0.016750 0.676888 1.132170 154 139 125
-0.001694 0.659422 1.134929 162 146 132
0.003559 0.690083 1.134237 159 141 131
-0.444246 0.861737 1.006086 207 194 181
-0.447210 0.860320 0.989488 207 196 181
-0.146601 0.869173 1.029123 207 190 174
-0.851344 0.183418 0.907158 224 214 215
-0.811074 0.342474 1.193608 172 157 144
-0.802176 0.335066 1.191822 170 156 145
-0.799676 0.353508 1.193771 172 157 147
-0.813467 0.331213 1.192635 172 157 144
-0.763868 0.821264 0.497836 203 190 180
-0.183237 0.849064 0.827549 230 215 205
-0.614251 0.508662 1.211346 170 157 153
-0.621960 0.526558 1.208653 168 158 155
-0.606367 0.523873 1.207393 170 160 152
-0.591247 0.516672 1.207609 172 159 154
-0.616893 0.544140 1.205878 172 161 157
-0.600636 0.526781 1.207531 173 159 156
-0.153494 0.839219 0.699758 228 216 203
-0.655591 0.510847 1.209584 167 157 155
-0.654559 0.484967 1.210062 167 155 154
-0.669816 0.502246 1.207335 167 157 155
-0.673000 0.478771 1.209762 168 156 153
-0.684534 0.514057 1.205041 169 159 150
-0.106457 0.658874 1.133428 123 111 100
-0.100658 0.659226 1.147273 143 128 117
-0.118605 0.666511 1.133248 82 74 66
-0.097679 0.640761 1.132878 123 111 103
-0.113091 0.653280 1.132046 82 73 67
-0.120295 0.656330 1.127459 82 73 67
-0.284382 0.648026 1.207613 181 168 159
-0.282812 0.660575 1.206685 177 167 156
-0.295372 0.654619 1.206561 177 167 156
-0.071118 0.847386 0.784936 232 220 206
-0.082627 0.844705 0.777753 228 215 204
-0.145676 0.292603 1.170197 142 133 119
-0.834682 0.695042 0.804106 213 208 218
-0.841812 0.672843 0.901836 217 214 221
-0.843676 0.674300 0.930864 216 213 222
-0.544389 0.829104 0.547082 213 201 191
-0.541722 0.829211 0.556718 212 202 192
-0.541293 0.831451 0.578843 213 204 193
-0.566540 0.830069 0.577026 214 202 193
-0.570009 0.851500 0.899539 211 200 188
-0.553110 0.851578 0.922836 212 199 188
-0.595295 0.850828 0.913336 211 199 190
-0.569624 0.852229 0.919122 212 199 191
-0.583159 0.852808 0.930283 211 198 191
-0.058848 0.294955 1.185310 189 180 158
-0.822646 0.491017 0.431541 225 217 224
-0.813496 0.473455 0.284151 223 214 213
-0.240024 0.865064 1.007992 216 201 184
-0.222810 0.865384 1.008103 212 198 185
-0.216350 0.865038 0.996263 218 203 188
-0.287060 1.121396 0.292209 169 140 116
-0.238665 1.122461 0.299308 164 141 110
-0.124088 0.299019 1.142444 158 147 135
-0.148381 0.294515 1.143879 158 146 135
-0.137903 0.316384 1.138477 156 145 132
-0.452670 1.105590 0.243165 158 136 102
-0.456165 1.092521 0.257123 154 129 101
-0.545163 0.860643 1.047805 196 183 172
-0.531790 0.865918 1.073916 199 184 174
-0.548077 0.863480 1.072574 194 180 169
-0.528370 0.866560 1.091086 195 182 176
-0.079602 0.385594 1.141452 162 149 139
-0.074273 0.381067 1.145992 168 155 141
-0.078476 0.397392 1.146262 168 155 140
-0.420524 1.119210 0.265375 167 140 107
-0.435747 1.118185 0.247518 166 139 108
-0.390819 1.119355 0.271525 167 140 103
-0.397103 1.117562 0.260411 165 139 109
-0.805801 0.735588 0.293771 216 198 186
-0.807377 0.749785 0.285155 215 197 183
-0.812180 0.768820 0.295589 216 199 180
-0.808087 0.736797 0.323757 210 199 182
-0.393991 0.851724 0.857597 219 204 193
-0.407450 0.852820 0.875816 217 203 192
-0.389184 0.854056 0.896614 221 207 195
-0.383308 0.852912 0.874836 220 206 199
-0.845033 0.662015 0.969275 209 203 208
-0.687893 0.818919 0.489980 203 193 180
-0.580871 0.586120 1.203254 172 160 156
-0.571522 0.561185 1.204527 171 160 152
-0.593834 0.577587 1.203599 172 161 151
-0.596418 0.551769 1.207452 172 159 153
-0.605245 0.559086 1.207155 171 158 155
-0.615090 0.578403 1.203979 171 159 155
-0.831629 0.652847 0.714300 217 213 219
-0.832265 0.630615 0.717086 217 212 218
-0.377012 0.563656 1.210626 175 164 152
-0.118959 0.573307 1.187051 179 167 152
-0.114560 0.569838 1.180150 180 168 154
-0.059388 0.576753 1.183874 177 161 149
-0.067948 0.584806 1.185744 177 163 148
-0.074375 0.572546 1.183605 177 161 148
-0.077608 0.589396 1.191943 181 166 152
-0.088329 0.576441 1.185874 181 166 155
-0.079673 0.579125 1.180750 169 155 143
-0.077669 0.559237 1.180078 171 158 144
-0.082179 0.566354 1.179789 170 158 145
-0.070371 0.426522 1.143190 167 152 140
-0.080964 0.430866 1.142998 166 152 143
-0.091851 0.431968 1.140820 159 147 137
-0.078612 0.414695 1.143749 165 152 141
-0.853138 0.262828 1.001940 212 201 201
-0.852587 0.282278 0.993941 211 200 201
-0.573098 0.804204 0.257848 182 170 154
-0.598021 0.820858 0.452987 217 203 192
-0.580502 0.820586 0.451836 220 204 194
-0.591332 0.822130 0.462648 215 201 189
-0.589787 0.823336 0.484451 213 199 187
-0.838266 0.484624 0.685238 222 212 219
-0.838588 0.473264 0.697671 220 211 219
0.033959 0.358914 1.182142 185 173 157
0.019655 0.323793 1.179488 190 177 161
-0.304086 1.119531 0.252669 173 148 117
-0.581350 0.854725 0.957998 206 197 185
-0.543835 0.856203 0.975845 208 194 184
-0.562326 0.857321 0.986836 206 193 184
-0.574183 0.856261 0.971215 206 193 184
-0.586061 0.857785 0.985714 203 192 182
-0.814220 0.401289 0.266951 226 215 215
-0.680273 0.835437 0.706836 209 197 189
-0.663887 0.837611 0.731455 206 197 188
-0.462050 0.934550 0.311836 150 134 113
-0.209261 0.845700 0.771277 227 214 199
-0.289386 0.864028 0.964634 220 201 186
-0.284972 0.861934 0.952947 220 204 191
-0.305218 0.860224 0.955942 218 204 190
-0.289425 0.864319 0.979547 218 203 189
-0.288246 0.865666 0.988816 216 202 189
-0.873152 0.275236 1.164002 200 191 189
-0.877472 0.290249 1.173426 203 194 195
-0.882143 0.271505 1.178452 203 193 190
-0.052681 0.828937 0.414500 180 160 143
-0.088182 0.840402 0.408030 215 200 176
-0.345619 0.848114 0.814124 219 208 195
-0.321457 0.848508 0.807309 224 210 196
-0.329731 0.846702 0.797836 219 209 198
-0.334658 0.848726 0.828469 219 206 196
0.042281 0.319557 1.179301 191 179 162
0.039339 0.287456 1.182649 201 189 173
0.030527 0.304131 1.181943 198 185 170
-0.822860 0.339706 0.401213 228 217 225
-0.822346 0.352834 0.411644 229 217 225
-0.637990 0.568569 1.199515 179 162 154
-0.617750 0.560742 1.205335 169 159 157
-0.635046 0.557650 1.204438 168 157 156
-0.835815 0.476320 0.643840 222 213 218
-0.836872 0.486038 0.671372 220 212 220
-0.823473 0.623017 0.552266 218 210 219
-0.430439 0.847132 0.813607 218 204 195
-0.429364 0.845991 0.804260 215 202 191
-0.624190 0.830237 0.615211 210 199 193
-0.473029 1.108838 0.392182 132 107 73
-0.481808 1.107447 0.405372 138 112 85
-0.466505 1.105306 0.386002 130 107 82
-0.824139 0.836113 0.791836 201 190 180
-0.462176 0.863982 1.026892 202 191 179
-0.493899 0.866532 1.047957 200 186 172
-0.458322 0.863640 1.038361 204 189 175
-0.375863 1.128653 0.363494 140 116 86
-0.399816 1.128329 0.364987 140 119 85
-0.387127 1.131065 0.379494 140 115 92
-0.366442 1.131627 0.382599 138 117 84
-0.850957 0.509010 0.946051 216 208 215
-0.850426 0.496197 0.927634 216 212 216
-0.014273 0.716470 1.147517 161 150 135
-0.036455 0.707528 1.147520 161 149 132
-0.028519 0.679320 1.147961 164 148 132
-0.019843 0.685953 1.146216 162 149 132
-0.062624 0.630021 1.156870 164 151 138
-0.041150 0.608480 1.146781 166 150 135
-0.059470 0.621191 1.176439 163 151 134
-0.066648 0.600711 1.173265 162 151 135
-0.036364 0.611430 1.172553 161 150 133
-0.047077 0.625809 1.176059 162 151 133
-0.627023 0.825917 0.539086 210 198 189
-0.310509 1.189818 0.446455 136 121 107
-0.850660 0.389503 0.921211 221 212 213
-0.851391 0.396988 0.891489 223 213 216
-0.406325 0.825576 0.495302 218 203 188
-0.427075 0.825973 0.488224 219 205 192
-0.422362 0.827130 0.503273 217 203 191
-0.812218 0.732169 0.434967 208 199 193
-0.826713 0.588331 0.570802 218 212 219
-0.294331 0.838697 0.670307 227 213 202
-0.303937 0.840616 0.698538 227 212 199
-0.278481 0.839617 0.685676 227 213 200
-0.219801 0.820203 0.430484 233 219 201
-0.221318 0.821266 0.416481 232 214 198
-0.203449 0.819828 0.415792 228 212 197
-0.816778 0.749462 0.475323 208 191 185
-0.822405 0.305015 0.407114 229 219 222
-0.823405 0.290401 0.398382 231 218 221
-0.821696 0.308541 0.389813 231 218 223
-0.821421 0.285548 0.385083 230 217 222
-0.435502 0.865543 1.050661 200 188 172
-0.394670 0.820677 0.416630 223 207 195
-0.420432 0.819369 0.423760 224 208 195
-0.409381 0.819932 0.435340 224 209 195
-0.457475 0.823404 0.432738 225 208 198
-0.424350 0.821996 0.413078 220 203 192
-0.856839 0.825312 1.041836 204 196 197
-0.062650 0.836118 0.644528 235 221 207
-0.553994 0.812170 0.306873 222 207 193
-0.089101 0.280297 1.156935 188 176 161
-0.100829 0.295840 1.164712 187 176 158
-0.096290 0.290361 1.160784 184 172 156
-0.094778 0.293593 1.155021 173 161 151
-0.108433 0.286254 1.150323 161 150 140
-0.092093 0.272941 1.151416 186 174 158
-0.099886 0.279105 1.151863 184 171 158
-0.087860 0.310698 1.149021 160 150 136
-0.771475 0.814964 0.427155 205 187 172
-0.827384 0.791482 0.521368 210 198 190
-0.822464 0.769100 0.510836 214 202 207
-0.828756 0.801101 0.533336 209 200 191
-0.822316 0.761539 0.540586 215 206 212
-0.806253 0.095264 0.320866 233 225 231
-0.819924 0.100777 0.335089 189 179 175
-0.815374 0.101519 0.327825 207 195 194
-0.812875 0.086451 0.334736 199 188 187
-0.107844 0.843094 0.757256 234 217 204
-0.098945 0.840218 0.745430 233 219 208
-0.133998 0.845437 0.750131 232 215 202
-0.130231 0.844291 0.735190 234 216 204
-0.090008 0.842121 0.761047 232 217 202
-0.814713 0.422518 0.249796 225 213 209
-0.152985 0.331394 1.139654 163 153 137
-0.130411 0.322689 1.140236 154 142 127
-0.134468 0.339298 1.141259 151 141 127
-0.147409 0.331383 1.139365 155 142 129
-0.150384 0.346815 1.141964 163 150 138
-0.826489 0.162343 0.479312 227 215 220
-0.827807 0.171986 0.499262 228 215 219
-0.828033 0.184954 0.487249 227 216 219
-0.492008 0.507781 1.208782 158 151 144
-0.511842 0.500496 1.210821 164 153 147
-0.845488 0.219870 0.787814 229 218 223
-0.845202 0.200475 0.796642 231 218 225
-0.169121 0.880779 0.433031 217 194 169
-0.153682 0.881156 0.432126 213 192 166
-0.164005 0.876028 0.422053 202 178 153
-0.419418 0.672038 1.203933 174 164 155
-0.455337 0.678116 1.203124 174 165 155
-0.441961 0.657142 1.204133 172 162 152
-0.155511 0.876255 0.420075 200 179 153
-0.163189 0.868177 0.413160 165 147 126
-0.181502 0.877078 0.429876 219 197 172
-0.175914 0.886012 0.437376 190 170 149
-0.426407 0.657002 1.204728 174 164 155
-0.451719 0.636442 1.203296 173 162 155
-0.178295 0.864454 0.411419 163 146 124
-0.056463 0.595119 1.180791 169 157 139
-0.043145 0.612492 1.194627 177 163 150
-0.167714 0.823980 0.471344 232 219 203
-0.193059 0.821143 0.455676 233 217 200
-0.173473 0.822027 0.452126 233 219 203
-0.418204 0.842727 0.750386 217 205 193
-0.436004 0.842628 0.739336 217 204 194
-0.444258 0.844617 0.753457 216 205 193
-0.484602 1.069567 0.418760 133 115 95
-0.481577 1.096336 0.418798 131 116 94
-0.483439 1.108642 0.434738 121 102 82
-0.483913 1.089620 0.424155 106 90 73
-0.476328 1.081760 0.435481 108 92 75
-0.843593 0.648787 0.932836 217 212 219
-0.703291 -0.007306 0.263855 227 218 220
-0.720004 -0.006335 0.262181 227 217 221
-0.690037 -0.018336 0.272577 239 230 232
-0.776390 0.393014 1.195630 174 159 146
-0.772685 0.402390 1.199269 168 157 147
-0.383332 0.857218 0.936537 218 204 193
-0.403997 0.856495 0.936986 216 203 192
-0.413867 0.838942 0.691836 221 207 200
-0.845902 0.401525 0.819586 224 216 218
-0.356132 1.171042 0.440023 150 133 113
-0.355220 1.158869 0.443065 162 144 119
-0.363435 1.159451 0.440314 164 147 128
-0.353873 1.137521 0.443448 166 149 130
-0.354474 1.170333 0.432075 146 127 102
-0.366671 1.162603 0.428873 136 122 105
-0.337528 1.169718 0.442339 156 138 117
-0.343934 1.159074 0.442927 156 137 115
-0.057689 0.699018 1.126204 81 73 65
-0.069625 0.691920 1.133383 81 73 66
-0.039101 0.683211 1.146113 142 129 114
-0.046284 0.674401 1.147787 122 112 99
-0.052593 0.684014 1.146919 127 115 104
-0.050473 0.681251 1.134586 154 138 126
-0.036295 0.700045 1.131912 155 139 126
-0.049845 0.702016 1.132643 155 139 125
-0.748134 0.857754 1.057586 186 175 169
-0.735632 0.805993 0.253836 217 200 184
-0.640552 0.844570 0.818118 205 193 189
-0.835971 0.301250 0.649836 225 213 214
-0.316305 0.689738 1.204805 181 166 157
-0.300556 0.684198 1.204096 179 165 157
-0.290473 0.691159 1.203686 179 168 158
-0.291019 0.707740 1.202968 180 167 157
-0.208613 0.237795 1.148575 143 131 119
-0.217227 0.232520 1.147884 97 89 84
-0.814944 0.501025 0.314323 226 215 220
-0.077798 0.833735 0.659462 237 222 208
-0.810177 0.823422 0.565086 192 180 169
-0.811958 0.823230 0.544969 193 180 166
-0.781326 0.824138 0.565836 200 189 179
-0.188719 0.819308 0.427340 235 218 202
-0.152935 0.399018 1.181392 180 168 154
-0.806991 0.822872 0.531563 200 183 165
-0.788075 0.822415 0.527836 194 178 163
-0.803446 0.821896 0.509715 203 186 171
-0.809471 0.106097 0.295732 240 229 235
-0.813092 0.105454 0.316205 235 227 235
-0.794331 0.088057 0.309823 237 227 235
-0.445954 0.832463 0.575836 216 205 192
-0.204025 0.217188 1.186096 162 150 137
-0.227087 0.208475 1.186763 162 150 137
-0.187898 0.195235 1.189931 214 200 185
-0.199196 0.202608 1.187252 207 192 179
-0.826002 0.475289 0.478347 220 212 220
-0.826130 0.487000 0.497126 222 213 222
-0.825169 0.490175 0.489083 221 214 218
-0.827378 0.460225 0.494975 222 213 220
-0.784768 0.450788 1.197179 175 159 147
-0.786765 0.431091 1.196204 175 160 147
-0.836552 0.564764 0.757098 218 210 218
-0.802887 0.672765 0.255654 218 203 195
-0.803370 0.668822 0.275899 220 203 196
-0.159412 0.839395 0.679240 230 217 205
-0.147026 0.839380 0.689260 231 219 207
-0.458973 0.971795 0.259836 175 154 121
-0.459002 0.997238 0.256461 173 151 123
-0.396820 0.822886 0.412224 212 197 179
-0.064685 0.842563 0.732481 235 219 206
-0.065923 0.843837 0.761511 229 216 202
-0.076085 0.843934 0.753030 224 212 196
-0.089202 0.841900 0.749853 233 218 206
-0.476768 0.825353 0.462149 210 195 183
-0.497001 0.823740 0.453836 214 199 187
-0.380447 0.845220 0.767600 220 205 197
-0.397428 0.844417 0.765836 219 205 194
-0.384901 0.846055 0.786592 217 206 195
-0.082082 0.766992 1.130254 137 125 109
-0.072669 0.777784 1.130878 137 124 111
-0.227220 0.583768 1.207746 162 149 140
-0.068685 0.770909 1.139832 120 107 97
-0.075801 0.789155 1.137738 137 124 109
-0.816144 0.317979 1.191868 171 157 146
-0.819614 0.299557 1.190510 171 155 143
-0.832876 0.294106 1.191453 168 154 141
-0.304182 0.831610 0.575447 223 207 195
-0.312614 0.832961 0.583839 223 209 200
-0.299955 0.834137 0.608306 226 211 201
-0.835416 0.668732 0.804392 214 209 217
-0.836989 0.630867 0.811836 213 209 214
-0.837212 0.646438 0.824336 212 209 214
-0.837495 0.625974 0.824736 212 209 214
-0.834506 0.649328 0.791349 215 209 217
-0.847652 0.216522 0.823023 234 223 227
-0.298065 0.868527 1.057524 204 187 170
-0.823851 0.752215 0.640336 213 210 219
-0.821474 0.740835 0.615836 214 210 220
-0.850300 0.676219 1.043371 201 193 197
-0.042597 0.518814 1.139417 160 147 136
-0.029154 0.525822 1.139705 162 150 135
-0.055896 0.530204 1.138514 163 150 137
-0.043972 0.497362 1.143905 164 149 139
-0.062911 0.516009 1.127845 155 141 133
-0.057309 0.511237 1.137027 164 151 140
-0.056734 0.505213 1.127009 144 133 123
-0.844700 0.403606 0.803086 221 210 211
-0.317434 0.842978 0.727513 224 211 198
-0.041506 0.601555 1.170064 160 150 132
-0.039059 0.581771 1.169270 162 152 134
-0.033016 0.593165 1.146968 166 148 134
-0.053556 0.594941 1.159880 162 153 134
-0.057023 0.580627 1.170487 162 152 136
-0.038073 0.588374 1.153865 162 150 134
-0.046058 0.583770 1.155357 164 150 135
-0.056408 0.583571 1.156568 164 150 138
-0.064043 0.579298 1.160311 164 151 137
-0.068429 0.591535 1.155858 162 149 135
-0.049876 0.576819 1.154403 165 151 136
-0.832521 0.150352 0.618954 229 218 222
-0.185572 0.209362 1.170822 179 174 167
-0.176035 0.200608 1.155611 239 232 224
-0.191961 0.199659 1.156868 224 220 218
-0.188652 0.223299 1.149164 176 164 149
-0.197318 0.202953 1.149020 116 111 108
-0.194411 0.202026 1.176243 209 202 197
-0.204469 0.188597 1.162471 191 190 191
-0.824536 0.643316 0.583836 218 211 219
-0.823795 0.665252 0.600332 217 209 218
-0.824577 0.662111 0.619935 217 209 219
-0.536393 0.858604 1.012251 202 189 178
-0.544561 0.856234 0.990482 202 190 177
-0.816331 0.231199 0.258589 232 223 221
-0.815829 0.243666 0.257336 231 220 223
-0.834735 0.777799 0.783336 216 211 218
-0.840177 0.798129 0.808355 216 211 218
-0.809861 0.678808 0.371836 217 204 202
-0.808105 0.679883 0.352780 218 205 204
-0.113257 0.504475 1.165821 153 142 129
-0.109234 0.518433 1.165972 152 142 129
-0.123880 0.514662 1.176036 182 168 156
-0.117900 0.528206 1.175222 163 149 141
-0.110024 0.508043 1.177242 174 164 149
-0.825793 0.385273 0.484541 221 210 217
-0.825260 0.366423 0.467103 222 213 217
-0.827252 0.358334 0.494268 224 212 217
-0.827652 0.392876 0.503100 223 211 216
-0.276185 1.120429 0.277459 172 145 112
-0.821316 0.696494 0.576669 215 209 218
-0.820583 0.708106 0.587132 215 209 216
-0.820090 0.702901 0.557448 214 209 216
-0.819805 0.736548 0.588405 215 207 219
-0.820051 0.735567 0.576873 214 208 216
0.095526 0.315102 1.186794 189 176 160
0.120923 0.333890 1.185061 187 176 155
0.084304 0.344463 1.184593 185 174 154
0.049875 0.552058 1.172388 162 152 135
0.050148 0.572295 1.173299 163 151 134
0.045534 0.536835 1.177159 162 153 135
0.030284 0.557256 1.173560 162 153 134
-0.813030 0.112269 0.264004 236 226 233
-0.808178 0.711578 0.349788 214 204 196
-0.807323 0.684509 0.337586 216 205 199
-0.806018 0.681859 0.316524 216 204 197
-0.867715 0.494166 1.155758 192 182 183
-0.582687 0.828946 0.583106 213 201 193
-0.461646 0.831668 0.593515 218 206 196
-0.441569 0.832562 0.584394 219 206 198
-0.754324 0.835929 0.726001 203 193 189
-0.762966 0.835709 0.745336 202 192 187
-0.775570 0.835905 0.764425 200 191 184
-0.517405 0.816814 0.351836 221 206 194
-0.737930 0.816134 0.429836 213 196 184
-0.713879 0.816274 0.430836 210 194 186
0.023177 0.648750 1.143871 162 147 129
-0.077077 0.590189 1.173588 170 158 143
-0.077983 0.592919 1.146157 166 150 136
-0.066310 0.607643 1.178072 170 156 141
-0.072817 0.609757 1.176031 164 152 135
-0.089243 0.598900 1.175807 174 161 148
-0.095142 0.586593 1.153729 167 150 137
-0.087139 0.596237 1.178503 166 154 140
-0.229266 0.832149 0.611095 233 217 206
-0.221191 0.833377 0.625289 233 220 206
-0.205178 0.835208 0.625801 232 219 207
-0.206758 0.833742 0.608761 234 219 206
-0.184135 0.279817 1.145467 135 126 113
-0.187493 0.287878 1.143161 135 124 110
-0.187177 0.265683 1.145874 136 126 115
-0.186240 0.281551 1.137920 135 124 110
-0.193785 0.295529 1.140900 134 123 110
-0.179106 0.274072 1.137028 90 83 78
-0.181997 0.279832 1.139057 88 83 78
-0.185519 0.266638 1.136319 88 83 78
-0.168419 0.273811 1.147754 159 149 134
-0.828961 0.523440 0.545219 219 214 220
-0.827476 0.488737 0.538057 220 214 221
-0.227728 0.853277 0.861255 229 216 201
-0.244314 0.854058 0.879652 229 213 203
-0.257394 1.158113 0.433049 149 129 106
-0.230845 1.154861 0.417362 135 121 98
-0.249022 1.167182 0.435880 153 138 113
-0.239979 1.148901 0.413411 134 120 100
-0.242769 1.160830 0.425123 140 123 104
-0.249941 1.174063 0.443205 147 129 109
-0.225487 1.161515 0.428512 150 132 109
-0.263567 1.168095 0.440492 146 130 109
-0.609090 0.849748 0.900836 211 199 187
-0.820757 0.169243 0.343875 232 222 227
-0.832570 0.430031 0.615201 223 212 216
-0.834576 0.409561 0.636144 220 213 214
-0.816730 0.574660 0.392623 221 213 219
-0.858851 0.592564 1.129054 190 183 185
-0.497046 0.832622 0.606520 214 204 195
-0.538026 0.833865 0.619471 216 204 197
-0.310790 0.566683 1.209166 165 157 147
-0.329156 0.578164 1.209284 175 163 153
-0.297848 0.573828 1.211281 157 148 139
-0.806407 0.613444 0.280964 220 207 203
-0.805446 0.603369 0.254836 221 208 202
-0.849012 0.849594 0.997273 197 185 178
-0.847582 0.845702 0.955086 199 187 179
-0.832485 0.852123 0.976086 201 187 179
-0.853718 0.830253 0.967847 212 206 208
-0.852758 0.842157 0.979441 211 205 205
-0.211602 0.861287 0.937824 225 209 196
-0.213072 0.864088 0.963022 221 207 191
-0.243738 0.857140 0.932874 226 211 197
-0.222980 0.858095 0.928924 227 210 199
-0.247832 0.862342 0.962812 222 207 194
-0.832563 0.130597 0.588125 208 196 204
-0.834092 0.129118 0.602305 228 217 224
-0.352705 0.825089 0.457495 225 210 194
-0.337619 0.823320 0.460668 224 207 194
-0.873048 0.409119 1.169896 191 183 178
-0.456324 1.135293 0.395504 127 105 82
-0.442503 1.139053 0.400409 131 109 83
-0.450769 1.146270 0.408142 123 108 87
-0.842284 0.493360 0.797599 218 210 212
-0.842442 0.509753 0.800326 218 211 215
-0.843790 0.498156 0.814825 221 211 216
-0.840300 0.537024 0.803122 218 211 215
-0.843579 0.513558 0.819332 217 211 214
-0.821491 0.659569 0.503788 213 208 219
-0.820816 0.641989 0.497142 216 210 219
-0.849567 0.455923 0.923413 218 210 213
-0.268393 1.158330 0.429759 149 131 107
-0.258040 1.150622 0.410562 127 113 91
-0.252193 1.156663 0.422708 135 120 96
-0.274284 1.158866 0.419759 135 119 100
-0.280547 1.166689 0.440561 162 144 122
-0.272904 1.158398 0.444052 155 136 122
-0.502464 0.830744 0.588579 214 204 197
-0.379406 0.670678 1.206519 177 166 151
-0.346453 0.656884 1.205418 178 166 155
-0.360982 0.676654 1.205524 178 167 154
-0.786103 0.851455 0.956364 197 187 179
-0.623726 0.853031 0.969579 208 193 182
-0.819414 0.145161 0.310461 233 223 231
-0.819690 0.116092 0.324316 234 225 231
-0.821408 0.115413 0.338920 233 225 229
-0.315498 0.850282 0.842828 223 208 196
-0.299547 0.850475 0.832277 225 209 197
-0.298937 0.851584 0.851836 224 210 199
-0.820887 0.479614 0.395780 227 218 222
-0.821485 0.473720 0.406961 226 217 225
-0.484649 0.840433 0.725151 210 198 189
-0.480816 0.842151 0.749336 195 184 175
-0.832415 0.277987 1.190464 165 153 141
-0.854726 0.250649 1.191642 163 149 138
-0.846042 0.262524 1.190867 167 153 142
-0.283827 0.849323 0.817697 225 209 196
-0.285235 0.847674 0.788755 223 209 198
-0.304804 0.848121 0.801008 222 209 198
-0.287038 0.849175 0.800545 223 209 197
-0.302313 0.848061 0.815996 225 210 196
-0.595876 0.829571 0.591101 210 200 193
-0.617420 0.827101 0.585454 208 198 191
-0.594163 0.831788 0.621586 213 202 195
-0.010172 0.394106 1.180126 176 164 146
-0.857453 0.505430 1.052099 203 194 197
-0.853349 0.250428 1.012845 212 204 204
-0.706314 0.462193 1.210156 161 151 145
-0.711396 0.438264 1.209887 157 146 139
-0.719475 0.445879 1.209263 154 143 136
-0.828542 0.736201 0.755836 215 209 220
-0.228287 1.162613 0.437889 151 134 106
-0.212134 1.165558 0.430987 151 131 111
-0.205454 1.176858 0.438192 154 135 113
-0.210624 1.165156 0.438003 155 137 116
-0.200340 1.173488 0.434572 153 134 111
-0.210534 1.179763 0.443430 164 146 124
-0.203553 1.183137 0.439784 148 131 113
-0.861899 0.428590 1.130695 197 191 188
-0.070678 0.550342 1.160647 164 152 136
-0.040856 0.535471 1.150538 164 149 133
-0.058079 0.536836 1.174392 163 153 138
-0.067000 0.547269 1.174367 163 153 138
-0.070311 0.557872 1.162572 164 152 135
-0.059211 0.539862 1.159255 164 151 140
-0.042285 0.548861 1.153637 164 152 135
-0.056150 0.551856 1.160574 165 153 136
-0.052163 0.563823 1.159249 165 151 138
-0.047417 0.539556 1.156313 165 151 138
-0.423067 0.855870 0.912133 218 206 194
-0.831570 0.807113 0.611922 216 208 211
-0.830345 0.814245 0.615850 219 210 212
-0.831574 0.798620 0.614386 221 214 221
-0.138620 0.825988 0.487023 230 217 198
-0.131724 0.825720 0.475004 230 218 199
-0.133777 0.828622 0.503357 236 223 204
-0.141814 0.570143 1.195063 180 169 155
-0.137547 0.562167 1.187382 181 170 155
-0.133298 0.579365 1.194468 172 160 146
-0.821842 0.332002 0.386189 228 218 221
-0.820292 0.342848 0.353461 228 218 217
-0.212485 0.869838 1.051836 213 196 178
-0.197876 0.869290 1.047139 212 195 178
-0.189825 0.869087 1.035762 215 199 183
-0.665552 0.845122 0.846086 204 192 185
-0.212379 1.121735 0.291221 165 145 113
-0.207113 1.123557 0.306233 156 134 104
-0.828792 0.693401 0.718086 215 211 220
-0.199797 1.128752 0.367968 148 123 97
-0.818674 0.437022 0.315914 224 213 217
-0.817683 0.442454 0.299559 227 216 219
-0.059588 0.529000 1.160033 164 151 138
-0.044984 0.526183 1.153620 166 151 138
-0.037521 0.511137 1.174641 163 153 139
-0.048579 0.528866 1.174889 163 153 139
-0.051701 0.504828 1.173078 163 154 139
-0.056180 0.517269 1.171417 162 153 138
-0.068214 0.497654 1.172601 162 154 139
-0.034848 0.518012 1.147217 165 150 135
-0.053426 0.507768 1.152374 166 152 139
-0.041805 0.505165 1.146564 166 153 141
-0.052879 0.493876 1.150953 166 152 142
-0.066724 0.508870 1.159996 167 154 137
-0.066470 0.517452 1.159819 167 154 139
-0.058007 0.518065 1.155164 167 154 139
-0.784906 0.820507 0.492586 191 175 161
-0.329386 0.841783 0.727850 223 212 200
-0.252037 0.850348 0.838836 227 213 198
-0.267981 0.854203 0.867458 226 209 198
-0.248425 0.852899 0.862434 226 213 198
-0.245067 1.126959 0.349961 143 122 94
-0.210898 1.126183 0.342336 145 122 94
-0.817786 0.417480 0.340846 226 216 217
-0.477882 0.828707 0.523836 194 183 171
-0.462773 0.838074 0.670586 218 205 197
-0.445546 0.839075 0.681747 217 205 196
-0.654572 0.863088 1.089537 187 174 164
-0.149067 0.428912 1.136297 128 117 108
-0.155092 0.439189 1.134741 127 116 107
-0.156650 0.400719 1.135981 129 116 107
-0.166110 0.438524 1.136404 127 117 107
-0.172276 0.427722 1.137143 127 117 107
-0.670196 0.840751 0.783836 204 190 188
-0.703442 0.838790 0.777711 205 191 189
-0.138228 0.411260 1.136367 129 116 110
-0.187043 0.845932 0.767637 229 214 201
-0.189303 0.850669 0.799575 229 214 198
-0.831126 0.299739 0.563586 224 213 216
-0.831059 0.287906 0.562567 225 213 217
0.097722 0.468958 1.180743 166 154 141
-0.819707 0.481580 0.374903 224 216 222
-0.818541 0.485466 0.362482 225 215 221
-0.818361 0.468957 0.343966 226 215 222
-0.774631 0.831570 0.684836 199 190 182
-0.802121 0.831550 0.690025 206 194 185
-0.690744 0.853696 0.938807 203 193 188
-0.716192 0.853159 0.947443 203 192 186
-0.545390 0.842880 0.781609 212 198 190
-0.366534 1.124644 0.326586 148 122 94
-0.350664 1.125039 0.339836 147 125 98
-0.469632 0.859229 0.965836 210 196 187
-0.439832 0.858606 0.977684 208 195 180
-0.623926 0.445195 1.206629 149 139 129
-0.633297 0.465303 1.211040 158 149 139
-0.609621 0.460173 1.211765 149 139 130
-0.543768 0.860106 1.026368 197 186 171
-0.525078 0.863740 1.045208 203 191 182
-0.514230 0.839750 0.748184 212 202 191
-0.546885 0.840952 0.755836 212 200 190
-0.730768 0.828820 0.612771 205 196 191
-0.769459 0.829381 0.633836 204 194 192
-0.740607 0.828032 0.603040 206 197 194
-0.731086 0.828607 0.623836 205 196 190
-0.768433 0.828086 0.622489 205 194 192
-0.393965 0.819692 0.428691 226 209 197
-0.381104 0.821093 0.419839 227 208 195
-0.366545 0.823384 0.444976 227 210 194
-0.249844 0.862421 0.979865 217 202 187
-0.264491 0.865042 1.012656 215 199 184
-0.292367 0.866418 1.002265 215 199 185
-0.268352 0.867303 1.027601 210 196 180
-0.468750 0.548644 1.209718 173 162 155
-0.474733 0.556724 1.209209 170 161 154
-0.494867 0.531529 1.211498 172 161 155
-0.490740 0.559435 1.205644 173 159 156
-0.481247 0.529019 1.210923 169 157 151
-0.310585 0.866295 0.407974 185 165 143
-0.316964 0.876898 0.431808 220 200 177
-0.710198 0.842602 0.827336 202 192 185
-0.517503 0.845083 0.815813 212 199 191
-0.547105 0.843176 0.806920 211 199 192
-0.540098 0.844432 0.814836 211 198 192
-0.513838 0.843787 0.792163 211 201 191
-0.646828 0.849527 0.879586 206 195 189
-0.677162 0.849553 0.880502 204 191 188
-0.124192 0.370004 1.169706 171 162 145
-0.125258 0.381322 1.173791 172 163 146
-0.126075 0.384885 1.167414 169 155 144
-0.126011 0.369143 1.176491 180 168 151
-0.128790 0.373451 1.167364 171 160 145
-0.136603 0.378885 1.170840 144 134 124
-0.116039 0.371741 1.167487 177 165 149
-0.113603 0.377109 1.167595 176 164 148
-0.112145 0.377961 1.173089 174 164 152
-0.117721 0.367074 1.175852 175 164 148
-0.122770 0.391540 1.176262 176 165 153
-0.076201 0.819620 0.419825 231 218 194
-0.062560 0.819969 0.442443 234 222 195
-0.087788 0.823133 0.415037 234 219 196
-0.086423 0.820822 0.434000 229 216 192
-0.067774 0.822647 0.416053 232 217 193
-0.056768 0.818413 0.424798 232 218 194
-0.822165 0.580688 0.482336 219 212 219
-0.824327 0.578146 0.506147 217 213 221
-0.206292 0.838713 0.704974 230 215 203
-0.833023 0.227556 0.601352 227 212 214
-0.833171 0.226052 0.623822 225 213 214
-0.842093 0.800722 0.825086 213 209 216
-0.453222 0.842918 0.731098 216 203 191
-0.458002 0.838669 0.691034 220 204 193
-0.683431 0.846237 0.855836 202 192 186
-0.651377 0.844717 0.831336 204 193 186
-0.067827 0.852397 0.840689 235 219 206
-0.071958 0.854165 0.848833 235 218 206
-0.093149 0.850119 0.835866 233 219 208
-0.097138 0.852199 0.855211 236 220 208
-0.324217 0.872825 1.120116 201 185 168
-0.850285 0.172201 0.872849 234 222 228
-0.718630 0.815862 0.390224 212 197 187
-0.217802 0.867679 0.413088 185 163 139
-0.142024 0.855231 0.861512 221 204 189
-0.104243 0.850387 0.844152 233 217 206
-0.151030 0.220802 1.188065 214 201 183
-0.178886 0.202469 1.188135 222 208 193
-0.819933 0.822309 0.591744 208 196 191
-0.824168 0.820505 0.597836 207 196 189
-0.827336 0.817942 0.602156 207 197 192
-0.829895 0.803431 0.574586 219 212 221
-0.844698 0.690577 0.960586 215 210 217
-0.844075 0.715449 0.959836 214 208 213
-0.842917 0.706435 0.930836 214 209 217
-0.844200 0.658055 0.951721 215 209 222
-0.829272 0.388249 0.519297 222 212 219
-0.829243 0.367021 0.532975 224 213 219
-0.765435 0.477512 1.197969 178 161 150
-0.819529 0.309168 0.335608 230 218 222
-0.820214 0.308277 0.352507 230 219 224
-0.333792 0.635842 1.206852 178 167 157
-0.349503 0.631915 1.208263 181 165 158
-0.233501 0.862555 0.973753 222 204 191
-0.214883 0.864947 0.981684 221 204 188
-0.220666 0.825330 0.552661 231 215 202
-0.208522 0.825263 0.547579 223 209 197
-0.206354 0.826266 0.561930 213 201 186
-0.219016 0.825710 0.568349 220 206 191
-0.190649 0.830965 0.569860 228 216 201
-0.390911 0.826730 0.407878 195 179 164
-0.399599 0.834200 0.403973 196 180 165
-0.380114 0.838160 0.399724 187 169 149
-0.369592 0.826417 0.403397 195 177 161
-0.478414 0.809426 0.261250 226 208 200
-0.489473 0.809860 0.289526 225 208 197
-0.475097 0.811194 0.272980 217 202 185
-0.237874 0.823374 0.456364 231 212 198
-0.263344 0.823737 0.456834 230 211 200
-0.574226 0.830337 0.590836 214 202 195
-0.716853 0.043996 0.269213 237 227 231
-0.721614 0.051452 0.278050 236 226 230
-0.738850 0.061353 0.278616 239 228 236
-0.734474 0.050066 0.264718 236 226 233
-0.813958 0.648074 0.399836 218 209 210
-0.547744 0.849449 0.887545 210 196 188
-0.580129 0.849978 0.888359 208 196 187
-0.830068 0.224656 0.546637 226 213 218
-0.831287 0.226482 0.560993 226 214 217
-0.847505 0.285370 0.823535 230 218 221
-0.084350 0.262835 1.155626 195 184 166
-0.091383 0.277492 1.161457 189 176 160
-0.086343 0.261769 1.151576 180 170 152
-0.335111 1.173540 0.435626 155 134 111
-0.098159 0.345293 1.180578 179 168 152
-0.107911 0.620009 1.134333 124 112 102
-0.749553 0.829821 0.644836 205 195 190
-0.739727 0.830925 0.671836 203 192 189
-0.108860 0.829855 0.531052 231 216 200
-0.104088 0.828971 0.519919 212 199 182
-0.845653 0.578112 0.889667 221 217 225
-0.845641 0.572932 0.912893 223 213 222
-0.825902 0.509547 0.513202 221 213 223
-0.191798 0.317490 1.189052 176 164 149
-0.201574 0.301133 1.191773 97 91 81
-0.211255 0.324759 1.188531 95 89 81
-0.211856 0.308740 1.191656 98 90 82
-0.211899 0.294138 1.192458 191 177 164
-0.094457 0.423551 1.160119 168 158 144
-0.076039 0.417758 1.155959 173 161 146
-0.083527 0.429378 1.158493 171 157 143
-0.089449 0.411700 1.158187 172 160 145
-0.076799 0.443606 1.170409 170 159 145
-0.076448 0.430043 1.175650 170 158 144
-0.086085 0.420683 1.166602 170 159 145
-0.085250 0.431828 1.170527 170 159 146
-0.077294 0.410908 1.180527 170 160 143
-0.092341 0.427980 1.177680 170 159 144
-0.066476 0.425476 1.178572 170 159 145
-0.072100 0.430011 1.153277 172 159 146
-0.091428 0.425397 1.171991 170 160 145
-0.092026 0.446915 1.172156 172 160 147
-0.096267 0.433354 1.170977 170 159 146
-0.086486 0.416813 1.171459 171 159 143
-0.089641 0.405787 1.173949 172 159 144
-0.841521 0.287072 0.715775 223 211 210
-0.441084 1.118954 0.279591 160 137 99
-0.449586 1.112918 0.272734 153 127 100
-0.411365 1.121361 0.284962 160 132 101
-0.860617 0.570055 1.130008 197 189 192
-0.863006 0.552008 1.138638 196 187 188
-0.497810 0.870137 1.110961 191 177 163
-0.502800 0.867760 1.082067 184 170 159
-0.834382 0.528163 0.699586 220 213 220
-0.836047 0.522477 0.724476 218 211 218
-0.823101 0.160138 0.360355 233 222 227
-0.823228 0.626964 0.543332 220 210 219
-0.822099 0.643984 0.551910 218 209 220
-0.823673 0.655066 0.572633 216 209 218
-0.818361 0.152787 0.289189 233 223 231
-0.834884 0.449312 0.629062 220 212 214
-0.833324 0.480423 0.612573 219 214 219
-0.834967 0.472922 0.627336 221 213 216
-0.537796 0.669430 1.199041 183 164 148
-0.449395 0.907354 0.395631 140 122 97
-0.459126 0.888601 0.407564 169 146 118
-0.468344 0.912259 0.403743 149 131 104
-0.445965 0.894502 0.394854 138 119 95
-0.451036 0.904755 0.399020 157 137 111
-0.466307 0.903429 0.407821 141 128 107
-0.441625 0.884322 0.406829 182 164 139
-0.449257 1.117428 0.328461 138 115 91
-0.429173 1.122671 0.335915 137 112 88
-0.439142 1.119825 0.315299 141 117 89
-0.452275 1.114264 0.319836 138 115 86
-0.865758 0.349026 1.154526 199 191 189
-0.874567 0.360513 1.174488 195 187 181
-0.866603 0.365434 1.156283 194 186 183
-0.878699 0.335619 1.174403 196 186 188
-0.466712 1.037563 0.381709 136 114 89
-0.479934 1.045421 0.400998 132 113 86
-0.480283 1.015130 0.404011 134 114 90
-0.472813 1.040154 0.391944 129 108 84
-0.479133 1.024427 0.400297 134 114 90
-0.769577 0.837315 0.779662 200 190 184
-0.789688 0.836990 0.770985 199 188 183
-0.768016 0.837472 0.797975 200 192 188
-0.117577 0.854113 0.406653 166 144 127
-0.133819 0.846000 0.405290 168 146 129
-0.140535 0.860696 0.411197 167 147 129
-0.682350 0.849602 0.901549 205 193 187
-0.660326 0.851277 0.901485 206 194 185
-0.689646 0.850314 0.907274 206 195 190
-0.826428 0.326433 0.487336 222 212 216
-0.151743 0.874822 1.092733 209 191 175
-0.117426 0.871996 1.107996 208 189 175
-0.818254 0.121607 0.255892 236 224 229
-0.816080 0.117493 0.278514 236 225 230
-0.818495 0.136651 0.276142 235 224 230
-0.816376 0.121757 0.264873 234 224 230
-0.813608 0.111354 0.288035 236 227 233
-0.822032 0.112840 0.254464 234 225 232
-0.251304 1.136781 0.397233 143 120 97
-0.221131 1.130232 0.386874 144 120 99
-0.236266 1.128616 0.379071 144 122 94
-0.221987 1.137128 0.399703 140 118 97
-0.239374 1.132803 0.391575 144 119 100
-0.025248 0.530794 1.143864 162 149 132
-0.029940 0.515827 1.143426 162 149 132
-0.409649 1.145198 0.404746 123 109 91
-0.414337 1.149049 0.414261 123 108 82
-0.433618 1.150354 0.408651 123 108 83
-0.426551 1.141152 0.399442 137 112 84
-0.834827 0.575279 0.712836 220 210 220
-0.834909 0.555783 0.717336 220 211 220
-0.829165 0.339718 0.533586 222 212 218
-0.828571 0.338198 0.511526 224 213 216
-0.828137 0.326142 0.525836 224 213 215
-0.825704 0.299812 0.452787 223 213 217
-0.825881 0.283183 0.462961 223 211 217
-0.823517 0.307582 0.428635 226 213 220
-0.833213 0.828979 0.742563 203 192 186
-0.838357 0.803168 0.748900 217 212 220
-0.838352 0.822166 0.747788 202 192 189
-0.839984 0.816778 0.761349 219 212 217
-0.835782 0.821562 0.717652 203 194 193
-0.335949 0.832463 0.599648 226 211 199
-0.859622 0.433255 1.086493 199 189 190
-0.861011 0.454046 1.104215 199 190 191
-0.121622 0.413462 1.138273 159 146 136
-0.109609 0.430814 1.137811 147 136 128
-0.093134 0.422313 1.138922 148 136 128
-0.103479 0.411186 1.139514 160 148 137
-0.842070 0.745534 0.968632 209 205 211
-0.841144 0.756567 0.943228 212 208 215
-0.809361 0.733808 0.355563 213 200 188
-0.811054 0.746069 0.356523 212 196 182
-0.199125 0.845107 0.755683 230 214 203
-0.152288 0.841811 0.726380 229 215 202
-0.205848 0.842461 0.732123 229 214 202
-0.261084 0.595161 1.206992 178 168 154
-0.266298 0.580884 1.207579 178 163 149
-0.268529 0.605655 1.207112 179 168 159
-0.821523 0.651467 0.522013 216 210 218
-0.149616 0.453582 1.135918 127 115 105
-0.115611 0.437522 1.139229 149 138 130
-0.135215 0.428224 1.135863 159 147 138
-0.127404 0.444208 1.136735 127 117 109
-0.109700 0.451452 1.136386 127 117 105
-0.118274 0.451141 1.140582 149 138 125
-0.119039 0.461448 1.133675 127 117 105
-0.809134 0.798755 0.283099 216 198 176
-0.812150 0.790080 0.280201 216 199 178
-0.814974 0.791647 0.299506 217 200 176
-0.212355 0.643693 1.210303 182 168 158
-0.233545 0.649453 1.210476 182 168 160
-0.209791 0.660349 1.210219 181 167 161
-0.219936 0.675044 1.208188 182 167 161
-0.414035 0.875503 0.411743 189 184 171
-0.405953 0.873737 0.412755 206 184 164
-0.417161 0.882130 0.423133 185 164 155
-0.563735 0.814342 0.331793 221 207 192
-0.085529 0.878094 0.426908 147 123 102
-0.094936 0.880273 0.426646 200 177 153
-0.091880 0.874026 0.420462 130 104 80
-0.069544 0.871043 0.419061 132 107 81
-0.671429 0.853240 0.943745 203 193 186
-0.690247 0.853037 0.969848 204 191 186
-0.662465 0.852304 0.981491 202 191 186
-0.673481 0.853137 0.972636 202 190 185
-0.277514 0.823298 0.461817 229 212 198
-0.263130 0.824474 0.469336 223 209 194
-0.295105 0.824159 0.467740 230 211 198
-0.235357 0.830437 0.582372 225 212 199
-0.221883 0.830215 0.588124 231 218 205
-0.828044 0.347449 1.194711 171 153 139
-0.861313 0.365875 1.115880 198 191 188
-0.860372 0.393917 1.139050 201 189 189
-0.404836 0.843117 0.745336 218 205 195
-0.667871 0.840473 0.765325 206 195 189
-0.645573 0.841412 0.785836 205 194 188
-0.325935 0.827467 0.521104 223 207 192
-0.308534 0.829327 0.538285 223 207 192
-0.313496 0.825743 0.503842 225 205 193
-0.152674 0.858423 0.903539 235 218 205
-0.148810 0.857420 0.889794 243 227 211
-0.025221 0.723360 1.129889 153 137 126
-0.033276 0.725542 1.128168 144 129 119
-0.533969 0.597015 1.205222 175 158 155
-0.526148 0.576148 1.205275 177 161 158
-0.854945 0.845197 1.000250 195 184 178
-0.856990 0.837334 1.003942 207 197 198
-0.838684 0.852935 0.997336 193 180 171
-0.854565 0.845522 1.023344 195 183 177
-0.801952 0.530863 0.251900 219 210 207
-0.807435 0.542335 0.277419 222 212 211
-0.814100 0.573374 0.370349 222 214 214
-0.813010 0.566092 0.345711 222 211 216
