ply
format ascii 1.0
element vertex 1258
property float x
property float y
property float z
property uchar red
property uchar green
property uchar blue
end_header
0.386266 -0.699063 0.093035 255 0 255
0.324989 -0.739200 0.436118 255 0 255
0.301712 -0.685179 0.115565 255 0 255
0.372175 -0.680733 0.403035 255 0 255
0.421906 -0.639163 0.260090 255 0 255
0.373461 -0.655447 0.263277 255 0 255
0.341914 -0.669188 0.352062 255 0 255
0.400594 -0.662472 0.013035 255 0 255
0.423388 -0.682418 0.433035 255 0 255
0.305439 -0.710509 0.157035 255 0 255
0.412915 -0.729554 0.397035 255 0 255
0.360620 -0.701791 0.267035 255 0 255
0.427140 -0.595294 0.450114 255 0 255
0.388668 -0.728199 0.118167 255 0 255
0.405555 -0.706463 0.433035 255 0 255
0.419949 -0.638747 0.108122 255 0 255
0.395150 -0.678460 0.242099 255 0 255
0.308706 -0.690756 0.464090 255 0 255
0.393516 -0.618817 0.351879 255 0 255
0.375771 -0.731156 0.297035 255 0 255
0.421991 -0.648384 0.325035 255 0 255
0.396948 -0.612289 0.217035 255 0 255
0.409219 -0.732568 0.435035 255 0 255
0.392101 -0.692806 0.279035 255 0 255
0.363488 -0.711985 0.289035 255 0 255
0.371840 -0.643835 0.279035 255 0 255
0.359628 -0.658642 0.389035 255 0 255
0.451958 -0.651685 0.338133 255 0 255
0.310812 -0.723918 0.153035 255 0 255
0.352176 -0.712264 0.303035 255 0 255
0.381117 -0.638673 0.431395 255 0 255
0.368182 -0.699522 0.363035 255 0 255
0.329793 -0.649259 0.355035 255 0 255
0.427113 -0.662763 0.178098 255 0 255
0.428268 -0.718215 0.351035 255 0 255
0.334251 -0.700274 0.173035 255 0 255
0.326473 -0.693741 0.077035 255 0 255
0.278651 -0.678234 0.103028 255 0 255
0.347327 -0.711066 0.189035 255 0 255
0.420535 -0.655230 0.462042 255 0 255
0.329061 -0.717574 0.343035 255 0 255
0.361062 -0.675303 0.066038 255 0 255
0.430121 -0.595927 0.353035 255 0 255
0.369754 -0.653651 0.273035 255 0 255
0.335016 -0.720885 0.170072 255 0 255
0.340333 -0.686247 0.005035 255 0 255
0.397353 -0.746403 0.187035 255 0 255
0.374878 -0.704821 0.165035 255 0 255
0.355365 -0.644387 0.365035 255 0 255
0.304718 -0.767226 0.263035 255 0 255
0.403949 -0.762118 0.308218 255 0 255
0.355241 -0.702692 0.351058 255 0 255
0.461664 -0.692598 0.114345 255 0 255
0.299756 -0.684763 0.220892 255 0 255
0.399894 -0.675379 -0.009481 255 0 255
0.456458 -0.668999 0.266275 255 0 255
0.414529 -0.723473 0.375035 255 0 255
0.453828 -0.594795 0.353035 255 0 255
0.398838 -0.685378 0.017035 255 0 255
0.380579 -0.640603 0.465035 255 0 255
0.457705 -0.663131 0.260081 255 0 255
0.406891 -0.700184 0.287035 255 0 255
0.428067 -0.648653 0.260086 255 0 255
0.465518 -0.711818 0.417035 255 0 255
0.335381 -0.704605 0.049035 255 0 255
0.451250 -0.645401 0.343850 255 0 255
0.456259 -0.718029 0.414050 255 0 255
0.338295 -0.676599 0.463498 255 0 255
0.366967 -0.695616 0.195035 255 0 255
0.371042 -0.628353 0.467375 255 0 255
0.363655 -0.706525 0.153035 255 0 255
0.275155 -0.675446 0.216054 255 0 255
0.398240 -0.668894 0.257035 255 0 255
0.378298 -0.700030 0.177035 255 0 255
0.409571 -0.661078 0.375035 255 0 255
0.318849 -0.777704 0.419035 255 0 255
0.432149 -0.667922 0.343616 255 0 255
0.448292 -0.630460 0.178052 255 0 255
0.367933 -0.691077 0.382058 255 0 255
0.414268 -0.684717 0.379035 255 0 255
0.398525 -0.691445 0.468543 255 0 255
0.359118 -0.707604 0.195035 255 0 255
0.405159 -0.684676 0.053035 255 0 255
0.416225 -0.752459 0.438040 255 0 255
0.363898 -0.700443 0.074309 255 0 255
0.362075 -0.714368 0.007035 255 0 255
0.391243 -0.663316 0.155035 255 0 255
0.475027 -0.709750 0.409035 255 0 255
0.324430 -0.655250 0.266279 255 0 255
0.413616 -0.610821 0.440132 255 0 255
0.396076 -0.731818 0.181131 255 0 255
0.302619 -0.642435 0.265846 255 0 255
0.330177 -0.666693 0.359725 255 0 255
0.381872 -0.673593 0.180035 255 0 255
0.303498 -0.667157 0.266249 255 0 255
0.318146 -0.655957 0.116206 255 0 255
0.420407 -0.703929 0.351035 255 0 255
0.391333 -0.734900 0.187179 255 0 255
0.346534 -0.685930 0.217035 255 0 255
0.414818 -0.576317 0.450057 255 0 255
0.357830 -0.748224 0.245868 255 0 255
0.335162 -0.691337 0.349035 255 0 255
0.488877 -0.592058 0.349035 255 0 255
0.359411 -0.687221 0.147035 255 0 255
0.415538 -0.649880 0.117035 255 0 255
0.419848 -0.629602 0.263035 255 0 255
0.292223 -0.691342 0.112057 255 0 255
0.408381 -0.654691 0.435741 255 0 255
0.310785 -0.680974 0.214040 255 0 255
0.416582 -0.731548 0.415035 255 0 255
0.374361 -0.757029 0.127035 255 0 255
0.394054 -0.688451 -0.004965 255 0 255
0.363146 -0.713601 0.049035 255 0 255
0.343134 -0.730788 0.436232 255 0 255
0.386126 -0.676542 0.129035 255 0 255
0.361033 -0.742772 0.180048 255 0 255
0.266067 -0.665334 0.217035 255 0 255
0.363056 -0.656300 0.171035 255 0 255
0.349248 -0.711642 0.344126 255 0 255
0.442764 -0.666089 0.260037 255 0 255
0.291883 -0.654464 0.434209 255 0 255
0.323472 -0.738878 0.363035 255 0 255
0.398277 -0.650499 0.315035 255 0 255
0.369836 -0.701363 0.113035 255 0 255
0.369777 -0.630129 0.457035 255 0 255
0.385472 -0.705028 0.251035 255 0 255
0.335562 -0.718956 0.445035 255 0 255
0.331378 -0.632190 0.468868 255 0 255
0.374566 -0.679111 0.097035 255 0 255
0.393837 -0.729298 0.329035 255 0 255
0.410324 -0.695997 0.057035 255 0 255
0.353265 -0.606172 0.464165 255 0 255
0.378154 -0.633372 0.437035 255 0 255
0.278065 -0.661752 0.094124 255 0 255
0.418607 -0.587346 0.455373 255 0 255
0.466716 -0.683449 0.405035 255 0 255
0.329268 -0.725796 0.337035 255 0 255
0.368027 -0.748348 0.240062 255 0 255
0.314524 -0.711476 0.157035 255 0 255
0.426572 -0.679004 0.417035 255 0 255
0.402224 -0.679964 0.183035 255 0 255
0.358369 -0.736072 0.340194 255 0 255
0.346802 -0.752015 0.334162 255 0 255
0.422170 -0.714874 0.276074 255 0 255
0.450002 -0.651269 0.183636 255 0 255
0.347837 -0.678627 0.203035 255 0 255
0.363486 -0.706489 0.351035 255 0 255
0.399848 -0.646744 0.464325 255 0 255
0.379043 -0.648427 0.371035 255 0 255
0.460171 -0.718862 0.339531 255 0 255
0.321896 -0.660845 0.401035 255 0 255
0.343983 -0.673717 0.291035 255 0 255
0.437849 -0.650732 0.119139 255 0 255
0.364974 -0.696582 0.221035 255 0 255
0.447638 -0.705974 0.337035 255 0 255
0.365952 -0.647717 0.181035 255 0 255
0.390341 -0.638588 0.349035 255 0 255
0.400600 -0.667351 0.339035 255 0 255
0.468084 -0.685784 0.111035 255 0 255
0.416547 -0.693232 0.342087 255 0 255
0.361563 -0.711421 0.027035 255 0 255
0.379936 -0.695673 0.081035 255 0 255
0.431195 -0.682032 0.237548 255 0 255
0.426546 -0.742384 0.353654 255 0 255
0.430869 -0.625855 0.341035 255 0 255
0.353236 -0.673640 0.073179 255 0 255
0.358076 -0.727830 0.118110 255 0 255
0.354089 -0.694268 0.073035 255 0 255
0.407133 -0.713722 0.321035 255 0 255
0.318365 -0.764373 0.267035 255 0 255
0.345057 -0.723018 0.075035 255 0 255
0.421386 -0.747422 0.442770 255 0 255
0.401237 -0.726782 0.316077 255 0 255
0.391546 -0.673604 0.297035 255 0 255
0.431129 -0.557292 0.460035 255 0 255
0.361326 -0.751013 0.344117 255 0 255
0.422908 -0.653690 0.266853 255 0 255
0.429202 -0.706145 0.341035 255 0 255
0.399476 -0.615993 0.109035 255 0 255
0.280435 -0.662255 0.435035 255 0 255
0.363396 -0.693181 0.231035 255 0 255
0.396076 -0.645246 0.401035 255 0 255
0.334292 -0.666569 0.021035 255 0 255
0.382921 -0.716753 0.025798 255 0 255
0.362137 -0.626460 0.409035 255 0 255
0.405620 -0.662282 0.261035 255 0 255
0.383044 -0.658457 0.287035 255 0 255
0.355901 -0.670721 0.189035 255 0 255
0.359010 -0.617616 0.118292 255 0 255
0.403732 -0.715044 0.441977 255 0 255
0.392703 -0.718833 0.122665 255 0 255
0.395906 -0.713381 0.466211 255 0 255
0.377118 -0.753681 0.323035 255 0 255
0.360476 -0.658822 0.268023 255 0 255
0.379745 -0.654738 0.436033 255 0 255
0.364676 -0.671983 0.195035 255 0 255
0.408231 -0.732358 0.308042 255 0 255
0.372926 -0.673737 0.175035 255 0 255
0.422357 -0.617801 0.443035 255 0 255
0.420527 -0.638870 0.365035 255 0 255
0.380610 -0.701950 0.135035 255 0 255
0.336540 -0.675232 0.279035 255 0 255
0.375457 -0.670185 0.277035 255 0 255
0.318392 -0.635564 0.166701 255 0 255
0.373173 -0.695276 0.101035 255 0 255
0.359095 -0.633991 0.075035 255 0 255
0.353063 -0.703318 0.015035 255 0 255
0.444279 -0.678194 0.279035 255 0 255
0.289591 -0.665249 0.215035 255 0 255
0.450432 -0.643183 0.185035 255 0 255
0.394980 -0.660022 0.466719 255 0 255
0.387033 -0.705360 0.117035 255 0 255
0.377537 -0.670627 0.119035 255 0 255
0.446409 -0.726160 0.339035 255 0 255
0.444966 -0.646110 0.108044 255 0 255
0.344360 -0.676925 0.097035 255 0 255
0.402900 -0.718956 0.434103 255 0 255
0.399650 -0.695774 0.236707 255 0 255
0.412879 -0.672004 0.072241 255 0 255
0.404932 -0.680538 0.256050 255 0 255
0.374569 -0.684309 0.125035 255 0 255
0.324241 -0.752337 0.271035 255 0 255
0.380477 -0.761218 0.241035 255 0 255
0.362776 -0.648004 0.379035 255 0 255
0.451051 -0.694432 0.112656 255 0 255
0.357794 -0.637805 0.361035 255 0 255
0.383449 -0.718910 0.041035 255 0 255
0.357394 -0.702176 -0.004965 255 0 255
0.374254 -0.704689 -0.008965 255 0 255
0.350209 -0.713891 0.033035 255 0 255
0.388232 -0.634051 0.110047 255 0 255
0.344014 -0.707407 0.249035 255 0 255
0.362258 -0.688914 0.083035 255 0 255
0.390880 -0.693910 0.231035 255 0 255
0.419528 -0.726579 0.383035 255 0 255
0.376694 -0.713386 0.001035 255 0 255
0.360543 -0.724266 0.067035 255 0 255
0.392949 -0.746536 0.309035 255 0 255
0.407672 -0.648407 0.269199 255 0 255
0.358692 -0.703426 0.123035 255 0 255
0.370570 -0.774861 0.437035 255 0 255
0.351450 -0.708020 0.003035 255 0 255
0.329611 -0.695199 0.057035 255 0 255
0.310709 -0.719806 0.274114 255 0 255
0.374018 -0.739398 0.124487 255 0 255
0.348165 -0.625535 0.395035 255 0 255
0.372535 -0.602088 0.346143 255 0 255
0.367564 -0.721668 0.077290 255 0 255
0.408428 -0.683326 0.464233 255 0 255
0.321098 -0.622833 0.465035 255 0 255
0.386419 -0.695005 0.211035 255 0 255
0.355436 -0.649571 0.091035 255 0 255
0.346195 -0.680322 0.273035 255 0 255
0.391068 -0.659189 0.338178 255 0 255
0.323061 -0.671315 0.357914 255 0 255
0.383120 -0.667723 0.206142 255 0 255
0.334525 -0.761673 0.427163 255 0 255
0.397551 -0.609451 0.441501 255 0 255
0.373104 -0.637890 0.115035 255 0 255
0.395203 -0.755172 0.303035 255 0 255
0.438339 -0.658045 0.465035 255 0 255
0.323013 -0.758119 0.419035 255 0 255
0.335849 -0.697729 0.069035 255 0 255
0.332726 -0.640655 0.171035 255 0 255
0.402267 -0.673839 0.037980 255 0 255
0.454587 -0.680870 0.115035 255 0 255
0.378192 -0.703480 0.109035 255 0 255
0.355042 -0.751722 0.334080 255 0 255
0.329468 -0.660409 0.222530 255 0 255
0.404686 -0.700933 0.460258 255 0 255
0.429976 -0.620433 0.356107 255 0 255
0.409763 -0.657813 0.077035 255 0 255
0.317651 -0.744867 0.427035 255 0 255
0.422878 -0.684354 0.407035 255 0 255
0.355881 -0.762124 0.339035 255 0 255
0.319856 -0.676769 0.266850 255 0 255
0.394176 -0.704834 0.203035 255 0 255
0.408088 -0.646451 0.110192 255 0 255
0.440391 -0.667629 0.119711 255 0 255
0.348171 -0.735949 0.328107 255 0 255
0.412539 -0.635128 0.106061 255 0 255
0.399266 -0.640486 0.433035 255 0 255
0.353805 -0.728684 0.379035 255 0 255
0.414714 -0.682617 0.276058 255 0 255
0.389030 -0.748723 0.125035 255 0 255
0.365144 -0.694574 0.068158 255 0 255
0.387190 -0.672678 0.201035 255 0 255
0.347589 -0.709831 0.019035 255 0 255
0.368150 -0.738151 0.349861 255 0 255
0.371288 -0.607958 0.221422 255 0 255
0.268904 -0.653671 0.431035 255 0 255
0.350156 -0.668895 0.464146 255 0 255
0.342330 -0.667233 0.464226 255 0 255
0.364654 -0.735363 0.187562 255 0 255
0.416622 -0.654398 0.338220 255 0 255
0.387590 -0.685169 0.281035 255 0 255
0.360296 -0.691498 0.133035 255 0 255
0.399390 -0.673228 0.023035 255 0 255
0.365405 -0.654872 0.401035 255 0 255
0.376436 -0.758313 0.347035 255 0 255
0.380263 -0.690784 0.129035 255 0 255
0.314064 -0.636688 0.436274 255 0 255
0.426831 -0.673707 0.475035 255 0 255
0.386446 -0.632837 0.073035 255 0 255
0.362489 -0.697448 0.187035 255 0 255
0.357826 -0.690527 0.361035 255 0 255
0.395579 -0.662194 0.163035 255 0 255
0.441270 -0.692353 0.243824 255 0 255
0.374681 -0.717047 0.075525 255 0 255
0.374484 -0.655664 0.427035 255 0 255
0.356044 -0.766248 0.428073 255 0 255
0.394742 -0.670767 0.151035 255 0 255
0.347095 -0.760256 0.424067 255 0 255
0.399378 -0.681402 0.073035 255 0 255
0.383830 -0.704679 0.291035 255 0 255
0.402947 -0.747591 0.315065 255 0 255
0.389432 -0.599546 0.351394 255 0 255
0.359494 -0.663438 0.191035 255 0 255
0.306456 -0.682099 0.262078 255 0 255
0.336345 -0.657782 0.179035 255 0 255
0.359391 -0.625443 0.417035 255 0 255
0.342822 -0.745034 0.293035 255 0 255
0.420809 -0.567367 0.461823 255 0 255
0.454180 -0.727812 0.343416 255 0 255
0.434582 -0.643903 0.353035 255 0 255
0.377147 -0.772778 0.241150 255 0 255
0.348077 -0.678678 0.357790 255 0 255
0.391091 -0.685776 0.289035 255 0 255
0.412076 -0.661611 0.123035 255 0 255
0.404920 -0.565164 0.457035 255 0 255
0.347102 -0.702498 0.191035 255 0 255
0.401973 -0.665597 0.041965 255 0 255
0.325758 -0.658626 0.375035 255 0 255
0.322963 -0.695831 0.337035 255 0 255
0.357765 -0.776837 0.331035 255 0 255
0.342690 -0.800214 0.420152 255 0 255
0.404592 -0.643662 0.217235 255 0 255
0.315066 -0.651214 0.468471 255 0 255
0.360032 -0.728246 0.342073 255 0 255
0.383482 -0.682113 0.139035 255 0 255
0.413712 -0.668092 0.260041 255 0 255
0.336873 -0.789104 0.421035 255 0 255
0.411053 -0.675705 0.261035 255 0 255
0.374878 -0.668016 0.166313 255 0 255
0.414052 -0.704968 0.236085 255 0 255
0.386050 -0.750134 0.187759 255 0 255
0.360107 -0.689414 0.108184 255 0 255
0.351497 -0.720299 0.245849 255 0 255
0.393686 -0.637254 0.388225 255 0 255
0.312494 -0.711411 0.347035 255 0 255
0.364947 -0.743603 0.186675 255 0 255
0.339713 -0.689167 0.192409 255 0 255
0.479393 -0.686142 0.405660 255 0 255
0.394015 -0.727291 0.443035 255 0 255
0.371547 -0.708203 0.173035 255 0 255
0.265249 -0.625850 0.419035 255 0 255
0.450711 -0.657555 0.114158 255 0 255
0.382847 -0.755587 0.311249 255 0 255
0.381088 -0.706141 0.073520 255 0 255
0.324183 -0.723747 0.281035 255 0 255
0.419337 -0.651249 0.371035 255 0 255
0.290513 -0.670532 0.220615 255 0 255
0.405684 -0.686620 0.243035 255 0 255
0.429780 -0.587676 0.453035 255 0 255
0.448755 -0.657139 0.260062 255 0 255
0.354860 -0.718967 0.359035 255 0 255
0.413888 -0.648026 0.343035 255 0 255
0.447186 -0.722235 0.242612 255 0 255
0.383421 -0.671878 0.265035 255 0 255
0.362555 -0.649040 0.353085 255 0 255
0.331700 -0.698009 0.221035 255 0 255
0.408477 -0.711962 0.332302 255 0 255
0.431999 -0.745588 0.358136 255 0 255
0.303035 -0.640477 0.467572 255 0 255
0.446307 -0.697513 0.276036 255 0 255
0.407012 -0.670758 0.466911 255 0 255
0.401206 -0.683836 0.033035 255 0 255
0.427576 -0.689441 0.121677 255 0 255
0.369009 -0.666770 0.354424 255 0 255
0.349570 -0.652414 0.354332 255 0 255
0.416745 -0.644201 0.438303 255 0 255
0.399887 -0.723516 0.367035 255 0 255
0.356868 -0.651921 0.373035 255 0 255
0.379529 -0.655755 0.067035 255 0 255
0.412709 -0.653567 0.266646 255 0 255
0.368592 -0.697596 0.329035 255 0 255
0.487227 -0.735866 0.327035 255 0 255
0.397032 -0.717709 0.068948 255 0 255
0.400017 -0.665182 0.004096 255 0 255
0.392134 -0.683953 0.257035 255 0 255
0.306579 -0.671901 0.214065 255 0 255
0.390558 -0.651968 0.179035 255 0 255
0.314965 -0.675729 0.353035 255 0 255
0.375992 -0.730115 0.359035 255 0 255
0.300416 -0.662413 0.106156 255 0 255
0.428483 -0.646696 0.371731 255 0 255
0.449654 -0.681770 0.477035 255 0 255
0.349844 -0.612651 0.259035 255 0 255
0.426083 -0.715704 0.384630 255 0 255
0.371584 -0.679585 0.437035 255 0 255
0.309906 -0.656250 0.426149 255 0 255
0.376297 -0.680587 0.196020 255 0 255
0.384047 -0.721082 0.185771 255 0 255
0.329222 -0.680804 0.077871 255 0 255
0.323612 -0.706192 0.175035 255 0 255
0.367768 -0.682233 0.169035 255 0 255
0.315224 -0.688942 0.355035 255 0 255
0.373826 -0.672971 0.459035 255 0 255
0.393490 -0.671973 -0.006965 255 0 255
0.351460 -0.718246 0.051035 255 0 255
0.430562 -0.636914 0.347916 255 0 255
0.371921 -0.653075 0.074025 255 0 255
0.403032 -0.545187 0.464029 255 0 255
0.385540 -0.694818 0.354060 255 0 255
0.420911 -0.672702 0.277035 255 0 255
0.359318 -0.695379 0.087035 255 0 255
0.441222 -0.663717 0.344218 255 0 255
0.343305 -0.749227 0.426080 255 0 255
0.373368 -0.703984 0.137035 255 0 255
0.403146 -0.698561 0.060011 255 0 255
0.317778 -0.686549 0.216200 255 0 255
0.470567 -0.669954 0.107980 255 0 255
0.319923 -0.801508 0.411941 255 0 255
0.354389 -0.610501 0.355718 255 0 255
0.356101 -0.645623 0.069035 255 0 255
0.308365 -0.653878 0.221260 255 0 255
0.421715 -0.630944 0.345035 255 0 255
0.363667 -0.768862 0.181035 255 0 255
0.392057 -0.659400 0.019035 255 0 255
0.316777 -0.657712 0.393035 255 0 255
0.321189 -0.809956 0.403035 255 0 255
0.436819 -0.703675 0.345617 255 0 255
0.338219 -0.715431 0.077245 255 0 255
0.418777 -0.605783 0.450535 255 0 255
0.420491 -0.703536 0.337035 255 0 255
0.387769 -0.607372 0.109608 255 0 255
0.396545 -0.648087 0.381035 255 0 255
0.311492 -0.687258 0.121480 255 0 255
0.360325 -0.736488 0.246202 255 0 255
0.287724 -0.674027 0.100111 255 0 255
0.431952 -0.716953 0.283389 255 0 255
0.386605 -0.676644 0.285035 255 0 255
0.375016 -0.717119 0.235035 255 0 255
0.290757 -0.650136 0.260035 255 0 255
0.376261 -0.690376 0.411035 255 0 255
0.371696 -0.769566 0.123035 255 0 255
0.310615 -0.662535 0.408085 255 0 255
0.402776 -0.719543 0.285035 255 0 255
0.376146 -0.758253 0.186498 255 0 255
0.314874 -0.647084 0.261035 255 0 255
0.428836 -0.568080 0.459035 255 0 255
0.377932 -0.740230 0.118081 255 0 255
0.400680 -0.642831 0.183189 255 0 255
0.350060 -0.760886 0.241035 255 0 255
0.382901 -0.668749 0.137035 255 0 255
0.390670 -0.680301 0.203035 255 0 255
0.326777 -0.682693 0.057035 255 0 255
0.303343 -0.696744 0.467035 255 0 255
0.317826 -0.715186 0.167518 255 0 255
0.354886 -0.713982 0.059035 255 0 255
0.367748 -0.711179 0.085035 255 0 255
0.327143 -0.690586 0.270239 255 0 255
0.345676 -0.747687 0.341917 255 0 255
0.302396 -0.648520 0.217035 255 0 255
0.411171 -0.699281 0.243035 255 0 255
0.356304 -0.726542 0.389035 255 0 255
0.288876 -0.630136 0.427035 255 0 255
0.386868 -0.630852 0.371035 255 0 255
0.390439 -0.667234 0.315035 255 0 255
0.381428 -0.743017 0.246120 255 0 255
0.435723 -0.631877 0.338106 255 0 255
0.362477 -0.668647 0.203035 255 0 255
0.384058 -0.657700 0.267035 255 0 255
0.341963 -0.717062 0.301035 255 0 255
0.380585 -0.685588 0.179035 255 0 255
0.425545 -0.727859 0.242441 255 0 255
0.337183 -0.691450 0.011035 255 0 255
0.371704 -0.606002 0.352625 255 0 255
0.418428 -0.684377 0.341035 255 0 255
0.484374 -0.730052 0.335035 255 0 255
0.395464 -0.653991 0.105035 255 0 255
0.341607 -0.646631 0.305035 255 0 255
0.463499 -0.703211 0.408161 255 0 255
0.279361 -0.684519 0.098064 255 0 255
0.362921 -0.666560 0.221035 255 0 255
0.368613 -0.764830 0.337199 255 0 255
0.413126 -0.651611 0.467706 255 0 255
0.435817 -0.689148 0.423771 255 0 255
0.354455 -0.735240 0.180047 255 0 255
0.387864 -0.664643 0.120185 255 0 255
0.397599 -0.638087 0.471565 255 0 255
0.308923 -0.737829 0.268153 255 0 255
0.375236 -0.631289 0.121035 255 0 255
0.481180 -0.668121 0.098149 255 0 255
0.349754 -0.622689 0.353035 255 0 255
0.331813 -0.695667 0.047035 255 0 255
0.417148 -0.719263 0.323035 255 0 255
0.332057 -0.705943 0.077523 255 0 255
0.343503 -0.700197 0.180145 255 0 255
0.455673 -0.701548 0.410045 255 0 255
0.408061 -0.713918 0.358108 255 0 255
0.376910 -0.629600 0.216103 255 0 255
0.316360 -0.673980 0.462038 255 0 255
0.366395 -0.659831 0.073035 255 0 255
0.379499 -0.701714 0.201035 255 0 255
0.332842 -0.673394 0.025419 255 0 255
0.394361 -0.696695 0.355035 255 0 255
0.399573 -0.683490 0.343035 255 0 255
0.287555 -0.655590 0.098137 255 0 255
0.415347 -0.727736 0.351097 255 0 255
0.348785 -0.684962 0.190172 255 0 255
0.422170 -0.714874 0.242129 255 0 255
0.473432 -0.680787 0.401035 255 0 255
0.400283 -0.697953 0.041035 255 0 255
0.401803 -0.647159 0.077323 255 0 255
0.378567 -0.703561 0.357035 255 0 255
0.441613 -0.669934 0.475035 255 0 255
0.358454 -0.783762 0.335035 255 0 255
0.453641 -0.739964 0.340079 255 0 255
0.376447 -0.602921 0.216300 255 0 255
0.395783 -0.723577 0.449718 255 0 255
0.316375 -0.659671 0.385035 255 0 255
0.313791 -0.757267 0.273035 255 0 255
0.325891 -0.682141 0.065035 255 0 255
0.321492 -0.736412 0.283897 255 0 255
0.387707 -0.694241 0.447035 255 0 255
0.278501 -0.674112 0.095035 255 0 255
0.456825 -0.638407 0.178097 255 0 255
0.383866 -0.654598 0.303035 255 0 255
0.411061 -0.642085 0.365035 255 0 255
0.378917 -0.706731 0.007035 255 0 255
0.395273 -0.716358 0.325035 255 0 255
0.382581 -0.679878 0.212171 255 0 255
0.467214 -0.724208 0.339035 255 0 255
0.351819 -0.661071 0.116686 255 0 255
0.444039 -0.592752 0.348055 255 0 255
0.365900 -0.713135 0.197035 255 0 255
0.406223 -0.688993 0.061035 255 0 255
0.384689 -0.602628 0.216167 255 0 255
0.353010 -0.790138 0.426557 255 0 255
0.442811 -0.694725 0.414104 255 0 255
0.401211 -0.669524 0.323035 255 0 255
0.407847 -0.720007 0.317035 255 0 255
0.363552 -0.716727 0.213035 255 0 255
0.366884 -0.647916 0.194038 255 0 255
0.368979 -0.666918 0.265035 255 0 255
0.432897 -0.688528 0.341035 255 0 255
0.446629 -0.638284 0.367652 255 0 255
0.404592 -0.643662 0.334087 255 0 255
0.363339 -0.635729 0.259035 255 0 255
0.400728 -0.618304 0.465035 255 0 255
0.388051 -0.726023 0.371035 255 0 255
0.473866 -0.721771 0.328171 255 0 255
0.426982 -0.730710 0.357035 255 0 255
0.407636 -0.667817 0.295035 255 0 255
0.377218 -0.724349 0.061035 255 0 255
0.389928 -0.703032 0.017035 255 0 255
0.366024 -0.719296 0.067934 255 0 255
0.340763 -0.699615 0.011035 255 0 255
0.401258 -0.626596 0.423035 255 0 255
0.363605 -0.692202 0.343121 255 0 255
0.351743 -0.699903 0.162927 255 0 255
0.383904 -0.635175 0.278050 255 0 255
0.478751 -0.679546 0.099035 255 0 255
0.378792 -0.668849 0.073554 255 0 255
0.380321 -0.697799 0.481035 255 0 255
0.439356 -0.730794 0.351035 255 0 255
0.334062 -0.734994 0.341702 255 0 255
0.376775 -0.692956 0.189035 255 0 255
0.432214 -0.686860 0.127035 255 0 255
0.344335 -0.696284 0.349976 255 0 255
0.316559 -0.624950 0.172263 255 0 255
0.381824 -0.644958 0.122513 255 0 255
0.373801 -0.692325 0.110042 255 0 255
0.442668 -0.608818 0.354158 255 0 255
0.311834 -0.724136 0.344176 255 0 255
0.309413 -0.697041 0.221064 255 0 255
0.300436 -0.758517 0.263254 255 0 255
0.382317 -0.604167 0.471237 255 0 255
0.372529 -0.645025 0.467035 255 0 255
0.360555 -0.687304 0.405035 255 0 255
0.380542 -0.665132 0.267035 255 0 255
0.428637 -0.685578 0.447035 255 0 255
0.333384 -0.709327 0.315035 255 0 255
0.380076 -0.662801 0.187035 255 0 255
0.269237 -0.659874 0.087035 255 0 255
0.346244 -0.668065 0.357987 255 0 255
0.354557 -0.710725 0.181035 255 0 255
0.365653 -0.634469 0.347035 255 0 255
0.366476 -0.697932 0.145035 255 0 255
0.368287 -0.691152 0.179035 255 0 255
0.363605 -0.692202 0.210011 255 0 255
0.378639 -0.727277 0.303035 255 0 255
0.417841 -0.715997 0.282289 255 0 255
0.342870 -0.655078 0.110109 255 0 255
0.416021 -0.541795 0.469035 255 0 255
0.360523 -0.687457 0.164063 255 0 255
0.370106 -0.738567 0.180066 255 0 255
0.361903 -0.690583 0.197035 255 0 255
0.292346 -0.681144 0.104046 255 0 255
0.405442 -0.735853 0.361513 255 0 255
0.363679 -0.701464 0.169035 255 0 255
0.365098 -0.712965 -0.002965 255 0 255
0.376460 -0.689436 0.169035 255 0 255
0.299408 -0.768523 0.251035 255 0 255
0.380290 -0.681036 0.187035 255 0 255
0.394543 -0.678330 0.209035 255 0 255
0.391974 -0.616445 0.468905 255 0 255
0.377147 -0.772778 0.182175 255 0 255
0.338942 -0.691049 -0.000965 255 0 255
0.404006 -0.627181 0.360040 255 0 255
0.326728 -0.692542 0.344129 255 0 255
0.388694 -0.701623 0.229035 255 0 255
0.407012 -0.670758 0.278352 255 0 255
0.435107 -0.682863 0.117988 255 0 255
0.347811 -0.602968 0.409522 255 0 255
0.345617 -0.719111 0.067035 255 0 255
0.400698 -0.738935 0.446220 255 0 255
0.439069 -0.712331 0.282108 255 0 255
0.304447 -0.716432 0.281035 255 0 255
0.402708 -0.706646 0.047035 255 0 255
0.341499 -0.671145 0.074153 255 0 255
0.431659 -0.645327 0.117035 255 0 255
0.429730 -0.640826 0.260035 255 0 255
0.460124 -0.690226 0.408204 255 0 255
0.425272 -0.676683 0.445035 255 0 255
0.438837 -0.713419 0.427035 255 0 255
0.438345 -0.696490 0.121035 255 0 255
0.391195 -0.673530 0.219035 255 0 255
0.412702 -0.678102 0.391035 255 0 255
0.476701 -0.746911 0.340043 255 0 255
0.407012 -0.670758 0.031690 255 0 255
0.474562 -0.660777 0.101035 255 0 255
0.419533 -0.640705 0.185489 255 0 255
0.413144 -0.684329 0.181035 255 0 255
0.489264 -0.690285 0.403035 255 0 255
0.426498 -0.713748 0.236047 255 0 255
0.347981 -0.621407 0.406169 255 0 255
0.363619 -0.701755 0.199035 255 0 255
0.399210 -0.649740 0.371035 255 0 255
0.365791 -0.715158 0.117035 255 0 255
0.345861 -0.650620 0.175035 255 0 255
0.378335 -0.622898 0.349035 255 0 255
0.355091 -0.657676 0.273035 255 0 255
0.331825 -0.740653 0.329035 255 0 255
0.403392 -0.707024 0.359035 255 0 255
0.364304 -0.684171 0.117035 255 0 255
0.319062 -0.661268 0.215035 255 0 255
0.350760 -0.781482 0.428120 255 0 255
0.386203 -0.720559 0.057035 255 0 255
0.391876 -0.708435 0.055035 255 0 255
0.425121 -0.723680 0.355035 255 0 255
0.337910 -0.813510 0.415035 255 0 255
0.327864 -0.639092 0.441035 255 0 255
0.406996 -0.721872 0.379035 255 0 255
0.427462 -0.536067 0.466151 255 0 255
0.412959 -0.714960 0.431035 255 0 255
0.414325 -0.617105 0.359553 255 0 255
0.445796 -0.642198 0.260098 255 0 255
0.348540 -0.705357 0.066061 255 0 255
0.339561 -0.766834 0.428647 255 0 255
0.376092 -0.670320 0.219035 255 0 255
0.471195 -0.609283 0.357035 255 0 255
0.397692 -0.695358 0.026022 255 0 255
0.366658 -0.648972 0.109035 255 0 255
0.314492 -0.649048 0.115035 255 0 255
0.425383 -0.545847 0.464140 255 0 255
0.345866 -0.674119 0.447035 255 0 255
0.336385 -0.753890 0.361035 255 0 255
0.324744 -0.759594 0.272099 255 0 255
0.319583 -0.764632 0.416050 255 0 255
0.383101 -0.682033 0.117035 255 0 255
0.333131 -0.667321 0.311035 255 0 255
0.443227 -0.692768 0.282244 255 0 255
0.380682 -0.626312 0.109035 255 0 255
0.349834 -0.728123 0.120065 255 0 255
0.396554 -0.642993 0.339035 255 0 255
0.319838 -0.727881 0.161035 255 0 255
0.437943 -0.708003 0.241885 255 0 255
0.440637 -0.647234 0.266072 255 0 255
0.301682 -0.670861 0.107035 255 0 255
0.368968 -0.686206 0.137035 255 0 255
0.395812 -0.656109 0.360051 255 0 255
0.297581 -0.637275 0.267199 255 0 255
0.353529 -0.681881 0.352049 255 0 255
0.318413 -0.725533 0.349035 255 0 255
0.360796 -0.695792 0.393035 255 0 255
0.354285 -0.716802 0.445436 255 0 255
0.398155 -0.722037 0.237226 255 0 255
0.445347 -0.663556 0.109035 255 0 255
0.421593 -0.534818 0.471291 255 0 255
0.379240 -0.681211 0.067035 255 0 255
0.424422 -0.631520 0.109035 255 0 255
0.451761 -0.700716 0.237512 255 0 255
0.327445 -0.746884 0.423035 255 0 255
0.307014 -0.727571 0.277035 255 0 255
0.365711 -0.614952 0.214043 255 0 255
0.433370 -0.729522 0.387822 255 0 255
0.304963 -0.708363 0.150045 255 0 255
0.427774 -0.640412 0.338108 255 0 255
0.335634 -0.684211 0.347035 255 0 255
0.423834 -0.707048 0.424070 255 0 255
0.348737 -0.704431 0.183035 255 0 255
0.341054 -0.740570 0.328158 255 0 255
0.390803 -0.583481 0.346048 255 0 255
0.482985 -0.746202 0.332169 255 0 255
0.338871 -0.712371 0.447035 255 0 255
0.378856 -0.716640 0.361035 255 0 255
0.354243 -0.702480 0.007035 255 0 255
0.341211 -0.643646 0.323035 255 0 255
0.333060 -0.720469 0.297953 255 0 255
0.377255 -0.714551 0.049035 255 0 255
0.365983 -0.738725 0.437035 255 0 255
0.448481 -0.745002 0.351350 255 0 255
0.388340 -0.677012 0.251035 255 0 255
0.411052 -0.718643 0.327035 255 0 255
0.431602 -0.682118 0.455035 255 0 255
0.366064 -0.655920 0.279035 255 0 255
0.389756 -0.685493 0.247035 255 0 255
0.315022 -0.670656 0.261035 255 0 255
0.391088 -0.657150 -0.006965 255 0 255
0.359352 -0.654493 0.325710 255 0 255
0.385096 -0.764244 0.182693 255 0 255
0.333878 -0.726238 0.361035 255 0 255
0.404866 -0.719330 0.243035 255 0 255
0.376101 -0.643028 0.219035 255 0 255
0.356363 -0.658931 0.375035 255 0 255
0.399947 -0.659033 0.029035 255 0 255
0.398892 -0.660854 0.183939 255 0 255
0.394830 -0.737688 0.119036 255 0 255
0.350627 -0.532002 0.013995 255 0 255
0.447752 -0.642613 0.338073 255 0 255
0.378421 -0.656502 0.281035 255 0 255
0.365159 -0.584163 0.347035 255 0 255
0.334208 -0.708445 0.301035 255 0 255
0.432476 -0.661858 0.261035 255 0 255
0.339098 -0.740155 0.242097 255 0 255
0.325215 -0.670802 0.069035 255 0 255
0.399044 -0.583188 0.449434 255 0 255
0.333797 -0.659285 0.464150 255 0 255
0.387079 -0.649095 0.405035 255 0 255
0.367022 -0.685743 0.439035 255 0 255
0.314943 -0.661412 0.266301 255 0 255
0.425034 -0.672544 0.104063 255 0 255
0.386514 -0.642134 0.077035 255 0 255
0.383367 -0.700491 -0.010965 255 0 255
0.326633 -0.683362 0.357035 255 0 255
0.388082 -0.711716 0.074209 255 0 255
0.364464 -0.620821 0.356218 255 0 255
0.340270 -0.724046 0.245035 255 0 255
0.352376 -0.745022 0.432211 255 0 255
0.417718 -0.726196 0.243369 255 0 255
0.373774 -0.759793 0.246244 255 0 255
0.369107 -0.642254 0.067035 255 0 255
0.306947 -0.641309 0.260091 255 0 255
0.389317 -0.657808 0.255035 255 0 255
0.372209 -0.690201 0.419035 255 0 255
0.372062 -0.738982 0.343111 255 0 255
0.391410 -0.681754 0.299035 255 0 255
0.400584 -0.700994 0.263035 255 0 255
0.386153 -0.643832 0.272081 255 0 255
0.451958 -0.651685 0.266832 255 0 255
0.360019 -0.670993 0.073035 255 0 255
0.441761 -0.651562 0.375109 255 0 255
0.318026 -0.714242 0.281035 255 0 255
0.391416 -0.739007 0.181035 255 0 255
0.334872 -0.679960 0.189035 255 0 255
0.467912 -0.711299 0.409035 255 0 255
0.404592 -0.643662 0.260125 255 0 255
0.413296 -0.670048 0.340270 255 0 255
0.403322 -0.640018 0.369035 255 0 255
0.438312 -0.677411 0.478332 255 0 255
0.376575 -0.640795 0.259035 255 0 255
0.409002 -0.651772 0.429035 255 0 255
0.295938 -0.659416 0.215035 255 0 255
0.372705 -0.620528 0.467720 255 0 255
0.356863 -0.651920 0.365035 255 0 255
0.401057 -0.685849 -0.006965 255 0 255
0.375260 -0.656605 0.199035 255 0 255
0.330934 -0.701615 0.352055 255 0 255
0.407012 -0.670758 0.183391 255 0 255
0.397476 -0.701446 0.461035 255 0 255
0.395839 -0.670428 0.277035 255 0 255
0.339988 -0.649400 0.071035 255 0 255
0.347229 -0.701905 -0.012965 255 0 255
0.422522 -0.694502 0.425035 255 0 255
0.349921 -0.689235 0.427035 255 0 255
0.344072 -0.692138 0.183035 255 0 255
0.398973 -0.671093 0.095035 255 0 255
0.445928 -0.715833 0.345035 255 0 255
0.440145 -0.688024 0.276061 255 0 255
0.437674 -0.683408 0.467035 255 0 255
0.427938 -0.615910 0.347035 255 0 255
0.332927 -0.697948 0.341035 255 0 255
0.386636 -0.686873 0.231035 255 0 255
0.377912 -0.678885 0.173035 255 0 255
0.423815 -0.610944 0.451548 255 0 255
0.373965 -0.662700 0.281035 255 0 255
0.458678 -0.745125 0.348705 255 0 255
0.365418 -0.606710 0.467621 255 0 255
0.349648 -0.767477 0.247035 255 0 255
0.424571 -0.645864 0.350229 255 0 255
0.415838 -0.686947 0.077977 255 0 255
0.407058 -0.699394 0.278122 255 0 255
0.363002 -0.656559 0.293035 255 0 255
0.370317 -0.756814 0.441035 255 0 255
0.333100 -0.706164 0.069035 255 0 255
0.392853 -0.641168 0.118907 255 0 255
0.383923 -0.706743 -0.014965 255 0 255
0.356276 -0.692688 0.125035 255 0 255
0.402177 -0.677908 -0.002965 255 0 255
0.371279 -0.771531 0.187699 255 0 255
0.462224 -0.733611 0.335035 255 0 255
0.422785 -0.663887 0.126723 255 0 255
0.386264 -0.768369 0.303035 255 0 255
0.317202 -0.645534 0.441035 255 0 255
0.387617 -0.636949 0.367035 255 0 255
0.404081 -0.708983 0.065035 255 0 255
0.353971 -0.690154 0.195035 255 0 255
0.407454 -0.639813 0.467035 255 0 255
0.385662 -0.684622 0.077497 255 0 255
0.473090 -0.590748 0.346129 255 0 255
0.439776 -0.718616 0.242851 255 0 255
0.407918 -0.685728 0.351035 255 0 255
0.373197 -0.704791 0.081035 255 0 255
0.358520 -0.658406 0.117535 255 0 255
0.408947 -0.652033 0.389035 255 0 255
0.355062 -0.698565 0.189035 255 0 255
0.400508 -0.624393 0.221800 255 0 255
0.307378 -0.641401 0.433035 255 0 255
0.373755 -0.663688 0.245468 255 0 255
0.420440 -0.597959 0.453902 255 0 255
0.395198 -0.707096 0.019973 255 0 255
0.401624 -0.648003 0.113035 255 0 255
0.401338 -0.698178 0.467035 255 0 255
0.381059 -0.773610 0.247171 255 0 255
0.362765 -0.786078 0.429035 255 0 255
0.379586 -0.693964 0.097035 255 0 255
0.392730 -0.651365 0.279708 255 0 255
0.391076 -0.587627 0.441035 255 0 255
0.325045 -0.771927 0.415035 255 0 255
0.411293 -0.640997 0.178065 255 0 255
0.435606 -0.622802 0.347035 255 0 255
0.392533 -0.700395 0.348325 255 0 255
0.438265 -0.648775 0.342956 255 0 255
0.323128 -0.796056 0.408103 255 0 255
0.453159 -0.617182 0.354081 255 0 255
0.465455 -0.588195 0.351035 255 0 255
0.360438 -0.662903 0.109035 255 0 255
0.378640 -0.746515 0.318134 255 0 255
0.483079 -0.697664 0.405035 255 0 255
0.456845 -0.734512 0.343811 255 0 255
0.385679 -0.694159 0.195035 255 0 255
0.346133 -0.692576 0.003035 255 0 255
0.369543 -0.683240 0.457035 255 0 255
0.350779 -0.656348 0.187035 255 0 255
0.402587 -0.614610 0.221552 255 0 255
0.317485 -0.678308 0.118090 255 0 255
0.367927 -0.662246 0.397035 255 0 255
0.388838 -0.746638 0.322425 255 0 255
0.301589 -0.695377 0.221924 255 0 255
0.432131 -0.571819 0.464268 255 0 255
0.369256 -0.668867 0.227035 255 0 255
0.358369 -0.736072 0.124723 255 0 255
0.413098 -0.719079 0.357575 255 0 255
0.336093 -0.696577 0.357404 255 0 255
0.318733 -0.672440 0.220684 255 0 255
0.380093 -0.716152 0.337035 255 0 255
0.367013 -0.685786 0.109035 255 0 255
0.422702 -0.683517 0.425035 255 0 255
0.404536 -0.698857 0.031035 255 0 255
0.411047 -0.661391 0.070241 255 0 255
0.345567 -0.684278 0.175035 255 0 255
0.407058 -0.699394 0.077055 255 0 255
0.421585 -0.698391 0.282373 255 0 255
0.392546 -0.652232 0.391035 255 0 255
0.428067 -0.648653 0.342655 255 0 255
0.322474 -0.654834 0.467704 255 0 255
0.337531 -0.805251 0.410041 255 0 255
0.389187 -0.619941 0.104055 255 0 255
0.440221 -0.649190 0.178113 255 0 255
0.406671 -0.633881 0.338045 255 0 255
0.376977 -0.754339 0.120130 255 0 255
0.375200 -0.608789 0.469510 255 0 255
0.368150 -0.738151 0.240119 255 0 255
0.431782 -0.698514 0.236045 255 0 255
0.384613 -0.641460 0.283053 255 0 255
0.336386 -0.704818 0.344055 255 0 255
0.364244 -0.626908 0.115035 255 0 255
0.412398 -0.549222 0.460085 255 0 255
0.402648 -0.696412 0.049035 255 0 255
0.411973 -0.714751 0.236086 255 0 255
0.356044 -0.766248 0.332165 255 0 255
0.464132 -0.748328 0.336059 255 0 255
0.401170 -0.602041 0.346042 255 0 255
0.423474 -0.574068 0.454098 255 0 255
0.429410 -0.700055 0.276076 255 0 255
0.443301 -0.653935 0.266079 255 0 255
0.385895 -0.712380 0.049035 255 0 255
0.406794 -0.623683 0.348103 255 0 255
0.431535 -0.718909 0.236073 255 0 255
0.367857 -0.729909 0.118156 255 0 255
0.415205 -0.641829 0.350057 255 0 255
0.369002 -0.714906 0.045035 255 0 255
0.369983 -0.748764 0.186696 255 0 255
0.395592 -0.690821 0.013035 255 0 255
0.332794 -0.644758 0.464137 255 0 255
0.348758 -0.752430 0.240090 255 0 255
0.313157 -0.679434 0.266896 255 0 255
0.437972 -0.640533 0.178064 255 0 255
0.377137 -0.724729 0.351035 255 0 255
0.373703 -0.683167 0.165035 255 0 255
0.422908 -0.653690 0.122153 255 0 255
0.386972 -0.716933 0.035035 255 0 255
0.407134 -0.660561 0.464180 255 0 255
0.384862 -0.655827 -0.010965 255 0 255
0.275278 -0.665249 0.099772 255 0 255
0.398947 -0.675178 0.223035 255 0 255
0.342699 -0.661176 0.353035 255 0 255
0.441025 -0.712747 0.361731 255 0 255
0.384811 -0.592431 0.103855 255 0 255
0.337955 -0.639722 0.262101 255 0 255
0.359847 -0.757977 0.437035 255 0 255
0.390018 -0.721844 0.069035 255 0 255
0.451931 -0.719155 0.336173 255 0 255
0.362309 -0.669435 0.487257 255 0 255
0.385742 -0.668282 0.223035 255 0 255
0.360891 -0.622106 0.431035 255 0 255
0.305993 -0.655420 0.467593 255 0 255
0.321275 -0.689337 0.127465 255 0 255
0.354410 -0.658497 0.077035 255 0 255
0.372859 -0.708482 0.189035 255 0 255
0.316237 -0.684178 0.464247 255 0 255
0.342786 -0.697999 0.217035 255 0 255
0.399415 -0.629540 0.433035 255 0 255
0.368498 -0.760715 0.181035 255 0 255
0.403172 -0.635181 0.217035 255 0 255
0.372055 -0.704221 0.145035 255 0 255
0.353929 -0.618581 0.411035 255 0 255
0.427283 -0.681201 0.467688 255 0 255
0.359692 -0.687280 0.175035 255 0 255
0.400453 -0.683676 0.303035 255 0 255
0.347755 -0.737905 0.182176 255 0 255
0.404838 -0.623267 0.441520 255 0 255
0.349016 -0.683875 0.419035 255 0 255
0.364800 -0.661786 0.261035 255 0 255
0.364063 -0.661186 0.383035 255 0 255
0.364973 -0.705001 0.253035 255 0 255
0.362499 -0.783977 0.241317 255 0 255
0.400850 -0.661268 0.105029 255 0 255
0.388902 -0.615792 0.221035 255 0 255
0.357394 -0.654078 0.123570 255 0 255
0.367611 -0.707366 0.201035 255 0 255
0.371202 -0.598743 0.437035 255 0 255
0.391191 -0.648993 0.414616 255 0 255
0.309878 -0.723720 0.160138 255 0 255
0.354041 -0.737195 0.425930 255 0 255
0.314894 -0.753412 0.421035 255 0 255
0.367857 -0.729909 0.180082 255 0 255
0.297921 -0.674150 0.467669 255 0 255
0.357678 -0.654138 0.103035 255 0 255
0.338674 -0.746197 0.437035 255 0 255
0.295944 -0.618524 0.427035 255 0 255
0.447182 -0.674155 0.261035 255 0 255
0.424201 -0.676456 0.178205 255 0 255
0.409348 -0.727096 0.391035 255 0 255
0.302912 -0.650676 0.265683 255 0 255
0.393548 -0.599422 0.105035 255 0 255
0.450836 -0.716877 0.423035 255 0 255
0.352849 -0.712407 0.361035 255 0 255
0.445796 -0.642198 0.113966 255 0 255
0.369267 -0.681137 0.417035 255 0 255
0.368582 -0.716876 0.061035 255 0 255
0.378680 -0.674959 0.153035 255 0 255
0.404809 -0.690737 0.020074 255 0 255
0.342993 -0.654495 0.075035 255 0 255
0.302181 -0.759931 0.255035 255 0 255
0.313347 -0.611202 0.167035 255 0 255
0.339127 -0.672686 0.358154 255 0 255
0.462075 -0.709909 0.337035 255 0 255
0.355768 -0.684402 0.413035 255 0 255
0.336538 -0.627152 0.467496 255 0 255
0.343668 -0.699419 0.023035 255 0 255
0.394687 -0.651781 0.464182 255 0 255
0.378729 -0.685193 0.205035 255 0 255
0.405396 -0.707218 0.278074 255 0 255
0.369834 -0.711927 0.093035 255 0 255
0.427774 -0.640412 0.178122 255 0 255
0.396985 -0.701342 0.005035 255 0 255
0.379637 -0.677207 0.249035 255 0 255
0.362972 -0.724035 0.353035 255 0 255
0.417823 -0.619894 0.450003 255 0 255
0.363216 -0.626688 0.467407 255 0 255
0.397305 -0.629846 0.284315 255 0 255
0.376125 -0.710254 0.353035 255 0 255
0.398274 -0.668900 0.015035 255 0 255
0.337218 -0.700906 0.075801 255 0 255
0.306190 -0.654491 0.353035 255 0 255
0.312571 -0.662951 0.357619 255 0 255
0.385772 -0.626390 0.429035 255 0 255
0.423034 -0.600554 0.353035 255 0 255
0.332794 -0.644758 0.260082 255 0 255
0.390774 -0.650949 0.122399 255 0 255
0.385092 -0.648829 0.341035 255 0 255
0.326705 -0.766145 0.425035 255 0 255
0.381431 -0.700079 0.283035 255 0 255
0.362365 -0.640317 0.369035 255 0 255
0.290400 -0.637793 0.465035 255 0 255
0.382268 -0.575532 0.351675 255 0 255
0.338465 -0.695036 0.036003 255 0 255
0.347512 -0.710192 0.027035 255 0 255
0.351475 -0.672312 0.199035 255 0 255
0.354314 -0.649333 0.192066 255 0 255
0.443424 -0.643738 0.343704 255 0 255
0.341528 -0.714090 0.185035 255 0 255
0.372880 -0.687042 0.091035 255 0 255
0.325083 -0.681037 0.177035 255 0 255
0.350583 -0.628411 0.405035 255 0 255
0.448888 -0.661257 0.179035 255 0 255
0.368083 -0.723824 0.123035 255 0 255
0.457458 -0.683526 0.474282 255 0 255
0.310573 -0.666616 0.221035 255 0 255
0.345606 -0.757639 0.339035 255 0 255
0.380086 -0.691616 0.068185 255 0 255
0.321275 -0.689337 0.175699 255 0 255
0.418844 -0.730524 0.360493 255 0 255
0.383394 -0.579860 0.346044 255 0 255
0.394347 -0.614903 0.104275 255 0 255
0.324269 -0.626589 0.169035 255 0 255
0.360369 -0.683335 0.067035 255 0 255
0.395332 -0.651917 0.303035 255 0 255
0.339713 -0.689167 0.467434 255 0 255
0.373008 -0.638994 0.077035 255 0 255
0.332814 -0.740863 0.361886 255 0 255
0.292270 -0.643018 0.431035 255 0 255
0.428067 -0.648653 0.464088 255 0 255
0.443547 -0.633541 0.183658 255 0 255
0.431659 -0.708712 0.236092 255 0 255
0.307349 -0.658653 0.117035 255 0 255
0.390161 -0.701936 0.186333 255 0 255
0.266110 -0.612183 0.414045 255 0 255
0.415066 -0.658157 0.435035 255 0 255
0.310812 -0.613506 0.426095 255 0 255
0.387655 -0.665625 0.179035 255 0 255
0.356342 -0.716752 0.031035 255 0 255
0.469074 -0.696218 0.411726 255 0 255
0.385659 -0.732733 0.321035 255 0 255
0.360687 -0.667447 0.123035 255 0 255
0.397368 -0.706501 0.071035 255 0 255
0.388402 -0.710207 0.009035 255 0 255
0.414202 -0.627304 0.359296 255 0 255
0.408721 -0.691567 0.077680 255 0 255
0.333019 -0.739900 0.283035 255 0 255
0.308368 -0.668193 0.261035 255 0 255
0.474246 -0.717763 0.337035 255 0 255
0.391926 -0.669595 0.085035 255 0 255
0.427037 -0.701595 0.356132 255 0 255
0.398185 -0.654568 0.265495 255 0 255
0.329521 -0.737113 0.431035 255 0 255
0.399943 -0.704015 0.334048 255 0 255
0.319338 -0.785027 0.410089 255 0 255
0.336755 -0.722325 0.337035 255 0 255
0.286704 -0.669213 0.437035 255 0 255
0.362034 -0.747685 0.127035 255 0 255
0.459737 -0.624713 0.363626 255 0 255
0.365798 -0.653021 0.155035 255 0 255
0.346999 -0.702985 0.228269 255 0 255
0.366225 -0.745919 0.437035 255 0 255
0.394749 -0.713135 0.035035 255 0 255
0.427992 -0.687485 0.262093 255 0 255
0.310667 -0.742290 0.275035 255 0 255
0.319271 -0.660286 0.409602 255 0 255
0.418315 -0.627196 0.351035 255 0 255
0.401784 -0.551054 0.454071 255 0 255
0.447127 -0.707910 0.277035 255 0 255
0.365494 -0.712166 0.033035 255 0 255
0.370258 -0.660901 0.422004 255 0 255
0.405045 -0.674428 0.015035 255 0 255
0.457536 -0.710123 0.281035 255 0 255
0.376116 -0.710294 0.021035 255 0 255
0.364898 -0.714967 0.097353 255 0 255
0.388978 -0.620924 0.279035 255 0 255
0.375715 -0.712178 0.033035 255 0 255
0.445632 -0.681453 0.467035 255 0 255
0.374485 -0.653620 0.183035 255 0 255
0.326387 -0.655664 0.442329 255 0 255
0.323797 -0.610132 0.464102 255 0 255
0.384784 -0.659899 0.447765 255 0 255
0.340761 -0.732328 0.298445 255 0 255
0.359061 -0.736218 0.407035 255 0 255
0.334666 -0.704453 0.057035 255 0 255
0.375711 -0.712196 0.245035 255 0 255
0.361496 -0.769452 0.240102 255 0 255
0.399064 -0.679291 0.094048 255 0 255
0.331470 -0.638344 0.267035 255 0 255
0.406620 -0.676809 0.025035 255 0 255
0.357548 -0.744076 0.345035 255 0 255
0.455524 -0.697427 0.417035 255 0 255
0.441855 -0.708834 0.236118 255 0 255
0.381674 -0.722623 0.448248 255 0 255
0.413369 -0.751852 0.445035 255 0 255
0.389319 -0.657795 0.293035 255 0 255
0.360968 -0.618032 0.467167 255 0 255
0.368613 -0.764830 0.344215 255 0 255
0.318562 -0.654001 0.122931 255 0 255
0.441515 -0.671957 0.184206 255 0 255
0.446553 -0.677118 0.110079 255 0 255
0.320369 -0.683975 0.353035 255 0 255
0.423538 -0.676316 0.267035 255 0 255
0.414061 -0.541397 0.462053 255 0 255
0.405327 -0.630588 0.179035 255 0 255
0.392333 -0.701335 0.211035 255 0 255
0.352067 -0.688766 0.203035 255 0 255
0.365109 -0.706834 0.277035 255 0 255
0.372772 -0.745266 0.452009 255 0 255
0.449160 -0.674474 0.477035 255 0 255
0.442956 -0.749962 0.437035 255 0 255
0.381813 -0.630641 0.443035 255 0 255
0.325093 -0.632899 0.260035 255 0 255
0.331764 -0.697701 0.297216 255 0 255
0.405689 -0.662297 0.037035 255 0 255
0.393241 -0.706680 0.464112 255 0 255
0.363218 -0.649180 0.331035 255 0 255
0.371042 -0.628353 0.112048 255 0 255
0.352962 -0.761503 0.435192 255 0 255
0.360769 -0.667063 0.256081 255 0 255
0.299905 -0.655205 0.105035 255 0 255
0.400306 -0.721542 0.359035 255 0 255
0.375453 -0.676317 0.487035 255 0 255
0.359914 -0.671088 0.109035 255 0 255
0.396491 -0.715549 0.447035 255 0 255
0.362756 -0.648092 0.079035 255 0 255
0.371025 -0.580334 0.349035 255 0 255
0.393393 -0.629014 0.437213 255 0 255
0.390141 -0.605832 0.441913 255 0 255
0.396965 -0.592968 0.448034 255 0 255
0.351860 -0.646766 0.259035 255 0 255
0.371006 -0.686234 0.397035 255 0 255
0.395838 -0.643847 0.075035 255 0 255
0.389235 -0.648576 0.216077 255 0 255
0.377865 -0.615489 0.434387 255 0 255
0.404083 -0.668091 0.253035 255 0 255
0.430358 -0.681854 0.183035 255 0 255
0.383415 -0.688234 0.157035 255 0 255
0.398403 -0.705733 0.275035 255 0 255
0.404503 -0.637510 0.353035 255 0 255
0.402164 -0.664706 0.179035 255 0 255
0.286325 -0.661463 0.105035 255 0 255
0.449511 -0.692060 0.417476 255 0 255
0.415555 -0.649800 0.389035 255 0 255
0.342822 -0.626444 0.402046 255 0 255
0.373215 -0.675842 0.160092 255 0 255
0.292715 -0.650553 0.102299 255 0 255
0.355510 -0.774312 0.183035 255 0 255
0.439946 -0.737054 0.384209 255 0 255
0.416547 -0.693232 0.464294 255 0 255
0.435203 -0.740134 0.430158 255 0 255
0.359807 -0.685261 0.397035 255 0 255
0.393979 -0.645495 0.345655 255 0 255
0.416914 -0.762829 0.447035 255 0 255
0.359944 -0.636217 0.197035 255 0 255
0.405982 -0.723701 0.326501 255 0 255
0.307564 -0.674155 0.443035 255 0 255
0.340420 -0.670916 0.457035 255 0 255
0.370310 -0.631796 0.075035 255 0 255
0.411093 -0.690027 0.238170 255 0 255
0.379009 -0.715923 0.116161 255 0 255
0.326468 -0.684144 0.187035 255 0 255
0.433785 -0.727566 0.431568 255 0 255
0.339250 -0.662488 0.074059 255 0 255
0.364517 -0.680128 0.487035 255 0 255
0.368330 -0.593017 0.351430 255 0 255
0.372345 -0.747270 0.341035 255 0 255
0.437650 -0.699762 0.281758 255 0 255
0.385921 -0.712260 0.333035 255 0 255
0.375587 -0.674302 0.262095 255 0 255
0.376143 -0.710171 -0.012965 255 0 255
0.303005 -0.698329 0.119035 255 0 255
0.407039 -0.603288 0.446189 255 0 255
0.396322 -0.711424 0.330112 255 0 255
0.311237 -0.693339 0.167035 255 0 255
0.446796 -0.738509 0.343035 255 0 255
0.328051 -0.647840 0.265832 255 0 255
0.368848 -0.734872 0.443035 255 0 255
0.422390 -0.694597 0.327035 255 0 255
0.365130 -0.646543 0.389035 255 0 255
0.382854 -0.592015 0.351397 255 0 255
0.362382 -0.640230 0.123035 255 0 255
0.320175 -0.727953 0.277035 255 0 255
0.396049 -0.660249 0.095035 255 0 255
0.411803 -0.696312 0.346114 255 0 255
0.445086 -0.736102 0.431035 255 0 255
0.392041 -0.741184 0.125283 255 0 255
0.375214 -0.724160 0.267035 255 0 255
0.393856 -0.655694 0.216095 255 0 255
0.354872 -0.733284 0.240060 255 0 255
0.369806 -0.687386 0.349035 255 0 255
0.397258 -0.601210 0.443441 255 0 255
0.438846 -0.617182 0.355035 255 0 255
0.447490 -0.730421 0.421035 255 0 255
0.456319 -0.631176 0.181035 255 0 255
0.371354 -0.732697 0.123738 255 0 255
0.444569 -0.744170 0.430121 255 0 255
0.420667 -0.760420 0.441035 255 0 255
0.454694 -0.670670 0.475035 255 0 255
0.352402 -0.706422 0.205035 255 0 255
0.388621 -0.699564 0.471717 255 0 255
0.297838 -0.688446 0.109035 255 0 255
0.391151 -0.653074 0.287035 255 0 255
0.353329 -0.740541 0.247035 255 0 255
0.428731 -0.708090 0.277035 255 0 255
0.420398 -0.559683 0.465035 255 0 255
0.402534 -0.655493 0.219035 255 0 255
0.418011 -0.734437 0.440189 255 0 255
0.348606 -0.705050 -0.002965 255 0 255
0.330230 -0.676062 0.043035 255 0 255
0.402097 -0.655400 0.343814 255 0 255
0.477561 -0.675529 0.105702 255 0 255
0.389121 -0.644464 0.431035 255 0 255
0.417747 -0.658726 0.266349 255 0 255
0.323893 -0.667403 0.216134 255 0 255
0.331759 -0.685432 0.033035 255 0 255
0.426650 -0.636082 0.366620 255 0 255
0.425790 -0.707464 0.242068 255 0 255
0.457582 -0.673327 0.113153 255 0 255
0.340204 -0.648379 0.464079 255 0 255
0.479790 -0.588083 0.351561 255 0 255
0.372941 -0.763705 0.435173 255 0 255
0.393506 -0.638103 0.401035 255 0 255
0.368963 -0.638134 0.121960 255 0 255
0.367640 -0.682836 0.185977 255 0 255
0.303668 -0.685596 0.469480 255 0 255
0.452394 -0.745834 0.344219 255 0 255
0.325810 -0.727107 0.167035 255 0 255
0.311862 -0.656667 0.464182 255 0 255
0.353652 -0.681308 0.073035 255 0 255
0.407542 -0.742434 0.363035 255 0 255
0.356971 -0.690792 0.389035 255 0 255
0.417838 -0.681237 0.185035 255 0 255
0.319782 -0.715601 0.160165 255 0 255
0.385199 -0.657943 0.183292 255 0 255
0.396409 -0.623521 0.111035 255 0 255
0.316822 -0.748765 0.269035 255 0 255
0.342092 -0.673316 0.283035 255 0 255
0.395384 -0.711225 0.237035 255 0 255
0.375641 -0.683674 0.409035 255 0 255
0.444890 -0.684942 0.283634 255 0 255
0.377381 -0.631745 0.465035 255 0 255
0.383266 -0.682068 0.161035 255 0 255
0.452640 -0.725439 0.424948 255 0 255
0.387362 -0.680893 0.189035 255 0 255
0.438529 -0.724484 0.389621 255 0 255
0.348861 -0.646130 0.307855 255 0 255
0.419652 -0.640144 0.355035 255 0 255
0.352055 -0.688823 0.095035 255 0 255
0.351604 -0.652461 0.283035 255 0 255
0.394711 -0.632431 0.349035 255 0 255
0.371691 -0.781842 0.185035 255 0 255
