ply
format ascii 1.0
element vertex 1323
property float x
property float y
property float z
property uchar red
property uchar green
property uchar blue
end_header
0.357955 -0.319148 -0.029752 0 0 255
0.199150 -0.323830 0.127377 0 0 255
0.147181 -0.320397 0.024248 0 0 255
0.420360 -0.256285 0.124248 0 0 255
0.415980 -0.257762 0.008248 0 0 255
0.145135 -0.287825 -0.027752 0 0 255
0.420134 -0.300588 0.050248 0 0 255
0.300228 -0.321170 0.056248 0 0 255
0.139866 -0.227890 0.100248 0 0 255
0.238619 -0.281365 0.122248 0 0 255
0.245050 -0.327450 -0.030686 0 0 255
0.403810 -0.150402 -0.021752 0 0 255
0.145456 -0.301614 0.126248 0 0 255
0.183754 -0.203053 0.127963 0 0 255
0.203497 -0.337654 0.072248 0 0 255
0.134928 -0.174021 -0.017752 0 0 255
0.408419 -0.204443 0.112248 0 0 255
0.274510 -0.185986 0.127159 0 0 255
0.412082 -0.200863 0.022248 0 0 255
0.382404 -0.291925 0.127712 0 0 255
0.226730 -0.230495 0.121262 0 0 255
0.281722 -0.307773 0.127633 0 0 255
0.365789 -0.181074 0.127590 0 0 255
0.146269 -0.220616 0.020248 0 0 255
0.321440 -0.263286 0.122248 0 0 255
0.316997 -0.209338 0.122248 0 0 255
0.408689 -0.168206 0.080248 0 0 255
0.153110 -0.296012 0.078248 0 0 255
0.366457 -0.323331 0.096248 0 0 255
0.339244 -0.331628 0.010248 0 0 255
0.143405 -0.187037 0.082248 0 0 255
0.416116 -0.279944 -0.030542 0 0 255
0.381575 -0.315086 0.012248 0 0 255
0.413120 -0.271516 0.083229 0 0 255
0.187199 -0.339104 0.014248 0 0 255
0.307393 -0.328448 0.098248 0 0 255
0.149276 -0.261286 0.006248 0 0 255
0.160736 -0.341278 0.127186 0 0 255
0.270802 -0.331063 0.028248 0 0 255
0.141414 -0.260320 0.126248 0 0 255
0.144643 -0.339302 -0.011752 0 0 255
0.138900 -0.221726 0.060248 0 0 255
0.239827 -0.320764 0.127539 0 0 255
0.169583 -0.340350 0.050248 0 0 255
0.399038 -0.320561 0.076248 0 0 255
0.413358 -0.263485 0.046248 0 0 255
0.212678 -0.328521 -0.011752 0 0 255
0.413340 -0.243333 -0.025752 0 0 255
0.247143 -0.326819 0.056248 0 0 255
0.141951 -0.262401 0.088248 0 0 255
0.334697 -0.319421 0.076248 0 0 255
0.322075 -0.323761 -0.029752 0 0 255
0.393618 -0.315467 -0.030674 0 0 255
0.203537 -0.288098 0.121285 0 0 255
0.240799 -0.197967 0.127719 0 0 255
0.357169 -0.267693 0.122248 0 0 255
0.407330 -0.196249 0.058248 0 0 255
0.285986 -0.273052 0.122248 0 0 255
0.415806 -0.291996 0.016248 0 0 255
0.162232 -0.230636 0.127486 0 0 255
0.169500 -0.171444 0.124248 0 0 255
0.183113 -0.339567 0.100248 0 0 255
0.410476 -0.180515 -0.005752 0 0 255
0.393443 -0.234845 0.123372 0 0 255
0.418867 -0.290357 0.127493 0 0 255
0.219865 -0.335640 0.102248 0 0 255
0.152568 -0.292933 0.044248 0 0 255
0.394917 -0.321299 0.042248 0 0 255
0.414346 -0.233381 0.032248 0 0 255
0.328633 -0.319578 0.039286 0 0 255
0.414687 -0.235438 0.098248 0 0 255
0.136869 -0.207449 0.126248 0 0 255
0.152447 -0.293915 0.005248 0 0 255
0.136302 -0.191182 0.010248 0 0 255
0.264605 -0.332305 -0.003752 0 0 255
0.409851 -0.224769 0.000248 0 0 255
0.390883 -0.321334 0.118248 0 0 255
0.215133 -0.259297 0.127914 0 0 255
0.279772 -0.323654 -0.030712 0 0 255
0.198285 -0.330872 0.042248 0 0 255
0.250215 -0.252567 0.122248 0 0 255
0.149870 -0.257328 -0.029752 0 0 255
0.301291 -0.328911 0.026248 0 0 255
0.377309 -0.152897 0.124248 0 0 255
0.281871 -0.322971 0.082248 0 0 255
0.173274 -0.288413 0.127663 0 0 255
0.148082 -0.321589 0.062248 0 0 255
0.195501 -0.230691 0.122248 0 0 255
0.336033 -0.185480 0.122248 0 0 255
0.377513 -0.208708 0.122248 0 0 255
0.309965 -0.291090 0.127407 0 0 255
0.396053 -0.180759 0.127715 0 0 255
0.154674 -0.316354 -0.029752 0 0 255
0.420803 -0.300670 0.082248 0 0 255
0.211267 -0.192326 0.123450 0 0 255
0.362292 -0.323711 0.126248 0 0 255
0.307807 -0.325081 0.127699 0 0 255
0.266634 -0.332194 0.120248 0 0 255
0.154646 -0.316350 0.102248 0 0 255
0.289682 -0.160895 0.124248 0 0 255
0.255111 -0.163454 0.123974 0 0 255
0.391772 -0.264865 0.121268 0 0 255
0.330929 -0.235229 0.121276 0 0 255
0.287466 -0.211757 0.121253 0 0 255
0.421409 -0.318879 0.027538 0 0 255
0.337820 -0.326807 0.104248 0 0 255
0.139163 -0.235863 -0.003752 0 0 255
0.348708 -0.156077 0.124248 0 0 255
0.412715 -0.209172 0.084248 0 0 255
0.152633 -0.283863 0.104248 0 0 255
0.407180 -0.155787 0.008248 0 0 255
0.253755 -0.223738 0.127726 0 0 255
0.137373 -0.203346 -0.015752 0 0 255
0.302789 -0.185429 0.127602 0 0 255
0.274766 -0.331603 0.056248 0 0 255
0.405687 -0.177913 0.036248 0 0 255
0.144417 -0.195206 0.056248 0 0 255
0.231028 -0.326775 0.078248 0 0 255
0.198066 -0.168540 0.124648 0 0 255
0.160023 -0.341190 0.012248 0 0 255
0.171845 -0.316447 0.127867 0 0 255
0.238123 -0.326600 -0.001752 0 0 255
0.357276 -0.316052 0.024248 0 0 255
0.355866 -0.294711 0.121262 0 0 255
0.344024 -0.210642 0.127667 0 0 255
0.304880 -0.234045 0.127623 0 0 255
0.173981 -0.331876 0.076248 0 0 255
0.264065 -0.287470 0.127871 0 0 255
0.148247 -0.246071 0.028248 0 0 255
0.362317 -0.324226 -0.003752 0 0 255
0.402804 -0.151363 0.100248 0 0 255
0.148491 -0.244086 0.070248 0 0 255
0.409800 -0.178417 0.104248 0 0 255
0.221845 -0.335922 0.052248 0 0 255
0.373386 -0.316132 0.072248 0 0 255
0.418278 -0.227818 0.124248 0 0 255
0.403815 -0.150364 0.062248 0 0 255
0.144080 -0.278782 0.024248 0 0 255
0.417904 -0.306359 -0.029752 0 0 255
0.159404 -0.196034 0.122248 0 0 255
0.406467 -0.178008 -0.030708 0 0 255
0.338922 -0.317832 -0.011752 0 0 255
0.154366 -0.318331 -0.001752 0 0 255
0.144492 -0.202262 0.102248 0 0 255
0.413138 -0.279578 -0.005752 0 0 255
0.219209 -0.308157 0.121261 0 0 255
0.148583 -0.341801 0.036886 0 0 255
0.138212 -0.235747 0.124248 0 0 255
0.413791 -0.275628 0.108248 0 0 255
0.317529 -0.320230 0.008248 0 0 255
0.151901 -0.273697 0.068248 0 0 255
0.421388 -0.319052 0.066248 0 0 255
0.340667 -0.336447 0.058248 0 0 255
0.335005 -0.284090 0.127896 0 0 255
0.397035 -0.320458 -0.005752 0 0 255
0.285829 -0.323564 0.108248 0 0 255
0.136771 -0.201314 0.032248 0 0 255
0.173982 -0.331865 -0.005752 0 0 255
0.134936 -0.173949 0.062248 0 0 255
0.219799 -0.336177 0.126248 0 0 255
0.134939 -0.173934 0.100248 0 0 255
0.145499 -0.210447 0.080248 0 0 255
0.211686 -0.336608 0.010248 0 0 255
0.416293 -0.253770 0.068248 0 0 255
0.148803 -0.249138 0.106248 0 0 255
0.418615 -0.280250 0.062248 0 0 255
0.387779 -0.313792 0.096248 0 0 255
0.373383 -0.250517 0.121276 0 0 255
0.408160 -0.213448 0.042248 0 0 255
0.259398 -0.309062 0.121297 0 0 255
0.313521 -0.327778 0.074248 0 0 255
0.410230 -0.311462 0.127364 0 0 255
0.250409 -0.333044 0.018248 0 0 255
0.406522 -0.202195 0.000248 0 0 255
0.147496 -0.337638 0.108248 0 0 255
0.163556 -0.269084 0.121284 0 0 255
0.300213 -0.255638 0.121272 0 0 255
0.210570 -0.214406 0.127557 0 0 255
0.158052 -0.338934 -0.029752 0 0 255
0.409155 -0.172516 0.058248 0 0 255
0.203643 -0.336472 -0.030631 0 0 255
0.146755 -0.323866 0.126248 0 0 255
0.183175 -0.339053 0.124248 0 0 255
0.418044 -0.272120 0.026248 0 0 255
0.420221 -0.296569 0.104248 0 0 255
0.403898 -0.313800 0.014248 0 0 255
0.262269 -0.203630 0.122248 0 0 255
0.143182 -0.270905 -0.013752 0 0 255
0.173984 -0.331853 0.030248 0 0 255
0.239216 -0.325737 0.106248 0 0 255
0.200525 -0.329040 0.092248 0 0 255
0.138410 -0.227711 0.039288 0 0 255
0.301221 -0.329492 -0.023752 0 0 255
0.377616 -0.314511 -0.015752 0 0 255
0.340647 -0.254557 0.127389 0 0 255
0.261536 -0.324471 0.072248 0 0 255
0.189432 -0.304501 0.121269 0 0 255
0.342991 -0.333933 0.032248 0 0 255
0.354410 -0.326773 0.072248 0 0 255
0.266746 -0.265634 0.127826 0 0 255
0.286093 -0.321408 0.040248 0 0 255
0.279891 -0.322683 0.010248 0 0 255
0.193405 -0.337796 -0.011752 0 0 255
0.374576 -0.322859 0.034248 0 0 255
0.405797 -0.175911 0.014248 0 0 255
0.150530 -0.342358 0.060248 0 0 255
0.406078 -0.190051 0.078248 0 0 255
0.145019 -0.214417 0.000248 0 0 255
0.224224 -0.332953 -0.030525 0 0 255
0.187263 -0.330430 0.060248 0 0 255
0.399851 -0.215482 0.127697 0 0 255
0.416424 -0.255801 0.102248 0 0 255
0.144568 -0.303023 -0.011752 0 0 255
0.201462 -0.337818 0.112248 0 0 255
0.147080 -0.315421 0.082248 0 0 255
0.416568 -0.259849 -0.013738 0 0 255
0.143984 -0.280786 0.127443 0 0 255
0.420680 -0.298640 -0.003752 0 0 255
0.154948 -0.314372 0.044248 0 0 255
0.404149 -0.311752 0.058248 0 0 255
0.320559 -0.319696 0.112248 0 0 255
0.145542 -0.299112 0.026248 0 0 255
0.414740 -0.243504 0.050248 0 0 255
0.400435 -0.284064 0.122248 0 0 255
0.285240 -0.328355 0.127819 0 0 255
0.254660 -0.183549 0.123426 0 0 255
0.240279 -0.300669 0.127879 0 0 255
0.247401 -0.324718 0.036248 0 0 255
0.377612 -0.314546 0.052248 0 0 255
0.159795 -0.250487 0.127468 0 0 255
0.141194 -0.188639 -0.029752 0 0 255
0.322549 -0.319892 0.058248 0 0 255
0.408114 -0.312288 0.094248 0 0 255
0.409860 -0.224770 -0.019752 0 0 255
0.314359 -0.320956 -0.011752 0 0 255
0.412462 -0.253300 0.028248 0 0 255
0.373645 -0.314024 0.112248 0 0 255
0.262484 -0.333163 -0.023752 0 0 255
0.147788 -0.240952 0.050248 0 0 255
0.413087 -0.189726 0.124248 0 0 255
0.165797 -0.332884 0.094248 0 0 255
0.178092 -0.240643 0.122248 0 0 255
0.139708 -0.229885 0.080248 0 0 255
0.168396 -0.213258 0.121261 0 0 255
0.145144 -0.301078 0.060248 0 0 255
0.353306 -0.315566 0.108248 0 0 255
0.414677 -0.283797 0.042248 0 0 255
0.184082 -0.183970 0.122248 0 0 255
0.410171 -0.238913 0.014248 0 0 255
0.134044 -0.174784 0.020248 0 0 255
0.299832 -0.307982 0.121248 0 0 255
0.424690 -0.311222 0.010248 0 0 255
0.141680 -0.175721 0.000248 0 0 255
0.232999 -0.261491 0.121298 0 0 255
0.414665 -0.242520 -0.005752 0 0 255
0.417294 -0.319574 0.046248 0 0 255
0.374672 -0.272840 0.128063 0 0 255
0.221646 -0.288306 0.127672 0 0 255
0.152444 -0.179059 0.128192 0 0 255
0.148526 -0.251119 -0.011752 0 0 255
0.200227 -0.249406 0.121287 0 0 255
0.267739 -0.323196 0.102248 0 0 255
0.311549 -0.327433 0.042248 0 0 255
0.199775 -0.269501 0.121258 0 0 255
0.324534 -0.320144 0.092248 0 0 255
0.394277 -0.162406 0.121256 0 0 255
0.361367 -0.200681 0.128075 0 0 255
0.145211 -0.301087 0.096248 0 0 255
0.409417 -0.219618 0.020248 0 0 255
0.211676 -0.336689 0.030248 0 0 255
0.347107 -0.316819 0.090248 0 0 255
0.142501 -0.268514 0.108248 0 0 255
0.229049 -0.211609 0.122248 0 0 255
0.291856 -0.290882 0.121261 0 0 255
0.340901 -0.318132 0.054248 0 0 255
0.412385 -0.170675 0.124248 0 0 255
0.146257 -0.220614 0.116248 0 0 255
0.144276 -0.280822 0.086248 0 0 255
0.319889 -0.177453 0.127842 0 0 255
0.228366 -0.184351 0.123467 0 0 255
0.336937 -0.317590 0.022248 0 0 255
0.151881 -0.273695 0.042248 0 0 255
0.144236 -0.188126 0.114248 0 0 255
0.306204 -0.272493 0.127379 0 0 255
0.272352 -0.219977 0.128111 0 0 255
0.344151 -0.324487 0.122248 0 0 255
0.392892 -0.198506 0.122248 0 0 255
0.169761 -0.333429 0.112248 0 0 255
0.409597 -0.242873 0.082248 0 0 255
0.148322 -0.236988 0.012248 0 0 255
0.279640 -0.324728 -0.011752 0 0 255
0.272734 -0.167633 0.126744 0 0 255
0.411587 -0.194757 0.096248 0 0 255
0.145518 -0.210448 0.046248 0 0 255
0.395081 -0.303556 0.121276 0 0 255
0.411189 -0.194708 0.040248 0 0 255
0.403647 -0.250203 0.127711 0 0 255
0.340056 -0.325011 -0.028447 0 0 255
0.376308 -0.226696 0.123378 0 0 255
0.149346 -0.245173 0.088248 0 0 255
0.403807 -0.150431 0.082248 0 0 255
0.408587 -0.218569 0.100248 0 0 255
0.412167 -0.213631 0.060248 0 0 255
0.416538 -0.302161 0.032248 0 0 255
0.349091 -0.317072 0.006248 0 0 255
0.295708 -0.329641 0.072248 0 0 255
0.392612 -0.323667 0.024248 0 0 255
0.141872 -0.262391 0.032248 0 0 255
0.409196 -0.319888 -0.021752 0 0 255
0.368543 -0.306343 0.127600 0 0 255
0.405605 -0.163797 -0.009752 0 0 255
0.321682 -0.326959 0.024248 0 0 255
0.263520 -0.324728 0.044248 0 0 255
0.406627 -0.193107 -0.017752 0 0 255
0.424147 -0.317200 0.088248 0 0 255
0.152415 -0.285851 -0.011752 0 0 255
0.143903 -0.278761 0.002248 0 0 255
0.335247 -0.167248 0.127551 0 0 255
0.282104 -0.255430 0.123429 0 0 255
0.188968 -0.338700 0.082248 0 0 255
0.411135 -0.271272 0.127546 0 0 255
0.144818 -0.208348 -0.030755 0 0 255
0.143672 -0.283322 0.056248 0 0 255
0.245931 -0.333604 0.072248 0 0 255
0.217766 -0.336326 0.084248 0 0 255
0.234949 -0.245609 0.128065 0 0 255
0.315956 -0.307946 0.127684 0 0 255
0.379162 -0.170626 0.123424 0 0 255
0.163627 -0.301332 0.121313 0 0 255
0.248303 -0.333787 -0.013752 0 0 255
0.211859 -0.236729 0.127500 0 0 255
0.388620 -0.323356 0.062248 0 0 255
0.140077 -0.242020 -0.023752 0 0 255
0.316563 -0.245555 0.122248 0 0 255
0.355517 -0.248323 0.121276 0 0 255
0.411732 -0.243135 0.114248 0 0 255
0.361403 -0.216806 0.121253 0 0 255
0.407952 -0.162070 0.024248 0 0 255
0.156989 -0.330743 0.074248 0 0 255
0.261851 -0.239857 0.122248 0 0 255
0.248292 -0.333878 0.118248 0 0 255
0.250134 -0.269639 0.127573 0 0 255
0.325916 -0.325289 0.127551 0 0 255
0.420167 -0.292532 -0.019752 0 0 255
0.138503 -0.221677 -0.013752 0 0 255
0.289537 -0.194890 0.122248 0 0 255
0.183919 -0.275614 0.122248 0 0 255
0.350640 -0.173168 0.123340 0 0 255
0.236063 -0.335001 0.092248 0 0 255
0.415034 -0.297946 0.066248 0 0 255
0.304983 -0.167562 0.127419 0 0 255
0.146431 -0.309296 0.010248 0 0 255
0.351931 -0.310349 0.127800 0 0 255
0.414497 -0.285790 0.092248 0 0 255
0.141667 -0.260350 0.070248 0 0 255
0.181317 -0.222904 0.127216 0 0 255
0.161393 -0.341359 -0.011752 0 0 255
0.234132 -0.334318 0.040248 0 0 255
0.364013 -0.162720 0.127422 0 0 255
0.227973 -0.335251 -0.013752 0 0 255
0.424916 -0.305204 0.122248 0 0 255
0.147686 -0.329600 0.010248 0 0 255
0.413196 -0.263466 -0.029752 0 0 255
0.218878 -0.327266 0.066248 0 0 255
0.346860 -0.318830 0.038248 0 0 255
0.142181 -0.187874 -0.011752 0 0 255
0.241739 -0.173903 0.127710 0 0 255
0.134666 -0.188966 0.044248 0 0 255
0.263520 -0.324733 0.012248 0 0 255
0.138036 -0.207515 0.014248 0 0 255
0.418518 -0.276789 0.010248 0 0 255
0.189259 -0.338736 0.030809 0 0 255
0.143406 -0.187032 0.026248 0 0 255
0.228387 -0.335479 0.008248 0 0 255
0.414293 -0.225314 0.080248 0 0 255
0.366433 -0.323527 0.012248 0 0 255
0.213216 -0.176445 0.127502 0 0 255
0.302860 -0.217677 0.127933 0 0 255
0.321909 -0.193821 0.127803 0 0 255
0.156117 -0.329675 0.050248 0 0 255
0.381183 -0.186994 0.123361 0 0 255
0.404151 -0.311739 0.110248 0 0 255
0.404031 -0.312715 0.031271 0 0 255
0.302206 -0.321464 0.112248 0 0 255
0.198286 -0.330864 0.002248 0 0 255
0.412348 -0.208955 -0.013752 0 0 255
0.339203 -0.330951 0.088248 0 0 255
0.194446 -0.214441 0.121269 0 0 255
0.137071 -0.203366 0.068248 0 0 255
0.298247 -0.320885 0.012248 0 0 255
0.155445 -0.326524 -0.015752 0 0 255
0.182168 -0.330841 0.044248 0 0 255
0.378620 -0.322735 -0.001752 0 0 255
0.204490 -0.329566 0.058248 0 0 255
0.408770 -0.164186 0.044248 0 0 255
0.330895 -0.219104 0.123468 0 0 255
0.289486 -0.228125 0.123370 0 0 255
0.200270 -0.331119 0.020248 0 0 255
0.291134 -0.329582 0.094248 0 0 255
0.327812 -0.326264 -0.003752 0 0 255
0.152515 -0.211307 0.127768 0 0 255
0.287639 -0.177523 0.123385 0 0 255
0.340681 -0.270681 0.121250 0 0 255
0.217398 -0.273680 0.121268 0 0 255
0.157611 -0.333916 0.026248 0 0 255
0.302210 -0.321433 0.084248 0 0 255
0.326397 -0.297138 0.122248 0 0 255
0.413354 -0.227214 0.048248 0 0 255
0.344059 -0.226766 0.127848 0 0 255
0.134165 -0.174799 0.078248 0 0 255
0.205800 -0.302481 0.127537 0 0 255
0.135026 -0.189629 0.098248 0 0 255
0.157392 -0.286462 0.121256 0 0 255
0.378671 -0.322325 0.086248 0 0 255
0.247276 -0.210853 0.121258 0 0 255
0.405467 -0.163780 0.110248 0 0 255
0.375021 -0.319228 -0.030553 0 0 255
0.361240 -0.316600 0.082248 0 0 255
0.411458 -0.190712 0.010248 0 0 255
0.147443 -0.327556 0.092248 0 0 255
0.319493 -0.279136 0.122248 0 0 255
0.302824 -0.201553 0.127280 0 0 255
0.268764 -0.331247 0.086248 0 0 255
0.150915 -0.273577 -0.030754 0 0 255
0.387523 -0.250238 0.127998 0 0 255
0.350675 -0.189293 0.127618 0 0 255
0.411238 -0.204789 0.128057 0 0 255
0.414443 -0.285784 0.076248 0 0 255
0.368996 -0.286249 0.121277 0 0 255
0.270334 -0.318464 0.127522 0 0 255
0.173986 -0.331837 0.010248 0 0 255
0.153701 -0.300114 0.109258 0 0 255
0.195907 -0.194470 0.122248 0 0 255
0.234088 -0.334675 0.062248 0 0 255
0.137368 -0.213478 0.094248 0 0 255
0.316024 -0.225339 0.121262 0 0 255
0.229990 -0.335239 0.114248 0 0 255
0.189154 -0.290362 0.127527 0 0 255
0.140645 -0.252165 0.016248 0 0 255
0.242485 -0.233465 0.122248 0 0 255
0.136842 -0.191248 0.127424 0 0 255
0.185498 -0.320139 0.121315 0 0 255
0.377006 -0.319472 0.127535 0 0 255
0.425624 -0.317382 -0.022388 0 0 255
0.416638 -0.255828 0.086248 0 0 255
0.410099 -0.312532 0.000248 0 0 255
0.276531 -0.202354 0.127479 0 0 255
0.352273 -0.323981 -0.015752 0 0 255
0.285837 -0.323492 0.024248 0 0 255
0.255707 -0.322714 0.127504 0 0 255
0.166838 -0.340821 0.066248 0 0 255
0.152334 -0.301961 -0.025752 0 0 255
0.148565 -0.235003 0.112248 0 0 255
0.215518 -0.321810 0.127756 0 0 255
0.145040 -0.198299 0.000248 0 0 255
0.411239 -0.311586 0.078248 0 0 255
0.220861 -0.327522 0.038248 0 0 255
0.281871 -0.322974 0.066248 0 0 255
0.156488 -0.326651 0.115248 0 0 255
0.169760 -0.333432 -0.021752 0 0 255
0.408172 -0.164113 0.094594 0 0 255
0.357272 -0.316088 0.062248 0 0 255
0.276240 -0.295009 0.122248 0 0 255
0.341364 -0.297948 0.122248 0 0 255
0.291626 -0.243520 0.122248 0 0 255
0.403258 -0.163509 -0.029752 0 0 255
0.154586 -0.309317 0.068248 0 0 255
0.351374 -0.282070 0.127665 0 0 255
0.156209 -0.312512 0.127639 0 0 255
0.405236 -0.179872 0.090248 0 0 255
0.148560 -0.341985 0.002248 0 0 255
0.143995 -0.290862 0.116248 0 0 255
0.224674 -0.198003 0.127669 0 0 255
0.214654 -0.328846 0.114248 0 0 255
0.409415 -0.228745 0.112248 0 0 255
0.150874 -0.265512 0.020248 0 0 255
0.252149 -0.294067 0.122248 0 0 255
0.188109 -0.331692 0.112248 0 0 255
0.169579 -0.187207 0.128076 0 0 255
0.139638 -0.225847 0.008248 0 0 255
0.136657 -0.187195 0.068248 0 0 255
0.385798 -0.313515 0.032248 0 0 255
0.146283 -0.311293 0.115354 0 0 255
0.341066 -0.333195 0.072440 0 0 255
0.388081 -0.278516 0.127637 0 0 255
0.140625 -0.234028 0.024248 0 0 255
0.251367 -0.325241 0.004248 0 0 255
0.416959 -0.265942 0.060248 0 0 255
0.351833 -0.327568 0.016248 0 0 255
0.335196 -0.200489 0.122248 0 0 255
0.289122 -0.329561 0.052248 0 0 255
0.150053 -0.271456 0.096248 0 0 255
0.144553 -0.286901 0.070248 0 0 255
0.410733 -0.186592 0.024248 0 0 255
0.148102 -0.325622 0.038248 0 0 255
0.220689 -0.246875 0.122248 0 0 255
0.147312 -0.329555 -0.027752 0 0 255
0.260568 -0.332359 0.060248 0 0 255
0.411699 -0.202831 0.070248 0 0 255
0.361240 -0.316600 0.038248 0 0 255
0.143262 -0.179946 0.052248 0 0 255
0.192341 -0.330051 -0.023752 0 0 255
0.405981 -0.296835 0.127679 0 0 255
0.258485 -0.332913 0.108248 0 0 255
0.137888 -0.215556 0.031455 0 0 255
0.197413 -0.337973 0.126248 0 0 255
0.410428 -0.184540 0.050248 0 0 255
0.149077 -0.247155 0.002248 0 0 255
0.137524 -0.199392 0.086248 0 0 255
0.332719 -0.319122 0.008248 0 0 255
0.141390 -0.250242 0.040248 0 0 255
0.345742 -0.327933 -0.003752 0 0 255
0.164799 -0.341010 0.036248 0 0 255
0.139421 -0.235895 0.061008 0 0 255
0.413296 -0.213103 0.008248 0 0 255
0.137492 -0.209463 0.112248 0 0 255
0.329731 -0.327047 -0.017752 0 0 255
0.183804 -0.169822 0.122248 0 0 255
0.172125 -0.330586 0.127513 0 0 255
0.185203 -0.338950 0.000248 0 0 255
0.344338 -0.240906 0.127793 0 0 255
0.382683 -0.306065 0.127735 0 0 255
0.407338 -0.236551 0.127734 0 0 255
0.147565 -0.226820 0.050248 0 0 255
0.415983 -0.306123 -0.015752 0 0 255
0.307387 -0.328500 0.002248 0 0 255
0.268333 -0.252704 0.122248 0 0 255
0.366508 -0.322921 -0.017752 0 0 255
0.164834 -0.340732 0.082248 0 0 255
0.275801 -0.331227 0.042248 0 0 255
0.160630 -0.341266 0.104248 0 0 255
0.147611 -0.337652 0.122248 0 0 255
0.403267 -0.163510 0.068248 0 0 255
0.141695 -0.248265 0.118248 0 0 255
0.150095 -0.255341 0.060248 0 0 255
0.410600 -0.184561 0.066248 0 0 255
0.146882 -0.315397 -0.017752 0 0 255
0.418279 -0.270134 0.096248 0 0 255
0.146754 -0.232765 -0.015752 0 0 255
0.406016 -0.190043 0.112248 0 0 255
0.417595 -0.274081 -0.017752 0 0 255
0.245160 -0.326559 0.084248 0 0 255
0.273224 -0.278520 0.121259 0 0 255
0.341554 -0.329224 0.045790 0 0 255
0.385799 -0.313511 0.078248 0 0 255
0.258461 -0.325067 0.026248 0 0 255
0.161574 -0.334463 0.000248 0 0 255
0.151383 -0.261544 0.116248 0 0 255
0.370499 -0.323236 0.060248 0 0 255
0.222846 -0.327775 -0.001752 0 0 255
0.397947 -0.313031 -0.017752 0 0 255
0.180186 -0.330578 0.090248 0 0 255
0.147821 -0.224836 0.070248 0 0 255
0.234150 -0.334172 0.127296 0 0 255
0.237874 -0.221789 0.127818 0 0 255
0.151087 -0.239343 0.127321 0 0 255
0.423220 -0.276786 0.124248 0 0 255
0.227672 -0.321287 0.121295 0 0 255
0.238964 -0.327792 0.012248 0 0 255
0.171218 -0.255919 0.121262 0 0 255
0.180348 -0.339656 -0.015752 0 0 255
0.417665 -0.267324 -0.001752 0 0 255
0.388210 -0.220098 0.122248 0 0 255
0.151867 -0.289814 0.018248 0 0 255
0.413926 -0.289750 0.114248 0 0 255
0.378669 -0.322341 0.102248 0 0 255
0.310394 -0.320429 0.020248 0 0 255
0.177523 -0.303039 0.127714 0 0 255
0.418719 -0.286309 0.028248 0 0 255
0.408864 -0.174273 -0.017752 0 0 255
0.311533 -0.327556 0.060248 0 0 255
0.413264 -0.263474 0.114248 0 0 255
0.424649 -0.311218 0.038248 0 0 255
0.148556 -0.342017 0.020248 0 0 255
0.373524 -0.315015 0.023250 0 0 255
0.300230 -0.321150 0.038248 0 0 255
0.153631 -0.308166 0.032248 0 0 255
0.152389 -0.285848 0.032248 0 0 255
0.392902 -0.321296 0.008248 0 0 255
0.402838 -0.151367 -0.003752 0 0 255
0.145159 -0.304036 0.046248 0 0 255
0.140563 -0.242080 0.098248 0 0 255
0.200330 -0.182923 0.127531 0 0 255
0.191033 -0.242232 0.127968 0 0 255
0.290062 -0.321903 -0.019752 0 0 255
0.151402 -0.269606 0.127885 0 0 255
0.274775 -0.331529 0.074248 0 0 255
0.404610 -0.169721 0.002248 0 0 255
0.329467 -0.247139 0.127622 0 0 255
0.140888 -0.174710 -0.029752 0 0 255
0.140887 -0.174720 0.112248 0 0 255
0.380801 -0.239338 0.123412 0 0 255
0.333105 -0.326172 0.064248 0 0 255
0.170940 -0.340232 0.020248 0 0 255
0.284996 -0.330340 -0.000854 0 0 255
0.421351 -0.308797 0.098248 0 0 255
0.421441 -0.318625 0.126248 0 0 255
0.279890 -0.322686 0.096248 0 0 255
0.139142 -0.221756 0.127468 0 0 255
0.402776 -0.151359 0.114248 0 0 255
0.292658 -0.317176 0.127686 0 0 255
0.234999 -0.327264 -0.021752 0 0 255
0.229552 -0.273158 0.127499 0 0 255
0.209699 -0.336373 0.046248 0 0 255
0.413197 -0.217120 0.118248 0 0 255
0.152810 -0.290963 0.092248 0 0 255
0.259328 -0.276813 0.121255 0 0 255
0.308412 -0.320152 -0.029752 0 0 255
0.228488 -0.298232 0.122248 0 0 255
0.224823 -0.328079 0.092248 0 0 255
0.171963 -0.200613 0.122248 0 0 255
0.240250 -0.333721 0.028248 0 0 255
0.206324 -0.314636 0.121286 0 0 255
0.416019 -0.306127 0.112248 0 0 255
0.183169 -0.339101 0.070248 0 0 255
0.398582 -0.320106 0.100248 0 0 255
0.151634 -0.275680 0.116248 0 0 255
0.366209 -0.259711 0.127422 0 0 255
0.413928 -0.289750 0.054248 0 0 255
0.332599 -0.326110 0.116248 0 0 255
0.261540 -0.324442 -0.013752 0 0 255
0.392707 -0.322891 0.088248 0 0 255
0.145516 -0.210448 0.060248 0 0 255
0.213669 -0.336863 -0.021752 0 0 255
0.344757 -0.319543 0.067245 0 0 255
0.241258 -0.185933 0.122248 0 0 255
0.192339 -0.330062 0.072248 0 0 255
0.151280 -0.270603 0.082248 0 0 255
0.145945 -0.215576 0.104248 0 0 255
0.214656 -0.328829 0.020248 0 0 255
0.274854 -0.330879 0.110248 0 0 255
0.419312 -0.288397 0.004248 0 0 255
0.148022 -0.198666 0.127947 0 0 255
0.412965 -0.211047 0.030248 0 0 255
0.141655 -0.260349 -0.005752 0 0 255
0.424552 -0.311205 0.056248 0 0 255
0.231029 -0.326769 0.052248 0 0 255
0.151633 -0.275680 0.012248 0 0 255
0.150104 -0.255342 0.080248 0 0 255
0.142640 -0.176860 0.090248 0 0 255
0.173984 -0.331852 0.060248 0 0 255
0.142347 -0.270510 0.058248 0 0 255
0.147396 -0.329566 -0.003752 0 0 255
0.265559 -0.176828 0.121251 0 0 255
0.403792 -0.150551 0.020248 0 0 255
0.146259 -0.220615 0.088248 0 0 255
0.193318 -0.338500 0.052248 0 0 255
0.415285 -0.319531 0.016248 0 0 255
0.144999 -0.198295 0.020248 0 0 255
0.252438 -0.332924 0.046248 0 0 255
0.153874 -0.306180 0.088248 0 0 255
0.418200 -0.306395 0.020248 0 0 255
0.405877 -0.314089 0.044248 0 0 255
0.388812 -0.321790 -0.019752 0 0 255
0.143218 -0.179941 0.012248 0 0 255
0.231120 -0.309620 0.127627 0 0 255
0.399330 -0.318184 0.127599 0 0 255
0.201620 -0.205247 0.127733 0 0 255
0.411238 -0.247104 0.094248 0 0 255
0.364486 -0.322972 0.112248 0 0 255
0.145012 -0.198296 0.042248 0 0 255
0.293180 -0.329330 0.116971 0 0 255
0.408923 -0.216595 0.072248 0 0 255
0.140811 -0.257393 -0.019752 0 0 255
0.424672 -0.311220 0.076248 0 0 255
0.393980 -0.312518 0.066248 0 0 255
0.405576 -0.177898 0.116248 0 0 255
0.353844 -0.327596 0.030248 0 0 255
0.319606 -0.327460 0.102248 0 0 255
0.135537 -0.197133 0.116248 0 0 255
0.137770 -0.216520 0.072248 0 0 255
0.403314 -0.154452 0.050248 0 0 255
0.208449 -0.330148 0.102248 0 0 255
0.409730 -0.190499 -0.029752 0 0 255
0.380105 -0.261417 0.127673 0 0 255
0.418383 -0.243951 0.126248 0 0 255
0.142452 -0.258433 0.100248 0 0 255
0.148341 -0.236991 0.038248 0 0 255
0.160702 -0.325154 0.127493 0 0 255
0.253197 -0.195459 0.127385 0 0 255
0.205542 -0.337413 -0.005752 0 0 255
0.257569 -0.323957 0.084248 0 0 255
0.391748 -0.314292 0.052248 0 0 255
0.416017 -0.251721 0.040248 0 0 255
0.143205 -0.284720 0.042248 0 0 255
0.316598 -0.319129 0.034248 0 0 255
0.372024 -0.195944 0.123351 0 0 255
0.153675 -0.292051 0.058248 0 0 255
0.146538 -0.342037 -0.025752 0 0 255
0.154194 -0.304204 -0.003752 0 0 255
0.147893 -0.339702 0.072248 0 0 255
0.197384 -0.338212 0.100248 0 0 255
0.207123 -0.226072 0.121271 0 0 255
0.413040 -0.265461 0.072248 0 0 255
0.248985 -0.311814 0.127697 0 0 255
0.289027 -0.330333 0.014248 0 0 255
0.154399 -0.318335 0.014248 0 0 255
0.274745 -0.331769 -0.021752 0 0 255
0.297045 -0.281444 0.127594 0 0 255
0.215760 -0.204968 0.121260 0 0 255
0.282418 -0.285694 0.127753 0 0 255
0.304477 -0.328703 -0.011752 0 0 255
0.210690 -0.328313 0.076248 0 0 255
0.329887 -0.325777 0.049989 0 0 255
0.156244 -0.328637 0.101251 0 0 255
0.384215 -0.326402 0.075900 0 0 255
0.194586 -0.278939 0.127680 0 0 255
0.313438 -0.328456 -0.021752 0 0 255
0.164983 -0.241049 0.121283 0 0 255
0.409596 -0.242873 0.068248 0 0 255
0.354248 -0.324300 0.098248 0 0 255
0.312124 -0.257101 0.127625 0 0 255
0.418244 -0.274161 0.050248 0 0 255
0.295025 -0.265075 0.127420 0 0 255
0.412465 -0.206956 0.098248 0 0 255
0.416497 -0.302156 0.008248 0 0 255
0.150336 -0.269476 -0.003752 0 0 255
0.409184 -0.319393 0.068248 0 0 255
0.156666 -0.341612 0.046248 0 0 255
0.145020 -0.198297 0.076248 0 0 255
0.385799 -0.313505 -0.005752 0 0 255
0.412182 -0.255281 0.056248 0 0 255
0.411963 -0.204878 0.050248 0 0 255
0.369425 -0.315570 0.002248 0 0 255
0.322547 -0.319909 0.078248 0 0 255
0.146729 -0.232762 0.090248 0 0 255
0.412636 -0.267427 0.016248 0 0 255
0.409225 -0.319657 0.118248 0 0 255
0.304193 -0.321697 0.068248 0 0 255
0.351192 -0.326378 0.058248 0 0 255
0.351897 -0.327040 0.084248 0 0 255
0.385793 -0.313559 0.110248 0 0 255
0.144642 -0.290942 -0.003752 0 0 255
0.410317 -0.236917 -0.015752 0 0 255
0.154182 -0.304204 0.018248 0 0 255
0.197024 -0.259088 0.128021 0 0 255
0.221993 -0.219838 0.127873 0 0 255
0.404296 -0.261333 0.122248 0 0 255
0.382725 -0.322189 0.044248 0 0 255
0.340901 -0.318133 0.112248 0 0 255
0.333751 -0.326251 0.030248 0 0 255
0.146802 -0.323481 0.108248 0 0 255
0.315504 -0.328041 0.086263 0 0 255
0.265299 -0.228186 0.122248 0 0 255
0.272753 -0.331593 0.016248 0 0 255
0.150565 -0.227189 0.127763 0 0 255
0.264587 -0.299624 0.127594 0 0 255
0.172750 -0.276258 0.127778 0 0 255
0.305402 -0.246200 0.127521 0 0 255
0.135439 -0.186270 -0.001752 0 0 255
0.155191 -0.312387 0.056248 0 0 255
0.347349 -0.199967 0.122248 0 0 255
0.205625 -0.336738 0.084248 0 0 255
0.145287 -0.212436 -0.017752 0 0 255
0.140431 -0.244079 0.079304 0 0 255
0.402482 -0.226864 0.122248 0 0 255
0.206741 -0.278417 0.127817 0 0 255
0.330513 -0.271449 0.127780 0 0 255
0.147831 -0.224838 0.032248 0 0 255
0.140589 -0.248129 0.058248 0 0 255
0.146627 -0.321411 0.050248 0 0 255
0.311464 -0.328120 0.116248 0 0 255
0.210692 -0.328292 0.000248 0 0 255
0.251365 -0.325250 0.102248 0 0 255
0.380427 -0.324435 0.020248 0 0 255
0.170017 -0.331339 0.042248 0 0 255
0.352314 -0.258005 0.127656 0 0 255
0.225885 -0.335838 0.072248 0 0 255
0.277906 -0.322440 0.118248 0 0 255
0.298245 -0.320910 0.100248 0 0 255
0.351072 -0.317352 -0.005752 0 0 255
0.409486 -0.319430 -0.009752 0 0 255
0.417897 -0.272102 0.038248 0 0 255
0.394314 -0.293388 0.127812 0 0 255
0.156969 -0.330741 0.062248 0 0 255
0.277332 -0.228648 0.121258 0 0 255
0.227061 -0.326262 0.104248 0 0 255
0.410381 -0.192594 -0.005752 0 0 255
0.137020 -0.206218 -0.003752 0 0 255
0.388670 -0.208064 0.128044 0 0 255
0.349087 -0.317101 0.078248 0 0 255
0.181130 -0.339299 0.054248 0 0 255
0.157495 -0.219979 0.121277 0 0 255
0.414930 -0.297934 0.092248 0 0 255
0.365423 -0.241479 0.122248 0 0 255
0.320760 -0.235996 0.127938 0 0 255
0.250656 -0.281793 0.127687 0 0 255
0.156190 -0.320570 0.088248 0 0 255
0.411898 -0.232232 -0.029752 0 0 255
0.398980 -0.271795 0.127695 0 0 255
0.249576 -0.241360 0.127595 0 0 255
0.264852 -0.190846 0.122248 0 0 255
0.271708 -0.323688 0.000248 0 0 255
0.214716 -0.295516 0.121297 0 0 255
0.208100 -0.332989 0.127363 0 0 255
0.375474 -0.299134 0.121257 0 0 255
0.408557 -0.218565 -0.029752 0 0 255
0.336935 -0.317615 0.096248 0 0 255
0.271797 -0.306555 0.121266 0 0 255
0.299065 -0.297812 0.127587 0 0 255
0.257064 -0.262430 0.121253 0 0 255
0.202506 -0.329311 -0.017752 0 0 255
0.152912 -0.281882 0.078248 0 0 255
0.267739 -0.323190 0.062248 0 0 255
0.180550 -0.212734 0.121264 0 0 255
0.292622 -0.329261 0.034248 0 0 255
0.412279 -0.255293 -0.003752 0 0 255
0.136758 -0.205343 0.054248 0 0 255
0.196642 -0.311431 0.127492 0 0 255
0.170904 -0.225655 0.121266 0 0 255
0.406017 -0.312959 -0.030707 0 0 255
0.146078 -0.305223 0.076248 0 0 255
0.414464 -0.225335 0.092248 0 0 255
0.138465 -0.219658 0.048248 0 0 255
0.408157 -0.213470 -0.003752 0 0 255
0.375628 -0.314290 0.094248 0 0 255
0.402531 -0.193645 0.127568 0 0 255
0.162370 -0.180277 0.121268 0 0 255
0.184153 -0.331087 0.022248 0 0 255
0.258543 -0.332440 0.036248 0 0 255
0.413347 -0.227214 0.012248 0 0 255
0.143095 -0.280676 0.098248 0 0 255
0.240188 -0.334228 0.050248 0 0 255
0.279891 -0.322690 0.050248 0 0 255
0.144692 -0.209377 0.024248 0 0 255
0.362030 -0.277333 0.127148 0 0 255
0.210397 -0.248640 0.127508 0 0 255
0.293912 -0.323375 -0.030665 0 0 255
0.260929 -0.214544 0.127988 0 0 255
0.175955 -0.266576 0.121284 0 0 255
0.309026 -0.315156 0.121251 0 0 255
0.401073 -0.312353 0.084248 0 0 255
0.177010 -0.340034 0.084248 0 0 255
0.416394 -0.294084 -0.030628 0 0 255
0.212678 -0.328527 -0.029752 0 0 255
0.138364 -0.228096 0.112248 0 0 255
0.415814 -0.241622 0.024248 0 0 255
0.177059 -0.339632 0.038248 0 0 255
0.415209 -0.245577 0.006248 0 0 255
0.156666 -0.341611 0.116248 0 0 255
0.151133 -0.263529 -0.017752 0 0 255
0.410182 -0.222795 0.034248 0 0 255
0.405601 -0.177902 0.074248 0 0 255
0.411711 -0.250171 0.016248 0 0 255
0.291066 -0.330142 -0.011752 0 0 255
0.149563 -0.259305 0.040248 0 0 255
0.406526 -0.202196 0.012248 0 0 255
0.419572 -0.294473 0.040248 0 0 255
0.253348 -0.325523 -0.021752 0 0 255
0.213688 -0.336712 0.062248 0 0 255
0.276796 -0.265837 0.122248 0 0 255
0.151381 -0.277664 -0.019752 0 0 255
0.220861 -0.327521 -0.019752 0 0 255
0.328752 -0.318615 0.104248 0 0 255
0.142947 -0.181922 0.102248 0 0 255
0.257567 -0.323977 0.116248 0 0 255
0.405008 -0.181859 0.004248 0 0 255
0.407171 -0.198245 0.086248 0 0 255
0.147307 -0.228803 0.000248 0 0 255
0.142730 -0.274587 0.075060 0 0 255
0.142679 -0.268535 0.012248 0 0 255
0.366421 -0.323623 0.026248 0 0 255
0.401486 -0.169336 0.127465 0 0 255
0.195352 -0.338344 0.064248 0 0 255
0.328143 -0.208691 0.127292 0 0 255
0.409870 -0.240892 0.040248 0 0 255
0.318584 -0.319368 0.046248 0 0 255
0.389448 -0.152496 0.124248 0 0 255
0.301250 -0.329252 0.048248 0 0 255
0.155357 -0.319453 0.074248 0 0 255
0.135338 -0.187095 0.056248 0 0 255
0.244232 -0.334123 0.004248 0 0 255
0.409938 -0.319486 0.104248 0 0 255
0.329778 -0.326659 0.016248 0 0 255
0.332495 -0.156836 0.123917 0 0 255
0.244249 -0.333973 0.100248 0 0 255
0.134173 -0.180166 0.030248 0 0 255
0.143448 -0.280720 0.110248 0 0 255
0.143493 -0.266620 -0.025752 0 0 255
0.365458 -0.315062 0.054248 0 0 255
0.361614 -0.313552 0.121298 0 0 255
0.145874 -0.293108 0.104248 0 0 255
0.145704 -0.309208 0.104248 0 0 255
0.243168 -0.260724 0.127550 0 0 255
0.308747 -0.301016 0.121302 0 0 255
0.365456 -0.315078 0.104248 0 0 255
0.409083 -0.173112 0.026248 0 0 255
0.365460 -0.315046 -0.009752 0 0 255
0.139365 -0.217753 -0.025752 0 0 255
0.382718 -0.314128 0.066248 0 0 255
0.233557 -0.289769 0.127796 0 0 255
0.407773 -0.153988 0.072248 0 0 255
0.144119 -0.292893 -0.017752 0 0 255
0.413071 -0.249345 -0.015752 0 0 255
0.150607 -0.341722 0.098248 0 0 255
0.170924 -0.340366 0.002248 0 0 255
0.392884 -0.313362 0.016248 0 0 255
0.151603 -0.275676 0.054248 0 0 255
0.179090 -0.339502 0.113438 0 0 255
0.170922 -0.340387 0.122248 0 0 255
0.419377 -0.319028 0.004248 0 0 255
0.186088 -0.249685 0.121255 0 0 255
0.150007 -0.271450 0.030248 0 0 255
0.156705 -0.332723 0.038248 0 0 255
0.413524 -0.221190 -0.009752 0 0 255
0.156737 -0.332727 0.086248 0 0 255
0.136711 -0.201307 -0.027752 0 0 255
0.413329 -0.319051 0.086248 0 0 255
0.190356 -0.329809 0.098248 0 0 255
0.147640 -0.251009 0.127251 0 0 255
0.312227 -0.190618 0.123373 0 0 255
0.307856 -0.176977 0.122248 0 0 255
0.325150 -0.315120 0.121268 0 0 255
0.416051 -0.290011 -0.009752 0 0 255
0.189850 -0.268282 0.128106 0 0 255
0.352487 -0.223771 0.121280 0 0 255
0.239217 -0.325727 0.068248 0 0 255
0.267482 -0.325280 -0.029752 0 0 255
0.239965 -0.270405 0.121254 0 0 255
0.134483 -0.184913 -0.019752 0 0 255
0.148200 -0.327649 0.080248 0 0 255
0.411901 -0.281441 0.121281 0 0 255
0.212676 -0.328548 0.090248 0 0 255
0.416619 -0.261871 0.034248 0 0 255
0.381705 -0.199148 0.127603 0 0 255
0.364915 -0.324033 0.070248 0 0 255
0.322364 -0.288583 0.127899 0 0 255
0.329924 -0.325474 0.084248 0 0 255
0.370485 -0.323351 0.046248 0 0 255
0.147497 -0.313457 0.094248 0 0 255
0.403107 -0.320243 0.004248 0 0 255
0.291115 -0.329738 0.082248 0 0 255
0.146039 -0.206482 0.120248 0 0 255
0.411275 -0.319363 0.036248 0 0 255
0.144900 -0.286943 0.010248 0 0 255
0.163415 -0.204586 0.127889 0 0 255
0.338581 -0.332889 0.022248 0 0 255
0.396194 -0.245257 0.121276 0 0 255
0.403474 -0.161520 0.034248 0 0 255
0.251367 -0.325235 0.066248 0 0 255
0.202508 -0.329301 0.032248 0 0 255
0.225920 -0.335555 0.032248 0 0 255
0.354328 -0.323648 0.118248 0 0 255
0.173981 -0.331882 0.102248 0 0 255
0.329990 -0.259294 0.127827 0 0 255
0.238346 -0.334687 0.080248 0 0 255
0.184155 -0.331066 -0.009752 0 0 255
0.371328 -0.218024 0.127855 0 0 255
0.414318 -0.310991 0.062248 0 0 255
0.150100 -0.255341 0.092248 0 0 255
0.140675 -0.242094 -0.012818 0 0 255
0.156173 -0.296387 0.127629 0 0 255
0.133698 -0.176757 0.046248 0 0 255
0.418656 -0.284286 0.102248 0 0 255
0.305482 -0.328826 0.014248 0 0 255
0.389331 -0.169860 0.127519 0 0 255
0.238164 -0.334303 -0.009752 0 0 255
0.271461 -0.210823 0.122248 0 0 255
0.251371 -0.325211 -0.007752 0 0 255
0.323655 -0.327298 0.070248 0 0 255
0.349088 -0.317098 -0.023752 0 0 255
0.407647 -0.201211 0.032248 0 0 255
0.146866 -0.319425 0.006248 0 0 255
0.188493 -0.328566 0.127538 0 0 255
0.133604 -0.176745 0.008248 0 0 255
0.264606 -0.332291 0.096248 0 0 255
0.280913 -0.330770 0.032248 0 0 255
0.360601 -0.190511 0.123345 0 0 255
0.384215 -0.326402 0.030672 0 0 255
0.414793 -0.235451 0.076248 0 0 255
0.311497 -0.327850 0.030248 0 0 255
0.414012 -0.280661 0.020248 0 0 255
0.401069 -0.205555 0.123372 0 0 255
0.153457 -0.302099 0.053257 0 0 255
0.420790 -0.308728 0.000248 0 0 255
0.143728 -0.192093 0.092248 0 0 255
0.145349 -0.311179 -0.027752 0 0 255
0.156217 -0.320574 0.030248 0 0 255
0.341968 -0.178149 0.127588 0 0 255
0.290517 -0.301783 0.122248 0 0 255
0.418072 -0.276154 0.072248 0 0 255
0.196479 -0.296352 0.122248 0 0 255
0.256270 -0.332858 0.078248 0 0 255
0.255878 -0.173623 0.127553 0 0 255
0.401096 -0.320204 0.052248 0 0 255
0.147451 -0.337632 0.050248 0 0 255
0.143915 -0.290853 0.082248 0 0 255
0.407922 -0.160052 0.058248 0 0 255
0.408152 -0.160080 -0.019752 0 0 255
0.141363 -0.177698 0.070248 0 0 255
0.258770 -0.248534 0.127861 0 0 255
0.408207 -0.180237 0.126960 0 0 255
0.136671 -0.209057 0.040248 0 0 255
0.294570 -0.170314 0.127777 0 0 255
0.145681 -0.295100 0.036248 0 0 255
0.190892 -0.177735 0.127835 0 0 255
0.142032 -0.181810 0.127899 0 0 255
0.379887 -0.321841 0.116248 0 0 255
0.387420 -0.316721 0.127445 0 0 255
0.201446 -0.239481 0.127651 0 0 255
0.225546 -0.256545 0.127757 0 0 255
0.350816 -0.319440 0.048248 0 0 255
0.415419 -0.302024 0.127774 0 0 255
0.179017 -0.192397 0.128016 0 0 255
0.314908 -0.168781 0.123402 0 0 255
0.196301 -0.330618 0.082248 0 0 255
0.410637 -0.234940 0.004248 0 0 255
0.297395 -0.327833 0.127685 0 0 255
0.365792 -0.295930 0.127657 0 0 255
0.162337 -0.279009 0.127832 0 0 255
0.292412 -0.204304 0.127311 0 0 255
0.346853 -0.318880 0.026248 0 0 255
0.184068 -0.233317 0.127380 0 0 255
0.141918 -0.258367 0.112248 0 0 255
0.257569 -0.323958 0.054248 0 0 255
0.320969 -0.217886 0.127412 0 0 255
0.151139 -0.263529 0.104248 0 0 255
0.237232 -0.325483 0.118248 0 0 255
0.160733 -0.341314 0.056248 0 0 255
0.326768 -0.318360 0.028248 0 0 255
0.330734 -0.318871 -0.025752 0 0 255
0.409288 -0.220670 0.127743 0 0 255
0.236758 -0.165231 0.123864 0 0 255
0.197418 -0.337929 0.010248 0 0 255
0.140738 -0.241580 0.006248 0 0 255
0.143107 -0.270603 0.120248 0 0 255
0.411381 -0.231003 0.022248 0 0 255
0.295140 -0.329784 0.004248 0 0 255
0.354437 -0.207890 0.123430 0 0 255
0.330058 -0.176687 0.123394 0 0 255
0.343695 -0.287173 0.122248 0 0 255
0.415859 -0.253717 -0.025752 0 0 255
0.180599 -0.294389 0.122248 0 0 255
0.153952 -0.306190 -0.015752 0 0 255
0.148334 -0.236990 0.078248 0 0 255
0.149503 -0.252248 0.048248 0 0 255
0.141198 -0.254248 0.003402 0 0 255
0.145761 -0.299139 0.014117 0 0 255
0.153455 -0.187243 0.121278 0 0 255
0.217134 -0.336113 -0.005752 0 0 255
0.206168 -0.258196 0.122248 0 0 255
0.146040 -0.313279 -0.007352 0 0 255
0.145173 -0.301082 0.002248 0 0 255
0.416852 -0.318320 0.096248 0 0 255
0.139665 -0.233910 0.050351 0 0 255
0.284506 -0.219454 0.127930 0 0 255
0.382856 -0.271830 0.121269 0 0 255
0.305819 -0.209981 0.121261 0 0 255
0.200525 -0.329045 0.118248 0 0 255
0.411469 -0.252140 0.120248 0 0 255
0.146735 -0.291199 0.127682 0 0 255
0.413255 -0.319653 0.056248 0 0 255
0.415703 -0.308103 0.044248 0 0 255
0.149111 -0.247160 -0.021752 0 0 255
0.309077 -0.281909 0.122248 0 0 255
0.162546 -0.260900 0.127890 0 0 255
0.343503 -0.313344 0.121291 0 0 255
0.403072 -0.320535 0.024248 0 0 255
0.395969 -0.312736 0.002248 0 0 255
0.142664 -0.282639 -0.015752 0 0 255
0.317635 -0.327094 0.000248 0 0 255
0.406166 -0.173941 0.048248 0 0 255
0.370025 -0.322646 0.080248 0 0 255
0.199670 -0.221128 0.127501 0 0 255
0.341958 -0.325932 -0.017752 0 0 255
0.284989 -0.330399 -0.023752 0 0 255
0.375629 -0.314282 0.040248 0 0 255
0.256474 -0.332883 0.124953 0 0 255
0.156990 -0.330743 0.016248 0 0 255
0.222587 -0.264242 0.121262 0 0 255
0.258516 -0.332660 0.006248 0 0 255
0.295239 -0.328973 0.106248 0 0 255
0.189320 -0.338244 0.042248 0 0 255
0.150875 -0.265511 0.050248 0 0 255
0.145706 -0.217524 0.010248 0 0 255
0.176753 -0.178013 0.128001 0 0 255
0.136269 -0.195922 -0.005752 0 0 255
0.356206 -0.324766 0.006248 0 0 255
0.144935 -0.207401 0.090248 0 0 255
0.178533 -0.311223 0.121268 0 0 255
0.241289 -0.308853 0.121270 0 0 255
0.419734 -0.290464 0.084248 0 0 255
0.148078 -0.238973 -0.029752 0 0 255
0.381393 -0.283741 0.121289 0 0 255
0.408612 -0.218573 0.086248 0 0 255
0.310392 -0.320437 0.104248 0 0 255
0.146176 -0.311280 0.062248 0 0 255
0.271703 -0.323728 0.036248 0 0 255
0.147957 -0.330485 0.028248 0 0 255
0.407918 -0.162066 0.120248 0 0 255
0.239215 -0.325743 0.044248 0 0 255
0.415419 -0.239558 0.060248 0 0 255
0.144275 -0.188130 0.004248 0 0 255
0.310389 -0.320460 0.092248 0 0 255
0.191694 -0.204028 0.121274 0 0 255
0.241197 -0.326019 0.094248 0 0 255
0.415605 -0.316922 -0.029752 0 0 255
0.148594 -0.235006 0.100248 0 0 255
0.141067 -0.252218 0.086248 0 0 255
0.417386 -0.257935 0.020248 0 0 255
0.149010 -0.256263 0.026248 0 0 255
0.303870 -0.225861 0.121262 0 0 255
0.337651 -0.246129 0.121266 0 0 255
0.153822 -0.299132 0.066248 0 0 255
0.336687 -0.319632 -0.001752 0 0 255
0.135734 -0.183052 0.118248 0 0 255
0.182170 -0.330828 -0.021752 0 0 255
0.292041 -0.322197 0.064248 0 0 255
0.143723 -0.192092 0.104248 0 0 255
0.267734 -0.323226 0.114248 0 0 255
0.184153 -0.331086 0.008248 0 0 255
0.241254 -0.292729 0.121254 0 0 255
0.357272 -0.316087 0.092248 0 0 255
0.405064 -0.165746 0.012248 0 0 255
0.223770 -0.238191 0.127572 0 0 255
0.153158 -0.296018 -0.013752 0 0 255
0.163905 -0.315472 0.121274 0 0 255
0.139749 -0.241981 0.110248 0 0 255
0.399222 -0.154954 0.126635 0 0 255
0.275559 -0.331197 0.006248 0 0 255
0.414006 -0.231477 -0.007752 0 0 255
0.292517 -0.252678 0.127533 0 0 255
0.138117 -0.223645 -0.001752 0 0 255
0.216176 -0.168749 0.121249 0 0 255
0.221854 -0.335851 0.016248 0 0 255
0.180309 -0.329576 0.121283 0 0 255
0.146103 -0.309256 0.022248 0 0 255
0.135666 -0.193119 0.078248 0 0 255
0.244563 -0.331421 0.127564 0 0 255
0.247523 -0.323724 0.121291 0 0 255
0.139360 -0.236391 0.072248 0 0 255
0.135940 -0.191137 0.034248 0 0 255
0.227997 -0.335048 0.084248 0 0 255
0.139885 -0.241997 0.034248 0 0 255
0.300227 -0.321171 -0.017752 0 0 255
0.416183 -0.245697 0.104248 0 0 255
0.143240 -0.196064 -0.021752 0 0 255
0.214657 -0.328821 0.054248 0 0 255
0.284996 -0.330340 0.073927 0 0 255
0.147623 -0.315488 0.036248 0 0 255
0.135059 -0.186999 0.020248 0 0 255
0.242173 -0.334472 -0.023752 0 0 255
0.414738 -0.283805 -0.019752 0 0 255
0.278843 -0.331224 0.088248 0 0 255
0.418455 -0.280231 0.084248 0 0 255
0.138410 -0.227711 -0.022057 0 0 255
0.356073 -0.326977 0.040248 0 0 255
0.411033 -0.232974 0.086248 0 0 255
0.383559 -0.315336 -0.025752 0 0 255
0.232615 -0.198977 0.121248 0 0 255
0.172967 -0.340136 0.096248 0 0 255
0.343048 -0.218582 0.121262 0 0 255
0.348622 -0.271657 0.127650 0 0 255
0.412237 -0.213066 0.108248 0 0 255
0.143173 -0.268596 0.044248 0 0 255
0.218623 -0.329347 0.008248 0 0 255
0.399000 -0.320871 0.062248 0 0 255
0.237351 -0.209634 0.127899 0 0 255
0.232038 -0.334967 0.102248 0 0 255
0.274834 -0.331055 0.126248 0 0 255
0.320569 -0.319615 -0.019752 0 0 255
0.158752 -0.341034 0.074047 0 0 255
0.312993 -0.200787 0.127844 0 0 255
0.421194 -0.266462 0.124248 0 0 255
0.397945 -0.313051 0.118248 0 0 255
0.155705 -0.324540 0.006248 0 0 255
0.410231 -0.188545 0.088248 0 0 255
0.170208 -0.247735 0.127274 0 0 255
0.306430 -0.319885 0.048248 0 0 255
0.223385 -0.175679 0.127858 0 0 255
0.145006 -0.198295 0.112248 0 0 255
0.195357 -0.338311 0.090248 0 0 255
0.151139 -0.263529 0.074248 0 0 255
0.209944 -0.268735 0.127513 0 0 255
0.252657 -0.232676 0.122248 0 0 255
0.144938 -0.207371 0.034248 0 0 255
0.298020 -0.273503 0.121263 0 0 255
0.288078 -0.321653 0.004248 0 0 255
0.150871 -0.265511 0.062248 0 0 255
0.316722 -0.318115 0.127397 0 0 255
0.357276 -0.316048 0.012248 0 0 255
0.208834 -0.337109 0.094248 0 0 255
0.325077 -0.168015 0.127684 0 0 255
0.171914 -0.233839 0.127364 0 0 255
0.412914 -0.265446 0.104248 0 0 255
0.406340 -0.188068 0.102248 0 0 255
0.229047 -0.326499 0.014248 0 0 255
0.360809 -0.172402 0.123447 0 0 255
0.141441 -0.177708 -0.009752 0 0 255
0.147334 -0.228807 0.060248 0 0 255
0.265753 -0.322954 0.092248 0 0 255
0.145807 -0.208469 0.070248 0 0 255
0.410097 -0.312547 0.022248 0 0 255
0.151864 -0.273694 0.106248 0 0 255
0.229046 -0.326508 0.068248 0 0 255
0.220863 -0.327508 0.076248 0 0 255
0.292620 -0.186195 0.127554 0 0 255
0.282489 -0.317942 0.127597 0 0 255
0.213950 -0.285347 0.121284 0 0 255
0.349283 -0.233452 0.121258 0 0 255
0.152666 -0.283867 0.064248 0 0 255
0.234052 -0.334966 0.018248 0 0 255
0.269719 -0.323472 0.078248 0 0 255
0.210693 -0.328277 0.038248 0 0 255
0.328755 -0.318587 -0.011752 0 0 255
0.336573 -0.320553 0.127815 0 0 255
0.417883 -0.308371 0.088248 0 0 255
0.223852 -0.335989 0.062248 0 0 255
0.228456 -0.282081 0.122248 0 0 255
0.186473 -0.312198 0.127611 0 0 255
0.169164 -0.338283 -0.030673 0 0 255
0.420127 -0.296557 0.024248 0 0 255
0.153457 -0.302099 0.119222 0 0 255
0.250383 -0.333259 0.030248 0 0 255
0.230005 -0.335110 -0.003752 0 0 255
0.160717 -0.341446 0.092248 0 0 255
0.144807 -0.288947 0.026248 0 0 255
0.147728 -0.329606 0.070248 0 0 255
0.141683 -0.266708 0.002248 0 0 255
0.262612 -0.332122 0.020248 0 0 255
0.419988 -0.297640 0.116248 0 0 255
0.253964 -0.205629 0.127702 0 0 255
0.274812 -0.331224 0.098248 0 0 255
0.140675 -0.242094 0.018121 0 0 255
0.325772 -0.326466 0.006248 0 0 255
0.231029 -0.326775 0.034248 0 0 255
0.319601 -0.327497 0.052248 0 0 255
0.244231 -0.334124 0.038248 0 0 255
0.397039 -0.320428 0.110248 0 0 255
0.321688 -0.326907 0.040248 0 0 255
0.420375 -0.294481 0.074248 0 0 255
0.135827 -0.199524 0.004248 0 0 255
0.215774 -0.336135 0.072248 0 0 255
0.382367 -0.160944 0.127710 0 0 255
0.406459 -0.188082 0.034248 0 0 255
0.366261 -0.226460 0.122248 0 0 255
0.254174 -0.302376 0.127633 0 0 255
0.135901 -0.187102 0.108248 0 0 255
0.193473 -0.337238 -0.030764 0 0 255
0.396021 -0.255312 0.122248 0 0 255
0.367219 -0.267895 0.121254 0 0 255
0.412021 -0.200855 -0.021752 0 0 255
0.348124 -0.324953 0.106248 0 0 255
0.216929 -0.228266 0.122248 0 0 255
0.384718 -0.314375 0.022248 0 0 255
0.234393 -0.332187 -0.030544 0 0 255
0.147793 -0.240954 -0.005752 0 0 255
0.302025 -0.290116 0.121252 0 0 255
0.145624 -0.293077 0.052248 0 0 255
0.143935 -0.199134 0.010248 0 0 255
0.270724 -0.331700 -0.011752 0 0 255
0.348060 -0.317933 0.016248 0 0 255
0.417318 -0.319386 0.076248 0 0 255
0.390865 -0.190197 0.127598 0 0 255
0.410707 -0.196664 0.106248 0 0 255
0.370600 -0.322417 0.120248 0 0 255
0.208416 -0.337058 0.020248 0 0 255
0.301251 -0.329244 0.062248 0 0 255
0.385989 -0.229899 0.128011 0 0 255
0.141579 -0.251142 -0.027752 0 0 255
0.152641 -0.341568 -0.017752 0 0 255
0.252397 -0.333264 -0.001752 0 0 255
0.422779 -0.313002 0.116248 0 0 255
0.204490 -0.329573 0.010248 0 0 255
0.413529 -0.261491 0.094248 0 0 255
0.408594 -0.218570 0.052248 0 0 255
0.407300 -0.212366 -0.021752 0 0 255
0.282659 -0.168852 0.127768 0 0 255
0.240228 -0.333902 0.112248 0 0 255
0.343895 -0.326566 0.096248 0 0 255
0.378550 -0.323314 0.066248 0 0 255
0.145130 -0.172985 0.124248 0 0 255
0.147314 -0.331570 0.058248 0 0 255
0.372572 -0.322763 -0.009752 0 0 255
0.135245 -0.197097 0.022248 0 0 255
0.163469 -0.341613 -0.021752 0 0 255
0.409731 -0.184454 -0.021752 0 0 255
0.331788 -0.326708 0.096248 0 0 255
0.136742 -0.199295 0.096248 0 0 255
0.143371 -0.278696 0.034248 0 0 255
0.144706 -0.301024 0.086248 0 0 255
0.316350 -0.321149 0.066248 0 0 255
0.387780 -0.313783 0.042248 0 0 255
0.144776 -0.200282 -0.009752 0 0 255
0.368576 -0.207611 0.127678 0 0 255
0.358861 -0.303140 0.127327 0 0 255
0.136478 -0.205308 0.078248 0 0 255
0.371363 -0.234148 0.127859 0 0 255
0.152621 -0.259681 0.127608 0 0 255
0.404475 -0.169703 0.102248 0 0 255
0.218197 -0.185117 0.127717 0 0 255
0.144390 -0.218370 0.040248 0 0 255
0.135535 -0.195118 0.062248 0 0 255
0.317175 -0.298021 0.127278 0 0 255
0.137254 -0.215478 0.020248 0 0 255
0.360812 -0.287259 0.127842 0 0 255
0.150117 -0.255344 0.014248 0 0 255
0.192339 -0.330061 0.014248 0 0 255
0.405007 -0.304775 0.121254 0 0 255
0.294019 -0.322493 0.046248 0 0 255
0.243180 -0.326276 0.022248 0 0 255
0.155430 -0.310401 0.110248 0 0 255
0.155630 -0.333644 -0.007752 0 0 255
0.154442 -0.302220 0.040248 0 0 255
0.338919 -0.317863 0.044248 0 0 255
0.269427 -0.243797 0.127559 0 0 255
0.336939 -0.317581 0.086248 0 0 255
0.163811 -0.332657 0.120248 0 0 255
0.357274 -0.316070 0.072248 0 0 255
0.153865 -0.306180 0.098248 0 0 255
0.154187 -0.304204 0.006248 0 0 255
0.347106 -0.316827 0.100248 0 0 255
0.338919 -0.317858 0.032248 0 0 255
0.305194 -0.264309 0.121257 0 0 255
0.359256 -0.316337 -0.019752 0 0 255
0.388887 -0.320931 0.104248 0 0 255
0.382728 -0.322104 -0.011752 0 0 255
0.141415 -0.262335 0.020248 0 0 255
0.135589 -0.185049 0.089402 0 0 255
0.199409 -0.338134 -0.021752 0 0 255
0.314513 -0.270465 0.122248 0 0 255
0.209658 -0.336714 0.118248 0 0 255
0.352455 -0.322503 0.127972 0 0 255
