ply
format ascii 1.0
element vertex 1274
property float x
property float y
property float z
property uchar red
property uchar green
property uchar blue
end_header
1.360453 0.471263 -0.292724 27 27 22
0.829241 0.047314 -0.260089 27 35 41
0.816092 0.071872 -0.260632 26 28 33
1.092208 -0.019254 -0.036718 11 13 14
1.115782 -0.005763 -0.036232 12 11 13
1.112904 0.021157 -0.036907 45 30 25
1.130027 0.594407 -0.071564 175 138 92
1.310471 0.589471 -0.059455 117 88 58
1.285330 0.596695 -0.060474 129 98 57
0.624147 -0.047950 -0.156885 15 13 15
0.624956 -0.048467 -0.174419 15 17 14
0.615298 -0.043457 -0.164229 16 14 12
0.606674 -0.038872 -0.171545 31 21 11
0.617567 -0.044606 -0.149783 10 9 9
0.610705 -0.037880 -0.150160 13 12 9
0.586644 0.006351 -0.294939 61 40 19
0.590253 0.002025 -0.288122 39 26 13
0.567562 0.010829 -0.295343 85 59 34
0.574718 -0.015794 -0.285446 49 33 20
0.564689 -0.015958 -0.287995 42 28 12
0.497317 0.103274 -0.287255 24 17 11
0.524216 0.139847 -0.292981 21 15 12
1.241159 0.587713 0.246399 16 21 19
1.239554 0.606024 0.256006 16 19 21
0.823277 -0.100434 -0.272502 78 89 104
0.469394 -0.063183 0.072169 217 177 121
0.571259 -0.093351 0.072145 195 151 109
0.555097 -0.090124 0.069584 93 59 28
0.568922 -0.091257 0.045854 106 68 30
0.799344 0.068626 -0.044343 216 166 124
0.779706 0.079834 -0.045016 215 166 124
1.308790 0.645737 0.284767 27 19 16
1.309088 0.643007 0.271453 19 15 9
1.282857 0.640316 0.296792 17 14 16
1.285673 0.640739 0.279932 13 12 12
1.315557 0.650428 0.298431 21 15 19
1.298232 0.644222 0.293390 11 11 9
1.302025 0.645136 0.277917 14 12 9
0.477214 -0.051715 0.049421 154 127 98
0.473226 -0.051283 0.060957 190 160 136
0.471037 -0.051520 0.054435 134 115 96
0.460259 -0.060173 0.067752 210 169 103
0.446402 -0.059691 0.060524 181 138 80
0.452808 -0.058438 0.054654 66 60 65
0.779354 0.325485 -0.061169 210 169 118
0.797040 0.294394 -0.058882 216 173 125
0.547769 -0.077129 -0.257685 45 25 8
0.547403 -0.075171 -0.249610 20 12 3
0.566004 -0.087281 -0.264865 10 6 2
0.562904 -0.085481 -0.240701 16 10 7
0.867761 0.003152 -0.256152 44 51 60
1.180629 0.234987 -0.068373 20 14 8
1.167508 0.230516 -0.070890 111 92 59
1.250886 0.358263 -0.081135 186 159 117
1.250049 0.321183 -0.081701 192 166 113
1.247822 0.333960 -0.080687 195 167 113
1.240184 0.352373 -0.083671 130 112 86
1.231575 0.350818 -0.081848 90 92 69
1.232590 0.356266 -0.057724 197 158 98
0.560298 -0.055067 0.085399 203 154 98
0.562426 -0.080332 -0.168609 25 17 7
0.552534 -0.075550 -0.170131 28 18 9
0.574729 -0.074819 -0.161475 37 25 10
1.369270 0.586174 0.248292 16 17 17
1.352070 0.583758 0.243999 21 19 20
0.596881 -0.010355 -0.220515 33 25 19
0.581483 -0.020490 -0.238312 58 38 17
0.576852 -0.024403 -0.221539 36 25 12
0.596867 -0.005251 -0.244244 63 37 13
0.744246 -0.052493 -0.258473 74 82 98
0.728593 0.189922 -0.055411 207 182 139
0.580915 -0.076373 -0.225065 117 79 35
0.589218 -0.076970 -0.225587 126 81 44
0.983485 0.580880 -0.072143 203 160 110
0.632923 0.149521 -0.268240 11 11 9
0.673034 0.118137 -0.259412 13 13 10
0.662148 0.129009 -0.259990 11 11 10
0.650982 0.118628 -0.260164 12 13 13
1.284499 0.154625 -0.031476 46 43 33
1.243083 0.168795 -0.040515 134 115 71
1.060337 -0.071908 0.034084 214 170 113
0.773973 0.222268 -0.261733 10 6 10
0.796940 0.212257 -0.261919 10 6 10
0.662719 -0.051379 0.082190 222 170 90
0.660746 -0.042837 0.074362 221 171 87
0.652527 -0.039863 0.082263 205 169 132
0.649843 -0.027312 0.079473 209 172 131
0.644930 -0.015697 0.082970 217 172 118
0.744641 -0.098903 -0.329445 68 48 26
0.724528 -0.098598 -0.328589 21 10 5
0.572808 0.217150 -0.270779 21 14 10
0.585455 0.234045 -0.262706 10 9 8
1.232789 0.626596 -0.090278 64 49 23
1.228615 0.618410 -0.092036 83 68 45
1.228474 0.634831 -0.091346 145 125 92
1.248621 0.637186 -0.099697 172 144 102
1.242567 0.635982 -0.096838 56 42 16
1.235890 0.614371 -0.094343 121 106 63
1.224326 0.623210 -0.086439 69 53 33
0.746859 -0.063589 -0.067334 44 26 11
1.049454 -0.015470 -0.260669 33 20 14
1.082298 -0.005250 -0.261301 7 4 6
1.061472 -0.004645 -0.266641 28 19 10
1.068314 -0.023785 -0.255419 11 7 8
1.082257 -0.024817 -0.266557 7 5 6
1.083060 -0.017693 -0.258853 6 4 7
1.071694 -0.011315 -0.259056 7 4 7
1.080134 -0.017876 -0.250952 5 4 6
1.066752 -0.014999 -0.266848 8 4 7
1.243624 0.578754 0.182224 23 22 30
0.712161 0.096235 -0.050696 212 172 131
0.681685 0.096343 -0.052983 196 159 127
1.069070 0.374281 -0.059080 209 167 109
0.491634 0.261171 -0.277146 12 11 12
0.460596 0.253510 -0.275184 12 11 11
0.984954 -0.080375 -0.262622 73 76 89
0.979839 -0.055697 -0.257674 74 76 96
0.962191 -0.039332 -0.254189 57 58 72
0.805901 0.006545 -0.258974 45 47 60
0.807238 0.020650 -0.258955 32 36 45
0.594766 -0.047270 -0.227676 68 39 15
0.598053 -0.040313 -0.242355 51 35 19
0.902605 -0.080524 -0.061515 8 8 8
0.881934 -0.066398 -0.069420 9 8 8
0.889714 -0.088367 -0.057086 9 7 8
1.243632 0.492699 -0.087344 55 41 25
1.083731 -0.003793 -0.270041 5 5 7
0.895913 -0.111966 -0.291478 52 34 22
0.905186 -0.108960 -0.278640 41 51 65
0.853940 -0.110421 -0.298983 67 41 16
0.579912 0.294156 -0.344789 12 7 4
1.267979 0.234904 -0.040785 38 37 33
1.279396 0.295031 -0.043255 61 48 33
0.883451 0.372935 -0.061872 208 165 110
0.888505 0.340794 -0.060241 210 166 111
0.945214 0.363690 -0.060543 205 163 110
0.932301 0.398988 -0.063158 208 162 116
0.615512 -0.071106 -0.071129 9 8 8
0.614764 -0.074338 -0.084084 11 9 8
0.624417 -0.072786 -0.087836 8 8 7
0.625975 -0.073164 -0.066203 10 5 6
0.629732 -0.082419 -0.051830 9 7 6
0.640216 -0.061034 -0.075417 10 6 4
0.654156 -0.074001 -0.057714 9 7 6
0.536601 -0.078659 -0.060247 95 62 23
0.564749 0.037209 -0.297148 58 39 19
0.583422 0.040811 -0.303910 27 15 6
0.578444 0.007934 -0.297914 56 37 14
0.591292 0.027368 -0.299862 28 16 4
0.511678 0.445904 -0.070066 209 164 121
0.651770 -0.079700 -0.049946 6 7 6
0.663118 -0.083201 -0.030613 92 67 33
0.658211 -0.082773 -0.044285 10 8 8
0.861716 0.189878 -0.053163 218 179 112
0.892503 0.186379 -0.052973 210 180 125
0.888720 0.211020 -0.262104 11 7 10
0.877068 0.185283 -0.261408 11 7 10
1.012915 0.127688 -0.047379 205 172 134
0.880434 -0.036575 -0.255550 71 80 96
0.978520 -0.086163 0.067911 103 70 32
0.678872 0.526314 -0.074371 209 162 114
0.660188 0.546932 -0.075556 209 162 115
0.411171 0.259921 -0.284498 10 8 9
0.406589 0.269112 -0.286068 10 8 12
0.413984 0.242902 -0.285316 8 8 10
0.418561 0.265853 -0.278811 10 10 11
0.813163 0.069436 -0.043885 215 167 122
0.806707 0.061356 -0.046511 218 169 124
1.215079 0.309098 -0.067428 12 9 3
1.215417 0.309660 -0.063987 11 9 4
1.225310 0.300018 -0.073067 35 33 22
1.225006 0.289586 -0.057207 166 137 90
1.230760 0.314126 -0.057092 177 142 95
0.702851 -0.107915 -0.279162 86 90 112
0.701692 -0.094523 -0.270310 87 95 117
0.705944 -0.073362 -0.260810 96 105 121
0.533352 0.166795 -0.293044 12 9 6
0.526724 0.180500 -0.294335 9 9 10
1.294261 0.649400 0.305129 15 14 12
1.298226 0.648668 0.314803 21 18 17
1.279095 0.643595 0.309656 13 14 14
1.094878 0.564285 -0.070023 175 141 84
0.564693 -0.075545 -0.103419 20 10 7
0.573089 -0.071515 -0.102920 9 6 4
0.553400 -0.068473 -0.098710 34 23 16
0.560379 -0.074383 -0.098446 51 35 16
0.571414 -0.074314 -0.120776 8 7 3
1.062682 0.185505 -0.283947 13 13 11
1.061271 0.190846 -0.288490 5 3 2
1.061513 0.184663 -0.280499 8 7 6
0.533076 0.103741 -0.293023 23 16 15
0.499208 0.073973 -0.287053 9 9 17
1.041182 0.138149 -0.049525 216 173 128
1.048886 0.150960 -0.051836 215 173 119
1.049847 0.164377 -0.051343 217 173 121
1.292102 0.453228 -0.114737 139 120 89
1.293953 0.442629 -0.114458 154 135 98
1.278541 0.439555 -0.098644 92 77 52
1.279678 0.420141 -0.093527 142 125 96
1.286651 0.446114 -0.105499 132 116 87
1.297969 0.429353 -0.113604 121 104 73
1.151832 0.412586 -0.059781 204 156 115
1.134846 0.462670 -0.062826 204 158 106
1.365610 0.188194 -0.028893 29 32 37
1.378911 0.194550 -0.033398 29 35 38
0.990609 0.153889 -0.260899 15 15 9
1.327038 0.349441 -0.045964 192 150 92
1.291455 0.358325 -0.046160 191 154 95
0.705046 -0.092094 -0.014089 110 75 29
0.677953 -0.086934 0.005911 111 76 29
1.040092 0.122515 -0.267431 21 15 8
1.018524 0.140342 -0.264927 20 11 9
1.022832 0.097652 -0.264109 24 17 8
1.021974 -0.053106 -0.090116 97 69 31
0.729950 0.105436 -0.050889 219 166 132
0.549642 0.291957 -0.294456 58 40 23
0.985213 0.051700 -0.258168 30 28 40
1.243177 0.583202 0.227615 21 19 20
1.240708 0.592770 0.236133 21 19 20
1.250240 0.614746 0.215979 23 24 27
1.239030 0.592902 0.219332 23 22 21
1.243520 0.606878 0.231878 21 21 21
1.192939 0.009291 -0.051823 21 13 6
1.185174 0.011440 -0.056945 16 12 7
1.279286 0.407242 -0.094678 31 21 15
0.889496 0.418848 -0.065120 212 166 121
0.866306 0.358408 -0.061986 210 164 122
1.054588 -0.084481 -0.230765 37 21 13
1.044166 -0.089184 -0.238996 35 24 13
1.036356 -0.085967 -0.252690 61 38 14
1.027267 -0.071660 -0.251729 76 52 21
1.056887 -0.084927 -0.262859 37 21 12
1.086514 0.152884 -0.048666 205 159 106
1.065062 0.153654 -0.050177 205 161 105
1.170966 0.335264 -0.058736 98 73 37
0.981558 0.158759 -0.052615 206 174 132
0.875272 -0.102941 0.024599 100 69 23
0.701151 0.114807 -0.053410 213 176 124
0.664778 0.129321 -0.055522 217 179 129
0.707209 0.139300 -0.054406 218 180 125
0.691892 0.078158 -0.046625 204 161 119
0.702120 0.084626 -0.047190 202 161 119
1.179969 0.525439 -0.080083 23 15 9
1.026703 0.110224 -0.044177 216 165 124
1.027992 0.088585 -0.036051 207 160 119
0.668608 0.072960 -0.260122 23 27 35
0.675709 0.091076 -0.260636 19 22 29
0.670409 0.050910 -0.257411 28 29 28
0.740713 -0.097797 0.002411 114 73 29
1.128308 0.193493 -0.048243 209 167 108
1.248673 0.509471 -0.091587 88 70 51
1.242391 0.522231 -0.089176 44 30 13
1.241850 0.539223 -0.089275 44 30 13
0.923315 0.583279 -0.073687 201 157 111
1.274590 0.443490 -0.181689 34 31 23
1.273219 0.443013 -0.201084 15 9 5
1.271947 0.449952 -0.191167 28 20 11
0.612058 0.446920 -0.068766 205 163 113
1.056072 -0.082291 -0.211471 30 19 8
1.049826 -0.088014 -0.213617 34 21 10
1.035566 -0.071837 -0.203007 83 54 25
1.062512 -0.071996 -0.203791 35 22 10
1.040860 -0.081910 -0.192752 39 24 13
1.033295 -0.068989 -0.187439 90 61 23
1.037129 -0.055525 -0.180554 94 65 25
1.035909 -0.076047 -0.185078 88 58 23
1.059560 -0.076790 -0.194409 39 17 8
1.052564 -0.087137 -0.197959 31 19 7
1.038283 -0.065035 -0.203446 86 57 27
1.080480 0.094117 -0.285082 9 7 7
1.063941 0.091131 -0.285186 9 7 7
1.082996 0.101170 -0.277836 12 8 7
1.246415 0.267836 -0.044814 175 146 97
1.025269 0.200533 -0.268242 14 9 5
0.996708 0.209002 -0.261084 13 7 5
1.067805 -0.026750 -0.053080 16 15 14
1.068961 -0.015760 -0.060527 13 12 12
0.623897 -0.072412 -0.151695 10 9 8
0.611706 -0.079366 -0.123780 9 9 9
0.635477 -0.063463 -0.135399 10 10 8
0.627143 -0.067908 -0.137997 10 9 9
0.709483 0.419816 -0.066917 209 165 115
0.694192 0.419044 -0.067662 210 168 108
0.747213 0.157685 -0.264212 11 10 10
0.721847 0.180191 -0.264758 9 8 9
0.715851 0.162734 -0.264355 10 8 10
1.071428 0.075020 -0.283772 7 4 3
1.035903 0.103482 -0.290728 14 11 5
0.657064 0.235754 -0.266061 11 7 8
0.649575 0.222112 -0.266304 10 6 9
1.013820 -0.080461 0.000411 105 59 26
1.025970 -0.078891 0.014911 106 66 27
0.999175 -0.084033 -0.004089 102 69 27
1.371291 0.582599 0.212448 16 17 15
1.363513 0.585646 0.228838 17 18 16
1.149398 0.033107 -0.036824 194 168 121
1.177412 0.014001 -0.058701 31 27 23
1.167750 0.000918 -0.066176 38 36 30
1.171627 -0.005662 -0.063185 38 35 28
1.151163 -0.021518 -0.056292 37 35 21
0.750442 -0.097937 -0.045683 116 76 37
1.041689 -0.077943 -0.153447 37 26 15
1.032517 -0.065532 -0.125999 87 58 24
1.051432 -0.080247 -0.121129 30 19 7
1.053775 -0.079543 -0.135648 27 16 5
1.041073 -0.078166 -0.145508 40 27 10
1.060714 -0.077266 -0.138204 23 15 8
1.041782 -0.075633 -0.123024 66 46 17
0.548645 0.190573 -0.294146 10 8 8
0.549876 0.218370 -0.295454 41 26 11
0.558542 0.231107 -0.283540 12 7 3
0.555803 0.210734 -0.299987 12 8 6
0.559936 0.199852 -0.307515 14 10 5
0.568230 0.222225 -0.278261 17 11 7
1.304649 0.427123 -0.204253 78 67 52
1.294895 0.416269 -0.189571 65 53 50
1.296202 0.426047 -0.170868 72 60 49
1.279386 0.425611 -0.177354 54 49 42
1.286630 0.417167 -0.191999 64 57 44
1.298616 0.420600 -0.213614 47 41 32
1.291981 0.422084 -0.212133 41 38 25
1.356496 0.555296 0.057349 20 13 15
1.340696 0.557656 0.062415 17 13 14
1.364890 0.560468 0.070973 15 14 15
0.830539 0.092141 -0.047074 215 164 125
0.757437 0.085517 -0.047358 214 165 118
1.321150 0.590223 0.278611 18 19 22
1.330329 0.591981 0.291986 16 16 18
1.346560 0.592273 0.286571 15 17 18
1.356164 0.587171 0.266876 18 17 17
1.254427 0.238376 -0.042203 33 34 36
1.293519 0.235470 -0.039596 35 36 37
1.071178 -0.047848 -0.038929 17 14 13
1.063610 -0.048251 -0.048300 17 14 13
1.072514 -0.033468 -0.044793 12 13 8
1.063964 -0.049798 -0.020155 11 11 10
1.059220 -0.039137 -0.019475 12 12 12
1.054388 -0.026985 -0.027519 13 14 11
1.066688 -0.037155 -0.035282 11 11 11
1.064184 -0.026590 -0.032029 13 14 12
1.334218 0.520003 -0.054574 190 146 86
0.624209 0.074682 -0.054255 166 132 102
0.564563 0.064220 -0.045583 164 130 98
0.581663 0.040858 -0.045714 187 145 96
0.579949 0.064481 -0.048021 201 155 107
1.288170 0.324220 -0.044642 196 160 95
0.532961 -0.093536 0.051911 84 50 24
0.545764 -0.090967 0.057311 84 54 24
0.532573 -0.094380 0.062911 79 46 22
0.486225 -0.106997 0.067787 83 53 26
0.964464 0.114946 -0.046948 213 164 122
0.951706 0.091633 -0.047156 219 171 127
0.484513 0.243875 -0.282930 7 7 5
0.484740 0.230232 -0.285484 7 8 8
0.830315 0.366604 -0.062559 211 167 114
0.763909 -0.099474 -0.019839 115 72 32
1.352791 0.566694 0.098309 11 12 9
1.338524 0.567069 0.115546 12 13 9
1.332027 0.564347 0.085661 38 38 37
1.033944 -0.068221 -0.080610 81 56 26
1.049223 -0.077418 -0.079123 40 27 12
1.051931 -0.080283 -0.056649 14 9 5
1.042618 -0.076750 -0.061385 42 30 13
1.033338 -0.075021 -0.061823 69 48 21
1.295875 0.211144 -0.035971 40 41 43
0.836374 0.442055 -0.067280 211 165 116
0.822012 -0.100461 -0.049917 10 6 9
1.311035 0.551292 -0.006027 45 28 18
1.339506 0.579305 -0.020808 47 36 26
0.562751 0.330387 -0.062445 213 169 117
0.500336 0.106712 -0.049727 219 169 122
0.478334 0.116966 -0.051347 190 172 161
1.235755 0.575561 0.032550 25 27 24
1.233075 0.569540 0.024927 19 20 15
1.236679 0.571595 0.004377 21 20 19
0.629863 -0.080175 0.057901 115 77 34
0.977221 0.196443 -0.260659 10 7 13
1.010009 -0.095467 -0.333071 109 75 35
1.038339 -0.100974 -0.328071 76 53 29
0.584907 -0.073284 0.084968 196 157 105
0.575205 -0.068159 0.084316 198 161 106
1.352674 0.599779 0.324513 14 15 20
0.743768 -0.099188 0.045596 111 76 29
0.703733 -0.085990 0.072467 108 75 31
0.722009 -0.095409 0.065845 109 75 32
0.735824 -0.091424 0.072073 108 74 28
1.310828 0.454089 -0.263312 24 20 14
1.304197 0.447815 -0.286382 25 22 17
1.296520 0.431668 -0.290302 26 23 18
0.696668 0.168593 -0.265089 10 10 10
0.530282 -0.066405 -0.092092 27 16 13
0.537254 -0.089069 0.022411 86 54 19
0.526091 -0.090465 0.005724 87 54 23
0.557808 -0.091107 0.058885 104 66 29
0.561442 -0.087926 0.024125 92 60 32
0.570800 -0.087903 0.028118 217 172 119
0.656286 -0.063771 -0.066554 9 5 8
0.645979 -0.052635 -0.073408 7 7 6
0.678506 -0.072900 -0.059703 8 7 8
0.604778 0.135206 -0.270048 11 10 10
0.605381 0.115340 -0.274944 12 12 10
1.260925 0.580466 -0.016773 70 49 27
1.283283 0.575589 -0.018266 89 71 33
1.091355 -0.071215 -0.163361 7 7 5
1.070358 -0.082102 -0.145477 23 13 9
1.083091 -0.077721 -0.158707 13 13 8
1.084283 -0.078525 -0.141638 10 10 7
1.083505 -0.066824 -0.183040 9 8 6
1.073332 -0.080414 -0.160342 28 17 10
1.066356 -0.075582 -0.174588 28 17 9
0.480864 0.402442 -0.067339 214 167 120
0.789451 0.088746 -0.262200 17 15 18
0.873646 -0.102254 -0.273750 82 92 113
0.885525 -0.091313 -0.265578 92 97 125
0.871252 -0.079162 -0.262288 92 100 125
1.118070 0.248376 -0.050496 204 158 106
1.094946 0.236875 -0.051157 213 172 114
0.552382 -0.086734 -0.302046 23 15 15
0.545660 -0.084712 -0.291900 46 24 14
0.571566 -0.090582 -0.302564 9 9 4
0.567982 -0.089144 -0.287486 13 6 4
0.550808 -0.084029 -0.284679 23 14 11
0.556203 -0.082006 -0.270533 23 14 11
0.560072 -0.089221 -0.303391 26 15 11
1.083869 -0.026249 -0.240169 6 4 4
1.082704 -0.058404 -0.220862 7 4 7
1.083429 -0.042705 -0.220730 6 5 4
1.083466 -0.029163 -0.222402 6 5 4
1.080497 -0.020557 -0.211961 6 5 3
1.055038 -0.027850 -0.230132 32 22 15
1.060266 -0.041466 -0.241158 33 21 15
1.064336 -0.038739 -0.238169 31 19 13
1.063416 -0.028101 -0.228792 24 16 14
1.269490 0.564231 0.099517 17 19 21
1.237061 0.560759 0.092699 36 33 36
1.237505 0.574409 0.073327 18 19 18
1.248228 0.557100 0.107539 19 18 26
1.245108 0.555838 0.082570 18 20 20
1.260700 0.557228 0.080399 29 31 35
1.241281 0.557554 0.099725 18 19 21
1.241547 0.586652 0.099166 16 20 18
1.236506 0.574101 0.094271 17 21 15
0.580414 0.382099 -0.065764 213 170 121
0.549227 0.384406 -0.066121 214 170 119
1.273938 0.551124 0.057942 17 15 11
1.270396 0.544760 0.041050 20 17 21
1.302779 0.556395 0.068863 17 18 17
1.288463 0.550180 0.060654 18 16 10
0.599750 0.080587 -0.044624 211 166 120
0.593419 0.103682 -0.049577 209 169 128
0.544016 0.093271 -0.047163 166 146 136
1.051000 -0.028219 -0.179345 30 21 13
1.041858 -0.034668 -0.208627 44 25 12
1.037942 -0.042323 -0.188406 69 49 17
1.037782 -0.041821 -0.202852 55 32 11
1.042466 -0.052456 -0.191636 43 27 10
0.478114 0.176359 -0.054386 134 133 138
0.448736 0.177028 -0.054837 184 160 130
0.996283 0.107079 -0.260271 13 15 13
1.029235 0.281451 -0.055099 218 176 122
0.799880 -0.111123 -0.294089 53 33 25
0.786662 -0.110986 -0.287457 37 36 47
0.796232 -0.105232 -0.278097 64 65 83
0.777077 -0.111302 -0.299529 59 38 18
0.768206 -0.104996 -0.276009 47 49 68
1.243258 0.101277 -0.054359 46 39 26
1.294161 0.426148 -0.264727 29 27 19
1.288632 0.421873 -0.252270 35 34 22
1.288033 0.425965 -0.266777 28 27 18
0.838749 0.180844 -0.052589 212 170 124
0.826534 0.154055 -0.050123 214 175 129
0.812615 0.162023 -0.051257 208 169 119
1.094005 -0.024942 -0.052503 17 15 14
1.115319 -0.029527 -0.045829 16 13 13
1.089425 -0.029354 -0.046539 16 12 12
1.099827 -0.026880 -0.040107 14 11 11
0.845662 0.285243 -0.057563 220 174 124
1.254266 0.177540 -0.071861 34 25 12
0.587350 -0.029017 -0.038719 58 35 17
0.593282 -0.039873 -0.031192 97 65 27
0.586166 -0.049037 -0.035888 14 11 8
0.572673 -0.049536 -0.022728 17 12 10
0.581013 -0.045774 -0.038240 8 8 4
0.582982 -0.056094 -0.023285 96 61 25
0.740054 0.437607 -0.067414 210 163 116
0.770287 0.423679 -0.066392 201 158 108
0.675357 -0.086578 -0.043524 10 8 8
0.689369 -0.089095 -0.026839 14 8 1
0.712243 -0.094266 -0.039178 114 76 36
0.697201 -0.089178 -0.047887 9 7 7
1.362672 0.499004 -0.230793 100 83 53
1.358731 0.488027 -0.246172 65 53 30
1.341091 0.484090 -0.227885 70 54 30
1.368765 0.496630 -0.233295 57 48 31
1.339883 0.479908 -0.242201 43 36 24
0.975033 0.245819 -0.054113 208 177 132
0.597881 0.051495 -0.044935 109 87 62
0.600033 0.064166 -0.046175 202 161 116
0.610793 0.072261 -0.046863 192 153 113
0.749103 -0.097720 0.066793 111 79 26
0.751096 -0.100219 0.058627 107 74 34
0.785263 -0.094365 0.072057 113 77 29
1.337315 0.470462 -0.183306 60 45 39
0.606186 -0.016282 0.079573 205 160 114
0.617685 -0.015337 0.086147 215 168 119
1.341187 0.540070 0.012751 47 31 19
1.329111 0.547370 0.033392 50 37 22
1.340247 0.549290 0.039139 17 15 12
1.353952 0.548301 0.033955 20 14 14
1.176614 0.185773 -0.066642 19 13 6
1.171257 0.215047 -0.070079 19 13 6
1.169856 0.188370 -0.069775 19 13 6
1.182302 0.201522 -0.064821 19 14 8
0.770879 -0.101013 -0.045576 13 7 12
1.231962 0.601422 -0.092115 97 84 53
1.254200 0.600626 -0.099552 101 83 62
1.254323 0.618196 -0.100546 165 133 96
1.245066 0.605035 -0.095796 106 84 54
0.470849 -0.069813 -0.092945 7 8 9
1.226158 0.556671 -0.085409 79 59 43
0.430599 0.052794 -0.044959 219 174 129
0.888900 -0.102343 0.044036 104 71 33
0.894244 -0.100160 0.064068 103 69 32
0.867037 -0.100798 0.067627 107 73 32
0.873196 -0.101961 0.063828 107 72 33
0.880209 -0.095007 0.072734 109 74 31
1.360728 0.613935 -0.046510 23 19 19
1.349769 0.612444 -0.039646 13 15 8
1.055558 0.073148 -0.268694 29 14 11
1.037587 0.090675 -0.265480 30 17 12
1.059295 0.091207 -0.269728 8 9 5
1.278879 0.440626 -0.051067 192 155 97
1.256503 0.381212 -0.049211 195 152 110
0.638873 -0.080646 -0.002589 113 76 31
1.302648 0.631727 0.206234 21 17 20
1.273355 0.623413 0.200234 21 19 21
1.295527 0.627924 0.183560 16 13 10
1.313174 0.637157 0.189740 28 20 14
1.045202 -0.071923 0.079189 149 117 72
1.057641 -0.074642 0.085282 207 169 118
1.146366 0.113500 -0.040853 210 168 114
1.169202 0.135142 -0.043901 213 177 118
0.593146 -0.083190 -0.191345 122 86 47
0.588965 -0.078734 -0.205925 131 88 32
0.579262 -0.077590 -0.199919 107 79 28
0.600665 -0.086648 -0.197454 78 56 30
0.605604 -0.087212 -0.207066 41 35 24
0.836378 0.413276 -0.065798 201 157 107
0.874398 0.441845 -0.066584 214 173 118
1.117130 -0.009746 -0.064076 16 15 15
1.086182 -0.014568 -0.060225 15 15 11
1.095481 -0.008640 -0.064083 16 15 12
0.958648 -0.108225 -0.304341 76 46 20
0.959773 -0.112518 -0.290122 52 34 19
0.935042 0.469302 -0.066993 206 164 115
0.927344 0.520479 -0.069528 206 164 111
0.918057 0.478781 -0.067884 206 165 115
0.451869 0.138583 -0.289944 9 9 11
0.461375 0.123746 -0.289466 9 10 13
0.516667 0.258635 -0.286635 13 8 6
0.508582 0.268100 -0.282648 12 10 9
0.499718 0.260925 -0.280810 12 10 9
0.835980 0.207862 -0.261998 12 6 10
0.830385 0.231011 -0.257664 10 6 9
0.846335 0.230610 -0.259211 11 6 10
0.868186 0.222458 -0.259808 11 6 10
1.277534 0.637383 0.269915 17 17 17
1.260552 0.629678 0.276044 20 18 21
1.271432 0.635277 0.285736 18 18 17
1.190877 0.033915 -0.051725 21 13 6
1.177553 0.035595 -0.053578 16 13 7
0.543295 -0.061492 -0.100623 126 79 39
0.544444 -0.037624 -0.112405 40 26 13
1.243278 0.604860 0.203201 23 22 29
1.241747 0.586551 0.205149 21 24 24
1.250963 0.612262 0.194712 23 23 26
1.242558 0.596745 0.173561 20 22 24
1.240349 0.586622 0.183752 20 24 24
0.938124 0.245268 -0.256230 7 6 8
0.947434 0.223432 -0.258996 10 6 9
0.929315 0.239169 -0.260338 8 7 9
0.930928 0.222583 -0.259618 9 6 10
0.693930 -0.053000 -0.068507 8 7 6
0.690811 -0.065918 -0.065192 8 8 7
0.677273 -0.053369 -0.068730 5 7 5
0.664580 -0.048640 -0.070600 12 9 8
0.912988 0.543140 -0.071452 200 158 107
0.939125 0.071946 -0.052321 188 146 107
0.957414 0.076003 -0.042484 214 169 123
0.977147 0.076461 -0.038548 165 134 93
0.772369 -0.029441 -0.258296 68 73 90
0.596438 0.191458 -0.294197 11 10 11
0.598715 0.186644 -0.284492 10 9 9
1.230884 0.049837 -0.043371 32 24 18
1.229583 0.060866 -0.047701 39 28 20
1.240590 0.045033 -0.055129 34 29 26
1.230818 0.028445 -0.048054 33 28 23
0.874719 -0.102040 -0.002589 108 72 37
0.901040 -0.100701 0.012161 107 72 24
0.460225 -0.089581 -0.077719 7 7 10
0.474202 -0.093747 -0.069027 10 8 8
1.046178 0.569496 -0.071180 196 156 102
1.069230 -0.020918 -0.176156 7 5 7
0.496723 0.341468 -0.063209 215 170 118
1.254229 0.636441 0.339319 14 14 16
1.242522 0.626327 0.339517 13 14 18
1.245996 0.616494 0.349698 13 14 16
1.248481 0.626771 0.360447 13 14 16
1.246723 0.631816 0.352299 13 14 16
0.968815 0.207018 -0.054031 212 184 125
0.985235 0.200424 -0.054855 214 182 125
0.556723 0.275329 -0.278488 21 17 15
1.168334 0.148538 -0.065465 32 23 12
1.186864 0.186751 -0.060152 18 12 6
1.176208 0.171058 -0.063261 23 17 7
1.185801 0.156671 -0.055920 19 12 7
1.186091 0.182518 -0.055791 19 12 5
1.171116 0.171129 -0.071664 57 48 34
1.350567 -0.019218 -0.038115 21 15 9
0.755790 0.141735 -0.264797 13 12 13
0.983480 -0.045598 -0.068348 6 7 9
0.967382 -0.056969 -0.067122 7 7 9
1.315563 0.446048 -0.215029 50 38 23
1.317463 0.452254 -0.236717 72 59 33
0.401427 0.228024 -0.056372 216 172 123
1.007085 0.448880 -0.064102 205 163 109
0.442228 0.113756 -0.049738 219 166 125
0.435802 0.101997 -0.049425 212 159 120
1.162821 0.432883 -0.082856 51 36 19
1.159936 0.477657 -0.087201 26 17 12
0.643203 -0.078225 0.070029 107 71 34
0.645681 -0.056499 0.088662 216 168 104
0.651773 -0.067223 0.087326 217 170 100
1.075392 0.035735 -0.280040 4 4 6
1.070235 0.004193 -0.280107 6 5 7
1.043074 0.024218 -0.285921 32 20 15
1.062279 0.040639 -0.282545 13 10 10
0.595845 0.246619 -0.328065 13 6 3
1.163332 0.241524 -0.049843 201 162 110
1.173850 0.245680 -0.053894 37 23 13
1.388652 0.472564 -0.051300 201 160 98
0.565871 -0.019706 -0.164785 56 38 19
0.558213 -0.026033 -0.151223 64 43 24
0.873000 0.165581 -0.050515 212 172 119
0.744723 0.002018 -0.258692 42 46 50
0.735114 0.012408 -0.258355 43 45 60
0.602916 -0.011300 -0.217213 22 17 15
0.604339 -0.018289 -0.202497 32 24 22
1.113456 0.209353 -0.049767 213 171 115
1.000901 -0.081767 -0.036830 69 42 21
1.022089 -0.078365 -0.039507 74 49 21
1.002883 -0.080023 -0.046619 8 8 7
0.924905 0.349224 -0.059832 214 170 116
0.401951 0.280649 -0.288198 15 11 14
0.705785 0.464538 -0.069357 204 162 114
0.670221 0.152073 -0.264304 11 11 9
0.655880 0.179048 -0.265087 9 9 10
0.664706 0.156051 -0.265440 11 11 9
0.646441 0.167339 -0.267591 11 11 9
1.069861 -0.055070 0.049412 213 169 117
1.060821 -0.074714 0.055893 208 164 114
1.063735 -0.064401 0.078385 218 175 126
0.897255 -0.093263 -0.343582 7 6 9
0.817141 -0.090388 -0.058468 8 8 7
0.832481 -0.067300 -0.066896 9 9 4
0.799929 -0.081538 -0.063862 11 6 9
0.807189 -0.069142 -0.067386 8 7 7
0.454682 0.161840 -0.288576 8 8 10
0.435619 0.171306 -0.287495 7 8 9
0.883327 0.236504 -0.055021 199 169 130
0.863475 0.263590 -0.055744 206 173 135
0.534991 0.342510 -0.063339 215 170 117
0.323073 0.264483 -0.728277 8 9 9
-0.093917 0.448687 -0.436047 26 23 19
0.219622 0.305755 -0.491809 28 21 13
0.199432 0.310299 -0.487589 30 22 12
0.247867 -0.061383 -0.707533 40 40 48
0.263804 -0.070016 -0.704241 35 38 43
-0.447608 -0.074132 -0.387628 25 12 4
0.147519 0.110184 -0.719089 18 17 25
0.130098 0.087372 -0.692724 13 21 20
0.131297 0.103883 -0.700075 17 15 16
0.137004 0.099080 -0.706427 18 19 20
0.139046 0.063980 -0.705007 14 20 17
0.150308 0.075661 -0.719361 18 20 24
0.217879 0.163271 -0.724832 16 17 18
0.133323 0.041197 -0.678981 15 20 22
0.131616 0.055748 -0.679424 14 20 22
0.135950 0.040270 -0.693173 20 21 24
0.125210 0.064208 -0.672590 15 19 25
0.387848 0.046382 -0.716360 17 17 21
0.374060 0.060911 -0.711552 15 18 18
0.367438 0.055435 -0.714101 16 18 21
0.386294 0.069230 -0.699654 17 16 17
0.369269 0.067418 -0.694331 15 16 13
0.388944 0.058138 -0.715398 15 17 16
-0.095083 0.444154 -0.462126 26 24 17
-0.092604 0.444853 -0.442204 26 23 19
-0.101716 0.458232 -0.446627 23 23 18
0.004096 0.366296 -0.750043 13 11 14
0.014795 0.356036 -0.732677 21 18 18
0.297600 -0.093039 -0.342089 117 77 44
0.302099 -0.093177 -0.363071 7 8 10
-0.076611 0.372111 -0.694345 19 17 13
-0.098317 0.367127 -0.728093 14 10 9
-0.086418 0.379022 -0.703139 11 10 9
-0.071380 0.382554 -0.694774 17 15 13
0.140350 -0.121065 -0.683482 36 41 44
0.238414 -0.036519 -0.714511 33 36 41
0.224532 -0.067854 -0.709629 32 35 43
0.159569 0.082050 -0.726580 19 18 28
0.151523 0.096159 -0.723137 18 18 27
-0.366095 -0.058805 -0.427088 18 13 14
0.465682 -0.421377 -0.679822 64 70 87
0.451695 -0.410851 -0.681300 72 78 97
-0.047284 0.116182 -0.702178 27 27 30
-0.052292 0.135214 -0.698029 25 25 30
-0.039069 0.115405 -0.719558 30 27 31
0.350982 -0.163895 -0.697446 45 49 62
0.338392 -0.196465 -0.695944 54 55 64
0.325810 -0.175721 -0.696150 52 59 66
0.192640 0.243146 -0.737757 15 14 12
0.205292 0.271798 -0.734771 14 12 14
0.235389 0.328595 -0.536030 10 6 2
0.332697 0.299926 -0.499353 52 33 17
0.356506 0.300969 -0.496405 75 46 21
-0.235316 0.127216 -0.719981 28 21 14
-0.250104 0.130737 -0.719550 27 21 20
-0.262306 0.143153 -0.715299 28 21 21
-0.247148 0.140153 -0.717111 27 21 16
-0.255816 0.111033 -0.715200 52 36 21
-0.261869 0.129900 -0.717453 26 23 13
-0.013640 0.050471 -0.721522 27 30 32
-0.024593 0.057693 -0.717865 27 30 31
0.001733 0.029391 -0.719483 27 31 34
-0.001986 0.039642 -0.721166 25 29 34
-0.010300 0.023992 -0.723024 26 30 39
-0.452813 -0.575009 -0.700893 71 70 79
-0.460593 -0.595381 -0.698641 68 71 84
0.151210 -0.449850 -0.683846 65 78 89
0.135479 -0.458082 -0.682824 64 77 84
0.188309 0.305651 -0.502924 16 10 5
-0.096685 0.289442 -0.714032 14 13 10
-0.093895 0.283917 -0.694130 40 35 30
-0.284653 -0.047725 -0.722938 27 27 32
-0.274777 -0.035313 -0.699986 30 30 32
-0.271040 -0.033153 -0.710603 32 29 33
-0.281049 -0.039951 -0.704226 29 29 37
-0.271304 -0.038605 -0.722837 31 33 42
-0.277496 -0.032150 -0.721726 25 27 37
-0.290796 -0.050404 -0.695848 34 34 38
-0.266825 -0.015085 -0.702556 29 24 21
-0.288464 -0.029036 -0.692151 31 26 25
-0.062711 -0.460715 -0.687594 66 73 80
-0.043161 -0.461276 -0.686284 62 71 85
-0.085408 -0.472844 -0.687169 68 73 83
-0.125510 0.207984 -0.725312 17 12 13
-0.134925 0.232448 -0.732043 16 12 11
-0.107736 0.203911 -0.723252 16 12 12
0.108962 -0.473983 -0.683915 75 72 83
0.092620 -0.431369 -0.684959 62 71 83
0.071591 -0.457632 -0.684011 60 70 81
0.094166 -0.472389 -0.683761 64 75 83
-0.376322 -0.247626 -0.709494 58 63 73
-0.393407 -0.263563 -0.709469 74 72 91
-0.143085 -0.136893 -0.708884 54 55 67
-0.136605 -0.161487 -0.706584 46 53 64
0.443121 -0.259502 -0.690239 52 63 74
-0.418082 -0.319259 -0.708055 76 79 86
0.404484 0.262524 -0.726002 10 6 5
-0.349551 -0.569569 -0.696883 61 68 77
-0.341671 -0.564458 -0.695602 75 76 84
0.066108 0.135244 -0.676464 32 23 13
0.096987 0.140818 -0.663341 61 41 31
0.081990 0.163366 -0.668079 82 60 30
0.077087 0.139860 -0.670142 74 51 27
0.086114 0.147235 -0.663955 81 55 29
0.284010 0.073772 -0.704103 16 19 24
-0.362203 -0.066065 -0.667214 79 51 29
-0.027209 -0.526736 -0.686608 68 74 86
-0.028454 -0.495452 -0.686287 61 66 78
0.054946 -0.188160 -0.699308 46 55 66
-0.533991 -0.075384 -0.385751 14 13 14
-0.531157 -0.066682 -0.390576 21 11 4
-0.550207 -0.083365 -0.376997 13 10 13
-0.545209 -0.067070 -0.391177 28 15 10
0.207222 0.359706 -0.743757 8 8 8
0.193379 0.347475 -0.746641 9 9 8
0.204089 0.371012 -0.746493 8 8 8
0.014091 0.252616 -0.734514 15 14 18
-0.003340 0.224678 -0.736609 17 17 23
0.012433 0.233272 -0.734024 17 18 17
-0.006168 0.252817 -0.739719 15 15 20
-0.017774 0.238628 -0.735958 19 18 20
0.009275 0.219197 -0.734277 19 19 21
-0.388339 -0.064884 -0.469491 22 14 14
-0.189505 -0.416515 -0.692572 69 72 94
0.024740 -0.387958 -0.687727 73 74 89
-0.278049 -0.295057 -0.702725 72 80 84
-0.436925 -0.552924 -0.700704 66 70 85
-0.422117 -0.598424 -0.700291 77 78 92
0.051677 -0.334300 -0.689720 63 67 82
0.044108 -0.353566 -0.690724 73 72 79
-0.086209 0.384355 -0.627950 17 18 21
-0.070468 0.386662 -0.623928 7 10 10
-0.073490 0.382469 -0.602198 7 9 8
-0.090829 0.397544 -0.606446 25 22 19
-0.086922 0.382813 -0.603930 32 29 28
-0.079879 0.379525 -0.612682 12 12 13
0.098811 0.022122 -0.653625 32 25 17
0.099853 0.061017 -0.656361 70 50 27
0.082990 -0.027192 -0.355026 21 12 10
0.078897 0.150036 -0.351535 35 24 13
0.026970 0.444767 -0.589430 24 18 19
0.024981 0.483389 -0.590710 17 17 11
-0.282902 0.225736 -0.721795 15 16 16
-0.297645 0.209485 -0.708636 15 15 17
-0.283380 0.219794 -0.728540 15 15 16
0.022348 -0.044149 -0.710458 28 32 39
-0.320518 -0.039182 -0.671591 60 42 25
-0.303153 -0.047541 -0.670016 37 35 31
-0.311690 -0.042843 -0.677735 33 33 30
-0.340093 -0.127870 -0.601960 29 30 29
-0.327822 -0.119657 -0.600933 38 29 26
-0.354871 -0.126489 -0.631159 90 72 52
-0.321750 -0.499811 -0.695843 69 72 93
-0.367121 -0.516499 -0.699394 67 73 92
-0.057190 -0.542623 -0.686343 66 69 76
-0.073043 -0.530272 -0.688061 73 78 88
-0.051186 -0.516805 -0.685924 68 76 86
0.345710 -0.079044 -0.384439 6 9 10
0.315775 -0.064336 -0.392156 11 8 8
0.327615 -0.068305 -0.393374 11 7 5
0.343420 -0.066189 -0.394334 7 8 10
0.032937 0.334129 -0.554910 10 12 10
0.033912 0.333316 -0.528007 13 12 8
0.026385 0.343366 -0.550839 63 56 47
-0.534027 0.223992 -0.736734 16 14 10
-0.513975 0.221612 -0.735513 15 17 13
-0.297412 -0.584341 -0.693862 76 76 84
-0.306201 -0.557480 -0.697470 81 84 89
-0.318312 -0.563247 -0.696364 81 82 91
0.120878 -0.207991 -0.696180 51 58 68
0.100639 0.337409 -0.627183 10 8 6
0.100627 0.343152 -0.609528 7 7 11
-0.030710 0.416249 -0.752510 12 10 17
-0.010263 0.412146 -0.755570 13 11 14
-0.044340 0.425181 -0.739966 12 10 13
-0.373427 -0.080081 -0.394889 26 18 14
-0.385942 -0.076169 -0.391491 19 13 12
-0.388348 -0.066966 -0.400918 23 14 10
-0.064857 0.413868 -0.646026 6 13 11
-0.066842 0.422771 -0.658236 8 11 11
-0.061672 0.408799 -0.632704 7 10 7
-0.065804 0.415951 -0.631688 9 9 10
-0.494629 -0.467566 -0.703161 66 76 89
-0.479174 -0.452552 -0.703759 65 74 85
-0.232154 0.053074 -0.712974 24 24 14
-0.209493 0.046183 -0.712494 22 20 22
-0.240661 0.033218 -0.711484 21 20 21
-0.220596 0.053730 -0.712066 21 19 23
-0.021801 -0.005678 -0.709983 26 29 38
-0.008738 -0.007186 -0.711361 26 31 33
0.010420 0.017882 -0.718766 27 35 39
-0.009467 0.009204 -0.716921 25 30 35
0.018282 0.011991 -0.715405 26 31 39
-0.446418 -0.100418 -0.340339 108 69 40
-0.426480 -0.096143 -0.360619 106 71 37
-0.428535 -0.090913 -0.370288 68 45 24
0.053864 0.017878 -0.713309 28 32 38
0.062028 0.017732 -0.711415 25 32 35
0.069998 0.022686 -0.707141 57 37 26
-0.035487 0.396318 -0.747252 13 11 13
-0.004969 0.390825 -0.754063 12 11 17
-0.022946 0.390516 -0.752983 12 12 15
-0.013893 0.373103 -0.750894 12 11 17
-0.027276 0.377876 -0.751645 13 12 16
-0.027137 0.404270 -0.752872 12 10 18
-0.305398 0.215972 -0.719251 56 36 23
-0.318462 0.205350 -0.716328 14 15 14
-0.315239 0.197222 -0.688616 75 52 24
-0.319867 -0.099094 -0.548197 33 22 22
-0.324088 -0.112777 -0.555588 52 32 25
-0.319468 -0.099962 -0.566322 61 38 32
-0.023408 0.088318 -0.722617 25 26 29
0.004358 0.052166 -0.718855 26 28 29
-0.004353 0.062739 -0.723155 24 27 29
-0.342857 0.180604 -0.683671 35 23 6
-0.348295 0.188147 -0.689284 32 23 13
0.439388 -0.055858 -0.484777 171 126 70
0.437965 -0.061945 -0.473048 165 123 80
0.414133 -0.056816 -0.485086 169 130 79
0.419680 -0.064718 -0.471612 167 129 76
-0.513771 -0.078750 -0.383104 13 12 12
-0.495839 -0.068957 -0.386838 35 23 13
-0.514111 -0.067605 -0.388974 41 26 15
0.088723 -0.191300 -0.698688 53 58 68
0.099336 -0.219963 -0.695750 54 58 69
-0.342180 -0.441257 -0.699090 79 85 98
-0.366188 -0.463443 -0.698819 66 73 93
-0.355285 -0.422122 -0.701246 57 66 79
0.276227 0.304314 -0.732522 9 8 9
0.006662 0.164055 -0.727375 19 20 24
-0.002481 0.164231 -0.732111 26 23 29
0.304800 0.141095 -0.711602 76 51 31
0.129291 0.331815 -0.467420 8 6 5
0.141833 0.342767 -0.491377 11 6 4
0.134940 0.339208 -0.482158 9 8 7
0.153024 0.336359 -0.485638 9 7 6
0.176461 0.178599 -0.732060 15 16 19
0.166139 0.178199 -0.730641 13 14 17
0.159231 0.172317 -0.733819 15 14 14
0.156655 0.191261 -0.736039 10 12 12
-0.131286 0.383576 -0.754521 10 9 12
-0.141003 0.365701 -0.753633 10 12 10
-0.142758 0.377040 -0.757073 8 11 7
-0.174003 0.348170 -0.748459 10 9 8
-0.159070 0.368384 -0.752417 10 11 7
-0.150495 0.350664 -0.751120 10 11 8
0.115020 -0.288447 -0.692199 52 61 69
0.141576 -0.246848 -0.695382 56 60 70
-0.429990 -0.303927 -0.708548 74 75 90
0.107783 -0.061747 -0.622965 58 42 36
0.096665 -0.069266 -0.607232 47 37 35
0.088618 -0.063308 -0.450220 15 15 15
0.116665 0.321709 -0.718130 6 6 9
0.111029 0.329759 -0.707560 5 5 9
-0.448233 -0.072737 -0.720486 33 36 41
-0.433792 -0.088285 -0.719959 35 37 46
-0.387644 0.216543 -0.732828 16 16 14
-0.370402 0.205004 -0.726512 15 14 15
0.237835 0.126060 -0.714094 13 18 16
0.243246 0.091473 -0.708655 21 19 20
0.253891 0.120538 -0.709670 25 22 20
0.263541 0.101207 -0.706690 14 18 22
0.225835 0.110997 -0.714012 14 17 21
-0.560842 0.089670 -0.700748 82 56 34
-0.550746 0.100677 -0.692228 97 71 35
-0.559639 0.085107 -0.717299 19 19 14
-0.319028 -0.285731 -0.704871 63 73 84
-0.297808 -0.292772 -0.704678 62 70 80
-0.287412 -0.317516 -0.702189 66 73 83
0.195473 0.387478 -0.749386 8 8 8
0.179816 0.378780 -0.749473 8 8 9
0.207764 0.412536 -0.750660 7 7 9
0.206107 0.384611 -0.749597 8 8 9
-0.200191 0.434269 -0.752781 13 5 2
-0.194872 0.424073 -0.754228 12 3 3
-0.181981 0.425121 -0.753161 13 5 3
0.094976 -0.114545 -0.530170 117 82 45
0.093016 0.249215 -0.388487 21 16 9
0.100942 0.272580 -0.400823 9 6 4
0.106216 0.264211 -0.391127 13 6 6
0.091213 0.277093 -0.377720 18 12 6
0.097200 0.266234 -0.396123 14 12 6
0.031129 0.438314 -0.453866 20 16 17
0.033082 0.426424 -0.422701 24 22 15
0.026748 0.440259 -0.414444 19 15 16
0.032332 0.436431 -0.422870 16 17 12
0.035400 0.410322 -0.405254 21 18 14
-0.584347 0.274975 -0.734897 12 12 12
-0.583689 0.287844 -0.736413 12 10 11
-0.248727 0.065301 -0.707908 29 18 15
-0.227052 0.067577 -0.712098 27 19 21
-0.238836 0.073332 -0.709350 26 17 22
0.095845 0.119366 -0.377231 45 27 22
0.088680 0.134566 -0.368022 39 21 15
0.095288 0.100478 -0.377402 46 29 16
-0.104566 0.286912 -0.728876 15 11 8
-0.365029 -0.048980 -0.684639 23 18 16
0.286095 0.328731 -0.734372 7 7 9
0.269809 0.325889 -0.734715 10 8 9
0.133364 0.271731 -0.729503 12 11 14
0.322276 0.139384 -0.712651 13 16 16
0.302446 0.118581 -0.708437 15 16 17
0.316585 0.091517 -0.704904 15 17 20
-0.217364 -0.107912 -0.712199 49 48 56
0.035501 0.338064 -0.462361 31 30 34
0.376758 -0.079712 -0.464706 176 129 73
0.356097 -0.080793 -0.463885 166 126 77
0.020986 0.151683 -0.683708 63 63 59
0.021877 0.137783 -0.680964 49 49 44
0.024767 0.123379 -0.679304 111 113 109
-0.380928 0.038787 -0.723062 21 18 16
-0.046656 0.109304 -0.707649 29 28 30
-0.053726 0.107455 -0.686866 29 28 30
-0.044003 0.092635 -0.705654 28 25 31
-0.037736 0.100492 -0.715862 29 28 32
-0.034405 0.077990 -0.714615 25 26 28
-0.040972 0.089180 -0.712553 28 28 32
-0.549841 -0.047633 -0.723689 31 33 32
-0.508758 -0.052418 -0.723263 33 33 33
-0.521065 -0.016801 -0.723402 27 29 31
0.067962 -0.014024 -0.705316 33 32 35
0.075193 -0.011062 -0.698197 56 37 20
0.071213 -0.034541 -0.705133 56 39 32
0.098668 -0.054806 -0.442994 20 14 14
0.096035 -0.052457 -0.409830 38 27 18
0.184188 -0.084699 -0.708608 39 41 53
0.163104 -0.117669 -0.697021 38 45 50
0.185009 -0.096116 -0.697907 35 38 46
0.172142 -0.089157 -0.704061 34 35 42
0.087577 -0.077344 -0.592478 98 66 44
0.085038 -0.089464 -0.580743 98 67 43
-0.512554 -0.062636 -0.469915 105 84 58
0.255961 0.320631 -0.735845 10 9 10
0.271705 0.344898 -0.737052 9 8 9
0.042038 0.329959 -0.633210 6 3 7
0.061122 0.324383 -0.639896 32 19 17
0.050700 0.333521 -0.639350 20 10 10
0.031936 0.327733 -0.628021 6 4 5
0.064781 0.330457 -0.656615 53 31 15
0.053443 0.339940 -0.662729 15 8 9
0.049353 0.336478 -0.654681 9 5 11
0.067125 0.341690 -0.675886 34 22 11
0.066268 0.317786 -0.642439 56 34 19
0.147382 -0.329325 -0.690518 61 72 81
0.029920 0.427746 -0.469901 25 24 17
0.028384 0.389245 -0.465854 47 42 39
-0.434994 -0.082159 -0.514668 89 58 22
-0.451784 -0.090310 -0.506692 87 54 28
-0.453021 -0.083029 -0.509892 95 76 42
0.396345 -0.287283 -0.687609 63 71 84
-0.495707 -0.366351 -0.707806 69 73 91
-0.505774 -0.384902 -0.706093 69 78 91
-0.407180 0.127099 -0.710243 16 17 12
-0.190520 -0.034175 -0.721618 35 36 47
-0.215375 -0.016727 -0.717544 29 35 38
-0.178736 -0.016213 -0.721872 28 32 36
-0.194533 -0.018788 -0.722834 29 32 36
-0.218405 -0.004421 -0.712197 26 32 33
-0.086621 0.043431 -0.661428 86 87 91
-0.445033 -0.080630 -0.383432 54 36 14
0.112413 -0.119906 -0.520643 100 68 36
0.127836 -0.115206 -0.523749 22 22 26
0.101825 -0.117842 -0.515367 129 87 47
-0.119066 0.455193 -0.476396 8 7 8
-0.096056 0.179648 -0.685081 39 35 38
-0.098204 0.179275 -0.703211 34 33 30
-0.094528 0.196467 -0.694280 35 31 30
-0.103469 0.191758 -0.720921 20 19 17
-0.101799 0.200856 -0.718499 24 23 19
-0.106521 0.173365 -0.715381 23 21 18
-0.121170 0.440595 -0.488681 10 8 5
-0.325024 -0.121069 -0.682870 41 42 46
-0.339165 -0.128532 -0.673815 42 44 48
-0.348606 -0.135926 -0.697054 94 77 64
0.334550 0.031539 -0.713152 19 22 25
0.329760 0.003197 -0.711486 22 23 27
0.308006 0.205074 -0.724226 13 13 11
0.094777 0.001675 -0.652511 104 72 44
0.088660 0.001331 -0.655270 101 76 42
0.093863 -0.033567 -0.649648 105 77 40
0.105950 -0.032617 -0.650478 73 53 31
0.102494 -0.011338 -0.651671 67 49 36
0.275066 0.313492 -0.520008 9 5 3
0.279317 0.307787 -0.509581 11 6 6
0.289881 0.301267 -0.506458 19 10 7
0.270767 0.301584 -0.502740 23 13 6
-0.472691 0.199409 -0.737791 119 90 64
-0.489571 0.181142 -0.736911 34 23 17
-0.459457 0.212762 -0.734861 23 16 7
0.348259 -0.334938 -0.687288 66 73 86
-0.067727 0.419645 -0.681682 12 12 14
-0.059445 0.405171 -0.667005 10 13 10
-0.063430 0.397966 -0.675580 8 11 9
-0.065141 0.414517 -0.664649 10 14 7
-0.059350 0.407116 -0.679208 12 14 18
-0.064650 0.429067 -0.680592 17 13 11
-0.068334 0.421404 -0.674515 12 12 15
0.265375 -0.082284 -0.382228 9 8 13
-0.061048 0.402125 -0.594319 8 7 12
0.162445 -0.360043 -0.688385 68 75 92
0.123811 -0.370402 -0.687778 62 70 77
0.075523 0.043141 -0.698974 57 38 20
0.079785 0.048740 -0.662375 80 59 29
-0.317316 -0.091757 -0.386430 21 11 9
-0.319107 -0.097025 -0.391671 23 11 8
-0.069796 -0.153605 -0.705308 51 56 68
0.259806 0.050925 -0.705875 16 22 18
0.262233 0.032323 -0.716075 21 22 25
0.255565 0.028320 -0.711961 20 24 22
0.248118 0.033930 -0.702504 21 21 24
0.234279 0.044269 -0.704782 18 22 24
0.031439 0.403797 -0.442221 30 26 16
0.030729 0.396921 -0.429363 29 29 22
0.132851 0.249982 -0.729024 12 12 14
0.125743 0.234447 -0.723980 12 12 16
0.116480 0.254466 -0.698718 14 9 8
0.125191 0.244140 -0.714802 11 11 11
0.118690 0.220870 -0.693561 10 10 10
0.108376 0.261248 -0.687460 12 9 6
0.121923 0.238949 -0.719630 10 10 11
-0.390506 -0.107225 -0.466616 130 88 44
-0.428658 -0.102218 -0.457588 166 118 79
-0.390096 -0.105132 -0.460103 149 102 63
0.271521 -0.066309 -0.477383 114 88 52
0.279545 -0.060904 -0.488228 174 128 78
-0.195847 -0.056826 -0.718576 39 41 49
-0.157670 -0.050909 -0.714311 36 40 47
-0.215837 -0.077537 -0.713974 34 38 42
-0.469201 -0.214440 -0.715342 56 64 73
-0.475976 -0.223819 -0.714808 52 59 71
0.103764 0.190003 -0.375831 31 20 14
0.090587 0.193267 -0.374847 29 19 11
0.096991 0.178789 -0.373011 30 21 13
0.138786 0.325533 -0.545295 7 6 8
-0.508170 -0.110711 -0.719936 40 48 55
-0.516350 -0.093193 -0.721225 41 49 44
-0.309899 0.183871 -0.735097 14 16 23
-0.316520 0.192600 -0.728545 15 16 15
-0.380970 0.370251 -0.730978 10 9 7
-0.372919 0.395431 -0.732716 9 9 7
-0.082891 0.393698 -0.512277 20 16 16
-0.073558 0.390249 -0.520522 8 9 7
0.110956 0.111508 -0.381640 10 8 3
-0.384283 0.071018 -0.691193 81 56 27
-0.541495 0.080149 -0.720454 15 20 26
0.355541 -0.476922 -0.679743 79 82 91
0.297482 -0.010324 -0.711189 22 27 28
0.274216 0.412860 -0.742770 7 6 9
0.249878 0.397782 -0.743055 7 7 9
0.086404 0.081221 -0.365407 39 24 13
0.096241 0.075233 -0.375258 53 35 21
0.178104 0.410100 -0.755837 8 8 9
0.092964 -0.119786 -0.575197 122 88 52
0.094567 -0.118214 -0.546522 120 82 40
-0.146954 -0.381023 -0.692792 71 72 90
-0.498316 -0.091652 -0.501715 69 49 23
0.322959 0.066733 -0.693157 16 17 16
0.343898 0.091395 -0.703067 14 15 18
0.349799 0.080716 -0.693038 17 16 13
0.208035 -0.134756 -0.699279 49 54 58
0.161733 -0.143743 -0.699752 50 53 58
0.176745 -0.123224 -0.699182 44 47 58
0.201449 0.300987 -0.448204 39 26 10
0.219893 0.297897 -0.448188 14 7 2
-0.528888 0.312537 -0.734019 10 9 9
0.192345 0.071895 -0.715306 24 25 26
0.167484 0.104587 -0.723329 20 21 22
-0.083314 0.406783 -0.399315 25 26 22
-0.378452 -0.067409 -0.715060 25 26 28
-0.387915 -0.096892 -0.717851 25 31 28
-0.367189 -0.088505 -0.691542 86 62 45
-0.370736 -0.102867 -0.706072 74 56 32
-0.370593 -0.068092 -0.706930 73 55 37
0.200705 -0.102049 -0.481064 125 88 41
0.197005 -0.100141 -0.471127 128 87 40
0.122376 -0.122349 -0.649317 29 36 36
0.143921 -0.108469 -0.637023 30 33 41
0.149864 -0.104737 -0.651586 28 30 39
0.141769 -0.113690 -0.663805 29 29 33
0.150717 -0.097027 -0.635980 35 36 38
0.230366 -0.065540 -0.392595 12 8 12
-0.155210 -0.083769 -0.712129 40 47 50
-0.359665 -0.050982 -0.443845 18 13 13
0.098331 0.280001 -0.680667 7 7 6
0.010203 -0.452727 -0.685184 69 74 89
0.000255 -0.482447 -0.684188 64 68 83
-0.371527 -0.063502 -0.467577 33 19 14
-0.369862 -0.057831 -0.480218 31 17 10
-0.341222 -0.051123 -0.635634 72 44 20
-0.340108 -0.047455 -0.651906 112 80 49
-0.350865 -0.059643 -0.647014 136 101 59
-0.351450 -0.051855 -0.660502 139 101 57
-0.331405 -0.048522 -0.653072 68 50 32
0.264895 0.309749 -0.464473 15 9 8
-0.204382 0.443871 -0.464877 21 17 18
-0.224038 0.420674 -0.467946 36 28 28
0.224482 -0.100231 -0.471345 155 107 62
0.191812 -0.093958 -0.459934 145 105 62
0.213412 -0.090662 -0.458279 133 100 58
0.201923 -0.087818 -0.456550 139 107 66
-0.340072 -0.033840 -0.665786 141 103 45
-0.355037 0.004379 -0.681151 39 25 18
-0.391817 0.337629 -0.731377 8 8 7
-0.413513 0.344404 -0.731732 9 9 8
-0.342811 0.349940 -0.721070 12 9 10
-0.334856 0.342447 -0.698145 28 17 12
-0.353222 0.335415 -0.714691 17 11 9
-0.487815 0.216482 -0.736345 13 14 11
-0.475262 0.218518 -0.736005 14 15 10
-0.480292 0.230496 -0.730607 14 14 10
-0.498666 0.230447 -0.731629 13 13 12
-0.531706 -0.227864 -0.716601 51 59 72
-0.520790 -0.209233 -0.716429 60 65 83
-0.080946 0.008995 -0.657917 58 62 62
-0.076079 -0.014192 -0.656550 82 85 83
0.100347 -0.059600 -0.641018 99 71 39
0.113209 -0.044433 -0.645673 84 60 36
0.108935 -0.056507 -0.635155 87 61 36
0.089707 -0.045867 -0.649897 109 85 51
0.288565 -0.064087 -0.478177 165 122 77
0.312296 -0.061784 -0.480506 138 104 58
-0.398700 0.363401 -0.731632 9 7 8
-0.071587 0.391277 -0.429758 9 8 9
-0.073078 0.393611 -0.411615 12 10 11
-0.268958 0.135552 -0.713058 27 21 20
-0.272806 0.112846 -0.709928 28 23 14
-0.269751 0.125492 -0.715828 29 22 13
-0.281431 0.136002 -0.708242 34 22 20
-0.275798 0.128487 -0.716668 52 36 18
-0.276713 -0.153401 -0.711310 56 58 69
-0.523663 -0.127013 -0.719253 51 55 64
-0.322468 -0.537279 -0.697046 73 70 92
-0.323027 -0.520292 -0.696669 70 72 89
0.029099 0.449165 -0.482475 17 16 10
0.140201 0.230966 -0.731118 12 13 15
0.117289 -0.058868 -0.628822 49 34 32
0.145203 -0.050564 -0.655126 36 27 34
0.134001 -0.040497 -0.652532 34 26 33
0.119187 -0.054697 -0.637023 46 32 31
0.133895 -0.050688 -0.647553 37 28 34
-0.434049 -0.536440 -0.699137 70 71 87
-0.447636 -0.541733 -0.700380 71 74 88
0.000055 -0.432409 -0.686811 63 72 81
-0.045199 -0.002347 -0.679457 25 28 34
0.203394 -0.098017 -0.353612 103 73 52
0.202714 -0.085545 -0.376542 10 10 10
0.223019 -0.093834 -0.365679 11 8 13
0.446839 -0.206630 -0.692368 59 64 78
0.128423 0.130433 -0.691549 12 12 11
0.368167 0.458701 -0.736988 7 6 6
0.361708 0.430526 -0.735565 8 6 5
0.349648 0.443806 -0.739045 8 6 6
0.142223 -0.398923 -0.686361 60 66 74
0.108010 -0.385968 -0.687382 58 67 70
-0.407491 -0.332091 -0.706396 68 76 85
-0.393121 -0.349641 -0.705282 68 75 81
0.111146 0.246223 -0.393281 26 19 9
0.151473 -0.028607 -0.662427 33 26 32
-0.298430 -0.014836 -0.688714 33 34 31
-0.304870 -0.028301 -0.683128 33 34 31
0.029389 0.336484 -0.562708 6 8 8
0.063057 -0.150936 -0.700424 51 55 68
-0.252150 -0.043403 -0.726289 37 40 41
-0.518376 -0.086434 -0.454788 155 119 74
-0.532593 -0.098235 -0.463936 122 85 49
0.194135 0.307435 -0.493628 33 19 10
0.172889 0.306510 -0.501094 33 21 14
0.180336 0.314887 -0.485232 37 21 13
0.184949 0.315195 -0.474764 16 10 5
0.189778 0.329073 -0.475055 15 8 5
0.173199 0.325572 -0.472003 12 7 2
0.182302 0.338708 -0.481124 10 6 4
-0.071322 0.353335 -0.697810 17 15 17
-0.066035 0.374978 -0.704456 15 13 15
-0.494308 0.077806 -0.719001 20 18 14
0.039026 0.327038 -0.654509 14 11 8
0.044519 0.330993 -0.673479 7 5 6
0.038414 0.314084 -0.688630 46 42 38
0.057025 0.340241 -0.690254 9 8 3
0.040902 0.325444 -0.682590 25 22 19
0.108809 0.308411 -0.560679 6 7 9
0.113714 0.310712 -0.545210 7 6 7
0.098432 0.300284 -0.549619 6 6 10
0.128055 0.308146 -0.524711 7 6 9
0.126526 0.316525 -0.539027 8 6 9
0.118492 0.318441 -0.554902 7 6 7
0.117547 0.328285 -0.553493 6 6 7
0.392161 0.082057 -0.689381 14 13 11
0.374814 0.072648 -0.689953 14 13 11
-0.141494 -0.475705 -0.691485 59 68 80
-0.414278 -0.070861 -0.463393 106 73 39
-0.423326 -0.091953 -0.451137 149 108 67
-0.393515 -0.098202 -0.452794 156 112 70
-0.398208 -0.089207 -0.451079 120 84 43
-0.429733 -0.077087 -0.457407 74 50 26
0.014577 0.070461 -0.715249 39 41 37
0.014625 0.043975 -0.716336 27 29 29
0.006025 0.075009 -0.719870 26 27 29
0.016766 0.080604 -0.704787 43 46 50
0.014088 0.062186 -0.703488 46 46 44
0.295028 0.366386 -0.737441 7 6 9
