ply
format ascii 1.0
element vertex 1246
property float x
property float y
property float z
property uchar red
property uchar green
property uchar blue
end_header
0.317284 0.617668 -0.200942 103 112 126
0.316991 0.620392 -0.187641 108 119 137
-0.428076 0.422323 0.444172 69 31 23
-0.427887 0.388641 0.442381 75 37 27
-0.430615 0.399897 0.452923 73 32 22
0.133279 0.618102 0.659111 199 185 155
0.078525 0.613767 0.619682 200 184 154
0.085210 0.615024 0.640907 199 185 155
0.355579 0.498035 0.090053 90 50 42
-0.004401 0.506374 0.151632 79 39 27
-0.153593 0.606007 0.618952 204 188 157
-0.388269 0.502060 0.204502 26 20 22
-0.377182 0.506351 0.219266 27 20 23
-0.388338 0.116662 0.409098 185 168 193
-0.405546 0.134113 0.418449 168 140 143
-0.384171 0.120892 0.408845 224 237 250
-0.396292 0.113285 0.414200 140 105 108
-0.249166 -0.193782 0.429923 167 125 93
-0.250621 -0.190564 0.423389 169 127 100
-0.251458 -0.222880 0.429460 176 145 123
-0.245269 -0.180241 0.434138 134 96 79
-0.231856 -0.186668 0.435620 137 99 81
-0.240640 -0.218412 0.435040 140 100 80
-0.407552 0.087555 0.417795 136 97 103
-0.396276 0.060343 0.414721 128 89 81
-0.396498 0.090126 0.412878 189 179 209
-0.387963 0.090644 0.405665 203 212 240
-0.408951 0.077111 0.418781 167 138 137
-0.385378 0.159251 -0.043117 69 44 30
-0.370430 0.394830 0.408107 184 162 181
-0.376441 0.408598 0.409816 183 160 178
-0.394254 0.413683 0.421952 91 55 51
-0.378441 0.403045 0.414154 176 146 157
-0.387255 0.389441 0.418974 96 60 54
-0.381062 0.397513 0.418076 89 56 50
-0.383488 0.396895 0.410462 142 105 98
-0.225567 0.499792 0.332846 26 11 10
0.055245 0.503442 -0.007732 106 60 37
0.054268 0.500005 -0.016723 109 63 41
0.032992 0.502427 -0.011933 105 59 36
-0.427067 0.147048 0.056426 56 32 26
0.080701 0.506217 0.291077 114 59 26
0.137273 0.277412 -0.029796 162 116 74
0.161056 0.290438 -0.029013 152 107 67
-0.444049 0.177468 0.289810 32 18 18
-0.253339 0.168860 0.352856 121 71 44
-0.227992 0.080610 -0.040154 101 70 43
-0.206170 0.095898 -0.038700 100 63 31
-0.230099 0.090736 -0.038431 103 67 31
-0.421766 0.216937 0.003389 52 28 28
-0.422570 0.225089 0.031113 47 26 25
-0.424272 0.210179 0.021320 52 27 25
-0.424293 0.193336 0.033738 54 28 28
-0.420945 0.233831 0.014555 51 28 27
-0.106717 0.467467 -0.030937 70 45 31
-0.090505 0.480669 -0.027966 68 43 32
-0.139326 0.385395 -0.031347 97 65 36
-0.131730 0.404766 -0.033144 83 53 31
0.025838 0.498167 -0.018629 98 53 32
0.037818 0.491555 -0.022770 122 76 44
0.006105 0.493506 -0.022686 116 71 42
-0.430836 0.378473 0.229078 31 23 25
-0.430970 0.385443 0.242705 30 21 24
0.159118 0.622027 -0.266840 94 81 70
0.055190 0.617667 -0.288423 96 83 70
0.034681 0.615060 -0.303358 79 71 67
-0.338399 -0.002723 -0.045595 83 51 27
0.046537 0.615135 -0.292504 84 74 66
0.053533 0.619180 -0.298344 69 65 63
-0.367663 0.020434 -0.046241 82 48 26
0.038854 0.617522 -0.314829 77 69 68
0.144339 0.623490 -0.277042 70 74 80
0.183366 0.611783 0.441384 196 179 150
0.178660 0.608448 0.431170 193 173 140
0.164387 0.610759 0.428364 193 170 135
0.161790 0.608624 0.423925 193 169 136
0.161073 0.601326 0.421314 192 168 132
-0.034970 0.505816 0.184107 81 41 32
-0.320803 0.179475 -0.039859 85 59 42
-0.289620 0.178633 -0.043161 75 48 30
-0.300633 0.163419 -0.035191 78 49 33
-0.301166 0.196737 -0.043618 76 45 23
0.275917 0.322228 -0.026710 177 130 87
0.319459 0.529965 0.396973 211 191 161
0.349005 0.523921 0.388859 255 253 252
0.332927 0.526178 0.392341 227 214 195
-0.437775 0.044634 0.178123 54 30 25
-0.414360 0.543370 0.561254 213 193 164
-0.384766 0.536966 0.559982 208 193 162
-0.396286 0.550758 0.555929 205 182 155
-0.398614 0.561742 0.556099 204 182 153
-0.415245 0.560769 0.555929 204 180 154
-0.303239 0.350089 -0.039624 65 41 25
-0.521181 0.604833 0.641168 228 212 185
0.382782 0.493844 0.000264 88 50 38
-0.430042 0.150218 0.118781 54 30 23
-0.432671 0.135218 0.127327 54 30 24
-0.332575 0.597385 0.573464 204 189 158
-0.337651 0.594577 0.565716 202 188 157
-0.322089 0.590543 0.561861 217 204 179
-0.328378 0.602083 0.578978 203 188 158
-0.319728 0.585656 0.557755 198 183 152
-0.272018 0.541052 0.555150 176 145 120
-0.301047 0.560772 0.557548 200 175 149
-0.271809 0.535304 0.562033 204 186 159
-0.285948 0.535077 0.559754 203 186 159
-0.287948 0.543445 0.556424 192 165 138
-0.286561 0.558198 0.557418 199 173 147
-0.433011 0.330103 0.462884 91 46 31
-0.005074 -0.069495 -0.038430 178 137 88
0.287408 0.365826 -0.025590 177 125 79
0.303444 0.398995 -0.024800 176 123 78
-0.179123 0.498914 0.258653 61 32 23
-0.188473 0.498527 0.273677 51 25 19
-0.434003 0.433936 0.520850 85 44 39
-0.433248 0.439826 0.534602 95 64 60
-0.077045 0.509315 0.307577 78 32 18
-0.286408 0.409743 -0.037714 58 39 29
-0.341454 0.284715 -0.036949 86 55 34
-0.322248 0.273047 -0.045563 81 52 29
-0.338880 0.276061 -0.036279 92 59 30
0.413440 0.447546 -0.059233 116 100 89
-0.434678 0.604871 0.641435 216 200 174
-0.415263 0.605664 0.641077 219 203 174
0.155298 0.348599 -0.028354 149 102 63
-0.441226 -0.012609 0.316974 41 26 26
0.210078 0.501081 0.055067 106 56 36
0.207375 0.502011 0.080564 105 55 36
-0.383082 0.387203 -0.038909 48 30 28
-0.412873 0.343495 -0.030945 41 25 26
-0.407846 0.392170 -0.030593 41 25 27
-0.412431 0.396282 -0.022905 38 24 23
-0.401987 0.389678 -0.034952 40 26 24
0.442218 0.384312 -0.039753 116 102 92
0.417583 0.364431 -0.056094 121 106 94
0.442929 0.369982 -0.034033 147 133 118
0.440433 0.365781 -0.027952 172 155 133
0.436905 0.370880 -0.051543 110 95 85
0.300162 0.650932 0.647090 255 254 253
-0.242199 -0.204656 0.345571 103 72 49
-0.251650 -0.191830 0.345668 114 84 60
-0.257495 -0.191401 0.348388 119 89 73
-0.252036 -0.211494 0.344603 50 26 19
0.069704 0.505736 0.242745 112 62 39
-0.201834 0.246164 0.437674 57 25 20
-0.213319 0.248283 0.440000 60 27 22
-0.196163 0.265023 0.433756 117 84 82
-0.193416 0.256187 0.429507 121 87 85
0.023840 0.276591 -0.032483 138 93 58
0.024028 0.506113 0.134377 105 55 33
-0.191600 0.599554 0.558071 194 181 153
-0.206057 0.605411 0.572778 198 183 155
-0.232329 0.600960 0.567075 200 182 153
-0.215012 0.579254 0.551121 195 171 131
-0.207536 0.600008 0.555099 195 174 142
-0.209706 0.599487 0.560476 195 176 143
-0.223661 0.593765 0.554313 196 172 139
-0.231677 0.599693 0.558726 195 173 140
-0.434302 0.225858 0.187102 42 26 26
-0.214576 0.305396 -0.038989 116 77 35
-0.204400 0.325922 -0.038307 136 90 41
-0.212937 0.323118 -0.036400 154 105 43
-0.217591 0.322476 -0.039308 93 60 36
-0.241881 0.319742 -0.038658 115 76 35
-0.219532 0.318878 -0.032871 126 89 34
-0.232686 0.314123 -0.030361 144 101 38
-0.221136 0.322392 -0.032254 139 94 43
-0.210816 0.328995 -0.033428 137 92 44
-0.238097 0.333992 -0.034142 129 88 41
-0.208860 0.317920 -0.029341 142 97 43
-0.217256 0.322026 -0.030328 129 89 37
-0.232196 0.316020 -0.034597 139 100 37
0.152940 0.625215 -0.314898 65 68 72
0.167062 0.623330 -0.304052 72 78 85
0.156238 0.626030 -0.294928 67 70 76
-0.441833 0.088728 0.465435 115 75 64
-0.441438 0.087400 0.446769 110 74 63
-0.439604 0.088392 0.439283 110 72 60
-0.233890 -0.159080 0.349631 136 100 70
-0.252597 -0.156687 0.347830 120 87 62
-0.246046 -0.148782 0.346976 116 85 60
-0.257207 -0.138572 0.354114 150 107 76
-0.445839 0.112878 0.335026 109 76 48
-0.446022 0.107568 0.326400 104 71 50
0.237326 0.595457 0.392415 150 124 98
0.233077 0.595977 0.398272 194 161 124
0.227478 0.571628 0.406788 153 119 90
-0.447195 0.351155 0.328431 63 37 24
-0.448093 0.373714 0.329598 104 62 37
0.167062 0.601582 0.418063 194 168 132
0.161472 0.596567 0.416200 178 142 103
0.105517 0.083466 -0.033658 189 152 106
0.153772 0.088234 -0.032131 182 144 98
-0.078361 0.072589 -0.039016 146 104 66
-0.039355 0.076554 -0.037781 141 101 59
0.290220 0.608763 0.390431 211 189 157
0.296188 0.607079 0.377482 198 177 152
0.275348 0.608150 0.389067 204 183 155
0.244662 0.626952 -0.274671 99 104 115
0.248737 0.626521 -0.286635 107 109 117
0.218757 0.627349 -0.276973 64 64 61
-0.219619 0.437856 0.439447 97 49 27
-0.227967 0.437550 0.439218 100 52 26
0.178464 0.618699 0.616052 198 184 155
0.200009 0.618541 0.618361 199 185 157
0.214424 0.620049 -0.256866 90 80 70
0.068264 0.618766 -0.299898 70 67 69
0.077568 0.620885 -0.284400 93 81 74
-0.423667 0.294623 0.057182 37 22 24
-0.466861 0.472257 0.574774 249 248 248
-0.463338 0.484521 0.573023 250 248 247
-0.492319 0.493938 0.574254 234 232 232
-0.498418 0.491552 0.550668 115 81 82
-0.483448 0.497963 0.574136 241 239 236
-0.168041 0.506633 0.353527 60 26 15
-0.189730 0.499895 0.345873 46 19 12
-0.347944 0.540802 0.554278 201 177 151
-0.329000 0.563936 0.555428 205 181 155
-0.317315 0.546165 0.555361 202 176 151
-0.334526 0.540424 0.557615 206 188 160
0.280991 0.497467 0.088393 110 62 41
-0.202575 0.565135 0.542580 146 107 81
-0.213858 0.572821 0.545631 147 117 89
-0.212647 0.565248 0.549113 155 121 97
-0.247685 0.501151 0.007636 38 23 27
-0.243118 0.498559 -0.020847 36 24 24
-0.263571 0.501616 -0.018890 36 26 25
-0.036257 0.439792 -0.030676 131 82 45
-0.442492 0.120866 0.517268 129 85 77
-0.443673 0.137360 0.534221 145 107 111
-0.438192 0.211293 0.478749 117 67 48
-0.437942 0.193456 0.452527 111 64 49
-0.201912 0.560436 0.552481 180 150 119
-0.114079 0.345458 -0.022776 149 110 56
-0.196375 0.443241 0.397317 57 25 15
-0.194083 0.442369 0.405531 76 37 19
-0.189421 0.419861 0.419571 89 46 22
-0.194498 0.406536 0.407662 78 40 23
-0.160895 0.493466 -0.016350 56 33 26
-0.175141 0.487888 -0.022708 48 31 25
0.065244 0.608868 0.533578 195 180 150
-0.380913 0.607192 0.597102 209 193 163
-0.361138 0.607463 0.599199 207 191 162
-0.361006 0.606491 0.620327 209 193 162
-0.195686 0.172806 0.416056 111 74 47
-0.206693 0.193530 0.390431 100 60 43
-0.202603 0.191465 0.402036 96 58 39
-0.430863 0.469227 0.493077 64 27 21
-0.427004 0.485375 0.455212 58 23 21
-0.173175 0.476506 -0.029668 43 30 26
-0.215185 0.477120 -0.031879 52 34 26
-0.227615 0.490046 -0.027665 41 28 24
-0.352346 0.495841 0.433563 103 60 45
-0.353728 0.507069 0.441603 82 38 19
-0.331991 0.502464 0.440691 92 47 27
-0.387660 -0.079216 0.406470 185 175 214
-0.475719 0.264905 0.580630 144 142 145
-0.350722 0.504566 0.173860 27 19 23
-0.345481 0.504597 0.195037 27 20 23
-0.442593 -0.005247 0.251803 45 30 25
-0.435997 0.335387 0.278539 27 17 18
-0.434070 0.341695 0.261525 30 19 23
0.025823 0.505871 0.154577 101 53 35
-0.001252 0.501156 0.435891 77 40 26
-0.425957 0.159315 0.033840 68 37 30
-0.251240 -0.247652 0.429867 169 128 96
-0.254466 -0.236556 0.421936 183 142 111
-0.247075 -0.238454 0.433830 160 124 102
-0.026307 0.502509 -0.006234 78 40 31
-0.048962 0.507481 0.250274 80 39 32
-0.416851 0.472374 0.152773 28 20 24
-0.437866 0.079394 0.206783 49 27 24
-0.440880 0.090707 0.230339 45 27 21
-0.437612 0.102305 0.210837 45 24 23
-0.466705 0.554552 0.565924 224 206 179
-0.444889 0.572731 0.557846 225 211 187
-0.466583 0.557851 0.553406 229 217 198
-0.425329 0.546159 0.562373 217 199 169
-0.451493 0.552861 0.565418 222 203 176
0.299791 0.492286 0.352656 94 61 46
0.301168 0.490871 0.360820 94 63 49
0.323597 0.496069 0.332252 94 59 48
0.339870 0.495345 0.325159 91 59 49
0.336081 0.488782 0.347664 97 65 50
0.263321 0.503490 0.300988 103 57 39
0.244594 0.501232 0.302867 100 51 30
0.227990 0.501880 0.295304 105 55 32
0.204849 0.622906 0.659067 198 186 156
0.269257 0.495210 0.359874 103 65 47
0.280312 0.490351 0.387152 104 66 47
0.283363 0.489695 0.372648 98 63 47
-0.251415 -0.169564 0.422514 136 118 107
-0.068083 0.495451 0.519839 175 140 105
-0.066137 0.502106 0.525199 186 158 121
-0.082328 0.492161 0.514624 154 111 77
-0.061239 0.507954 0.525459 189 164 130
-0.069956 0.517162 0.528892 189 164 131
-0.415138 0.067072 -0.042379 68 35 21
-0.429088 0.068758 -0.032411 61 30 20
-0.425276 0.052362 -0.038810 61 31 23
-0.418765 0.324444 -0.009485 42 27 26
-0.198317 0.098988 0.418599 156 114 84
-0.053907 -0.044384 -0.038741 158 115 73
0.047526 0.504891 0.075077 103 54 33
0.053818 0.505024 0.093067 108 57 32
0.315226 0.498788 0.027416 93 49 37
0.328533 0.498390 0.066707 114 62 40
0.096679 0.506177 0.257317 112 60 38
-0.296338 -0.087435 -0.045942 98 64 36
-0.077821 0.608642 0.546781 191 175 147
-0.053487 0.608174 0.523210 190 175 147
-0.082016 0.606333 0.529443 186 173 145
-0.058378 0.608860 0.538117 194 180 151
0.303729 0.505206 0.407580 205 185 152
0.312712 0.504308 0.404931 209 188 157
0.302991 0.518896 0.406815 205 186 153
-0.246864 0.052787 0.348474 128 87 55
-0.243343 0.031022 0.347293 124 82 56
-0.251999 0.030672 0.349817 120 81 54
-0.254670 0.044081 0.351312 131 86 57
0.379466 0.492827 0.105428 87 48 39
-0.278780 0.503029 0.102543 37 23 24
-0.209346 -0.251134 0.424586 170 127 92
-0.210461 -0.235988 0.429747 170 127 92
-0.200065 0.204949 -0.016291 161 114 41
-0.216263 0.196662 -0.016956 163 116 38
0.377856 0.485390 0.329080 95 62 50
0.360939 0.487460 0.339207 102 66 53
0.253912 0.499213 0.348788 78 42 31
-0.437313 0.275746 0.259534 32 22 25
-0.435766 0.293225 0.246826 32 23 26
0.015206 0.506115 0.355765 108 57 27
-0.009939 0.506428 0.376450 106 52 25
0.029488 0.505074 0.377328 103 54 27
-0.015596 0.506909 0.358702 103 52 26
0.176498 0.612687 0.537577 198 183 153
0.428967 0.308538 -0.023971 207 188 165
0.437587 0.341428 -0.026324 188 167 146
-0.239805 0.503734 0.463839 115 57 27
-0.220117 0.499647 0.463837 116 57 24
0.426331 0.434607 -0.056581 94 82 73
0.410909 0.395482 -0.058335 156 134 114
0.434471 0.407338 -0.050895 102 89 80
0.428395 0.384205 -0.052422 142 126 109
-0.143014 0.506504 0.236951 60 32 28
-0.159399 0.507361 0.268301 50 25 23
-0.382900 0.499224 0.030115 31 21 24
-0.390389 0.495004 0.012806 37 24 26
-0.436157 0.090921 0.187170 48 25 21
0.189260 0.616915 0.589777 198 185 153
0.228443 0.619945 0.605969 197 184 153
0.197739 0.617174 0.608549 198 186 155
0.209845 0.618585 0.605200 199 185 155
-0.393169 0.403376 -0.037095 45 28 26
-0.363338 0.541504 0.556537 202 180 153
-0.367747 0.556678 0.555299 201 178 150
-0.332558 0.530979 0.561781 206 189 160
-0.360811 0.517470 0.557898 208 191 161
-0.355232 0.529733 0.560641 209 189 163
-0.250853 -0.167187 0.431516 163 127 103
-0.042523 0.494693 0.468269 106 57 33
-0.248618 0.504711 0.330937 24 10 9
-0.261872 0.490514 0.345617 62 31 26
-0.235180 0.498296 0.338317 41 16 12
-0.259628 0.502432 0.336554 56 26 17
0.209858 0.382161 -0.026269 151 99 59
0.226948 0.439615 -0.026173 149 98 58
-0.121710 0.232649 -0.013595 173 100 47
-0.432209 0.298813 0.200651 33 22 26
-0.394157 0.201650 -0.041283 64 41 29
-0.265234 0.205172 -0.018946 116 79 31
-0.196569 0.332565 -0.038926 83 55 36
-0.185204 0.348853 -0.038560 83 54 34
-0.173048 0.339307 -0.039045 128 82 41
-0.202637 0.331893 -0.032897 135 87 43
-0.185889 0.346017 -0.030857 141 96 42
-0.182669 0.356368 -0.032366 135 92 38
-0.186452 0.340790 -0.031866 147 93 43
0.045044 0.506272 0.257793 110 60 39
-0.302105 0.248012 -0.026095 120 80 38
-0.277898 0.248455 -0.022233 120 84 39
-0.442777 0.166287 0.324894 34 16 14
-0.440244 0.193629 0.317404 26 14 16
-0.443218 0.179516 0.303773 27 15 16
-0.066133 0.506090 0.150256 75 38 29
-0.058704 0.505447 0.119952 76 39 29
-0.074784 0.505280 0.114737 78 39 30
-0.193145 0.285483 0.422968 117 75 45
-0.191586 0.309249 0.428762 115 76 52
-0.194427 0.292540 0.432000 101 66 51
-0.201336 0.272824 0.437641 55 23 17
-0.198761 0.308642 0.437906 60 27 20
-0.211548 0.298005 0.440469 62 29 21
-0.223669 0.296843 0.440561 55 23 16
-0.049347 0.608076 0.624557 201 185 154
0.432543 0.356505 -0.024011 194 177 154
0.427021 0.371882 -0.022516 218 201 178
-0.218447 -0.231828 0.376232 159 112 78
-0.292768 0.509324 0.327751 19 9 10
0.301650 0.620239 -0.313826 65 68 72
-0.006159 0.537444 0.493504 181 149 113
0.000491 0.534356 0.499582 189 164 130
0.015425 0.526802 0.498983 187 165 132
0.002363 0.541385 0.491865 183 151 111
-0.022048 0.528068 0.511010 189 167 136
-0.019891 0.538957 0.498124 186 158 117
-0.011947 0.532528 0.505278 187 167 135
-0.012629 0.560887 0.490890 188 161 127
-0.435387 0.310673 0.519521 110 62 46
-0.437857 0.300316 0.542544 108 61 48
-0.400867 0.580896 0.553382 219 202 180
-0.381006 0.590442 0.557779 218 204 182
-0.391787 0.588347 0.555899 219 206 183
-0.399352 0.592948 0.564954 209 191 162
-0.397247 0.600855 0.570139 208 189 162
-0.405417 0.592677 0.557086 219 207 186
-0.280178 0.361013 -0.038833 86 55 28
-0.000497 0.516555 0.506953 188 166 134
-0.014218 0.506207 0.511072 188 162 124
-0.126915 0.343581 -0.022633 153 109 37
-0.145878 0.329585 -0.022449 132 89 38
-0.154312 0.330381 -0.024976 160 115 40
-0.433436 0.416814 0.304041 14 8 9
-0.436675 0.420418 0.324668 19 9 8
-0.435686 0.393136 0.310420 13 8 8
-0.442087 0.400740 0.329184 30 13 13
-0.439482 0.408588 0.320216 28 12 11
0.301770 0.665266 0.627443 255 254 255
0.106274 0.589769 0.438387 160 126 95
0.122504 0.580985 0.433255 168 135 101
0.112124 0.567073 0.440932 147 110 84
0.100236 0.576705 0.444712 148 112 82
-0.274547 0.509119 0.326961 21 10 11
-0.259057 0.507338 0.309577 22 10 12
-0.056786 0.414902 -0.030893 103 65 39
0.101952 0.504210 0.187508 112 61 38
0.112289 0.506233 0.224740 110 60 37
-0.435028 0.118134 0.152103 51 25 21
0.105963 0.118181 -0.033064 181 139 93
0.409269 0.286426 -0.059493 119 103 94
-0.218421 0.198519 0.349585 93 58 35
-0.209068 0.190236 0.353353 102 56 34
-0.224177 -0.143296 0.435669 115 81 71
-0.215283 -0.150568 0.433853 114 81 71
-0.211167 -0.162560 0.429501 167 129 105
-0.427461 0.206957 0.076371 47 26 27
-0.400213 0.606631 0.623952 212 196 165
-0.396058 0.606762 0.645580 214 196 168
-0.339117 0.605329 0.647030 211 195 165
-0.365270 0.605104 0.651849 211 195 165
0.379947 0.475779 -0.017975 116 72 48
0.380047 0.486106 -0.014221 117 75 50
0.377834 0.493136 -0.008638 108 69 51
-0.492411 0.516514 0.543828 114 79 79
-0.443590 0.114311 0.285577 35 19 20
-0.442996 0.095771 0.273159 39 21 20
0.264016 0.318046 -0.026404 172 123 79
-0.249832 -0.056693 0.433333 165 127 105
-0.249871 -0.040235 0.427622 169 130 112
-0.225533 -0.036456 0.437461 107 73 62
-0.240474 -0.058833 0.436313 103 70 60
-0.068887 0.496093 0.474617 107 57 33
-0.067130 0.502239 0.458358 82 42 26
-0.098941 0.504876 0.459370 71 36 24
-0.156707 -0.084322 -0.041932 116 84 55
-0.095975 -0.092210 -0.040519 129 95 63
0.323248 0.623580 -0.296961 71 72 76
0.304501 0.622262 -0.291390 70 71 75
0.314509 0.621150 -0.308619 66 69 73
0.094022 0.493209 0.469463 147 104 70
0.103328 0.503133 0.472372 184 150 111
-0.215852 -0.243118 0.408606 119 79 55
0.060199 0.506131 0.288577 114 58 30
0.065463 0.506273 0.309952 115 57 28
0.040208 0.506369 0.318827 115 59 26
-0.430485 0.305747 0.157267 34 24 26
-0.428290 0.332356 0.166715 34 23 27
-0.140784 0.573428 0.528170 201 174 134
-0.151730 0.559076 0.539468 196 167 133
-0.130752 0.568383 0.523315 198 166 128
-0.152217 0.566562 0.529669 131 86 64
-0.149117 0.543436 0.542088 191 165 130
-0.148867 0.566844 0.521573 114 68 51
-0.130644 0.555761 0.532750 197 163 127
-0.157102 0.564860 0.537775 188 160 125
-0.163343 0.561486 0.529960 130 89 65
0.270165 0.593817 0.385270 170 145 116
0.258871 0.591066 0.386003 171 144 116
0.259441 0.601042 0.387724 189 166 135
-0.248776 -0.213738 0.432893 159 121 94
-0.230696 -0.234235 0.435482 142 105 86
-0.227139 -0.210537 0.435313 138 101 81
-0.443580 0.062615 0.519584 135 92 84
-0.448281 0.035440 0.556720 143 127 136
-0.445997 0.055445 0.548401 146 131 137
0.307103 0.622638 0.494995 208 196 172
0.310968 0.630937 0.493492 244 241 229
-0.053418 -0.098861 -0.039785 156 115 71
-0.203480 0.605210 0.597202 201 186 157
-0.230226 0.605411 0.611577 202 187 158
-0.446277 0.031333 0.332837 107 74 55
-0.433715 0.032272 0.341256 144 99 67
-0.433342 -0.003733 0.337175 142 104 82
-0.437759 0.014840 0.336838 141 104 80
-0.444958 0.013689 0.326312 86 57 44
-0.445796 0.022263 0.323090 86 57 43
-0.216978 0.265522 0.350227 95 51 29
-0.207600 0.228421 0.353497 95 53 31
-0.202913 0.239823 0.357369 101 55 30
-0.252480 0.502092 -0.010598 37 23 23
-0.440892 0.002591 0.222887 55 34 30
-0.163029 0.396828 -0.033258 87 57 30
-0.192928 0.380550 -0.035259 111 76 36
-0.441840 0.035367 0.231528 47 28 25
-0.440908 0.011206 0.209328 56 34 29
-0.440590 0.034429 0.211624 53 29 27
-0.184251 0.491906 -0.007646 50 29 25
-0.182183 0.490111 -0.017155 50 32 27
-0.094946 0.259076 -0.012901 195 136 40
-0.217156 0.495619 0.072577 47 27 23
-0.219316 0.496310 0.094274 40 24 25
-0.240966 0.500029 0.096577 39 23 24
-0.444478 0.091194 0.561519 253 252 255
-0.445769 0.117387 0.544330 253 254 254
-0.445085 0.089136 0.570652 213 210 220
-0.443644 0.109238 0.563922 225 247 250
-0.449560 0.100049 0.575800 172 181 201
-0.445376 0.079099 0.573387 243 241 244
-0.454517 0.082935 0.576186 240 241 245
0.313902 0.447588 -0.022826 150 98 59
0.311148 0.423340 -0.023809 155 104 64
0.316157 0.468333 -0.020908 147 97 59
0.298802 0.618308 -0.163110 79 75 78
0.298769 0.617904 -0.175366 79 77 80
0.283033 0.620866 -0.168132 78 76 79
0.283804 0.618041 -0.194164 80 83 89
0.260175 0.625690 -0.182603 80 77 76
0.284470 0.623774 -0.157658 97 85 81
0.275091 0.620286 -0.161710 111 98 91
0.343962 0.496660 0.140899 95 54 43
0.329343 0.497466 0.147152 94 53 43
-0.429197 0.469434 0.284304 20 14 17
-0.430213 0.441491 0.261528 21 14 18
-0.379118 0.503594 0.198670 27 19 23
-0.242480 0.366397 0.420950 122 76 54
0.293624 0.499230 0.173698 115 67 45
-0.433878 -0.019446 0.038577 70 35 23
0.246889 0.614844 0.399244 203 177 145
0.236087 0.609020 0.395141 204 179 146
0.230773 0.612255 0.405376 201 175 143
0.237538 0.609515 0.410909 201 182 149
0.231057 0.610501 0.399894 201 174 139
0.234781 0.612421 0.423691 201 180 147
-0.493040 0.537300 0.541651 204 188 178
-0.520142 0.538076 0.546069 215 199 197
-0.523494 0.558050 0.546591 219 204 193
-0.513868 0.550004 0.543899 211 194 183
0.267680 0.146444 -0.028263 213 188 157
0.312594 0.117634 -0.027290 214 189 161
0.125338 0.505097 0.235089 111 59 39
-0.198770 0.035044 0.423743 165 131 121
0.288802 0.625372 -0.296239 55 55 62
0.271365 0.629542 -0.293270 46 49 55
0.270198 0.624820 -0.304248 50 52 54
-0.442134 0.199570 0.280652 37 21 23
-0.439655 0.237617 0.289577 34 22 25
-0.442196 0.221474 0.299520 33 19 23
0.272415 0.499615 0.152244 109 62 40
-0.440686 0.286131 0.333699 111 71 47
-0.442557 0.264414 0.327110 68 40 29
-0.436322 -0.016742 0.428853 159 135 148
-0.119043 0.600543 0.532373 189 173 146
-0.107219 0.605964 0.514849 193 163 124
-0.101676 0.605618 0.536380 189 175 146
-0.101776 0.601188 0.524837 189 173 144
-0.090525 0.607651 0.555203 191 179 151
0.053076 0.102411 -0.034423 167 123 78
0.021059 0.127481 -0.035351 171 128 83
-0.275343 0.502845 0.170640 37 23 23
-0.291495 0.504114 0.170031 33 21 24
-0.296255 0.504698 0.191858 36 22 23
-0.200527 0.261609 0.361590 102 56 31
-0.204413 0.236201 0.390948 99 54 30
-0.424711 0.343499 0.113037 33 22 25
-0.425067 0.324105 0.116917 33 23 24
-0.425841 0.327413 0.135867 33 22 24
-0.262103 -0.002155 0.353051 131 87 58
-0.241644 0.007127 0.347269 128 84 57
-0.251264 -0.014423 0.350718 142 94 62
-0.246131 -0.021680 0.349315 122 84 58
-0.230883 0.604162 0.682077 211 192 162
-0.215769 0.603550 0.667765 208 192 160
0.027718 0.570425 0.470182 190 156 113
0.021643 0.571430 0.473961 187 157 112
0.043344 0.560589 0.473528 162 127 99
0.027878 0.562559 0.473306 175 142 110
0.038380 0.565796 0.465181 164 131 98
0.058383 0.564552 0.463435 166 133 102
0.044210 0.575066 0.461742 160 127 96
-0.498226 0.604694 0.640261 222 207 181
-0.451865 0.606444 0.620037 217 200 174
-0.633351 0.606058 0.574403 211 201 198
-0.064341 0.503226 0.046934 76 38 29
0.132304 0.606732 0.447448 191 171 141
0.115795 0.611343 0.441416 189 164 124
-0.029843 0.607718 0.541578 193 179 149
0.071881 0.470929 -0.026405 141 89 50
0.344977 0.206875 -0.025942 216 193 158
-0.022749 0.581890 0.480118 186 151 107
-0.014590 0.592097 0.481134 188 156 112
-0.364228 0.478001 0.423449 98 59 51
-0.382429 0.491425 0.432499 76 34 19
-0.344858 0.480094 0.425753 93 53 49
-0.414222 0.479456 0.181423 29 20 25
-0.407600 0.486538 0.184955 30 21 24
-0.396350 0.496010 0.191145 32 22 26
-0.444406 0.078274 0.285731 34 20 20
-0.441760 0.101989 0.319913 30 17 18
-0.446519 0.067538 0.301856 31 19 19
-0.443954 0.099922 0.303686 32 18 19
-0.443336 0.077702 0.318973 32 19 20
-0.190776 0.534828 0.561686 198 183 153
-0.192858 0.509127 0.563367 199 184 153
-0.190135 0.522890 0.565439 200 183 154
-0.258214 0.521713 0.565376 201 186 155
-0.279057 0.501638 0.548452 176 144 118
-0.271336 0.504155 0.555870 200 173 148
-0.030872 -0.068802 -0.038628 173 132 86
-0.024353 -0.094562 -0.038587 175 133 87
-0.266486 0.503911 0.218397 39 23 25
-0.274744 0.506402 0.231165 39 23 26
-0.123611 0.502273 0.019513 47 26 26
-0.103023 0.502078 0.025327 50 27 28
-0.293910 0.509373 0.302083 20 10 11
-0.349849 0.509974 0.262577 24 14 18
-0.339839 0.508559 0.244639 26 17 22
-0.307463 0.509901 0.557887 204 187 159
-0.276796 0.512967 0.561742 204 187 159
0.425305 0.479733 -0.000858 82 48 40
-0.421013 0.495065 0.503362 66 28 23
0.407032 0.482671 -0.000357 82 48 41
0.413100 0.479557 0.024001 81 46 41
0.404025 0.482804 0.021577 85 48 42
-0.432854 0.471052 0.527675 75 35 29
-0.428750 0.482433 0.499832 71 32 26
0.119114 -0.037899 -0.035713 190 153 109
-0.125689 0.162283 -0.018093 199 148 44
-0.157906 0.158584 -0.016971 192 141 41
-0.127427 0.194161 -0.014776 186 136 41
-0.474873 0.542922 0.562484 221 198 175
-0.470815 0.554164 0.561522 208 186 160
-0.463376 0.529957 0.566169 231 215 190
-0.478054 0.533616 0.564012 240 230 213
-0.475046 0.520808 0.567138 232 217 191
-0.468836 0.543591 0.551412 172 144 127
-0.474599 0.536334 0.546661 136 101 91
-0.475444 0.532298 0.553068 99 61 58
-0.443661 0.181094 0.548478 219 211 216
-0.443449 0.160396 0.537198 144 107 111
-0.445851 0.149040 0.557221 163 139 147
0.326399 0.496794 0.187834 95 54 42
0.316811 0.497266 0.168787 104 57 41
-0.097349 0.605680 0.609781 201 186 157
-0.088672 0.606432 0.598384 200 185 154
-0.321309 0.504291 -0.006750 32 21 25
-0.334897 0.498295 -0.024949 33 23 26
-0.339000 0.502776 -0.002660 32 21 25
-0.332678 0.501699 -0.017600 32 22 25
-0.362175 0.502486 -0.019869 32 22 25
-0.443292 0.610716 0.588987 212 195 166
-0.443939 0.608410 0.579477 210 193 165
-0.414501 -0.041008 -0.046813 88 52 28
-0.270436 0.605494 0.630422 209 193 161
-0.371097 0.504593 0.163559 26 20 23
-0.369580 0.504356 0.184901 28 20 24
-0.358933 0.505310 0.207768 28 20 24
-0.440588 0.146534 0.447581 108 68 54
-0.441397 0.159786 0.474472 113 69 56
-0.406713 0.485904 0.137952 29 20 25
-0.395360 0.496315 0.142211 30 21 25
-0.400352 0.492386 0.155827 33 24 26
-0.412381 0.481452 0.151322 30 21 25
0.408519 0.479416 0.232859 86 55 46
0.420055 0.478573 0.215271 89 56 50
0.403937 0.478825 0.253118 88 56 47
0.390775 0.484008 0.236577 86 53 46
0.415758 0.478020 0.257783 93 58 50
0.397933 0.480957 0.263578 88 54 45
-0.581044 0.589650 0.557105 165 153 139
0.306601 0.497545 0.332944 84 54 43
-0.033309 0.504406 0.435335 77 37 25
-0.027512 0.502069 0.443460 81 43 25
-0.384544 0.501456 0.140740 26 20 22
-0.142099 -0.118496 -0.041502 132 97 64
-0.415964 0.510874 0.556992 174 148 126
-0.404710 0.508813 0.553598 124 95 73
-0.430210 0.501379 0.556614 223 203 177
0.142241 0.384498 -0.027990 138 89 51
0.152359 0.412582 -0.026443 145 93 54
0.301288 0.500888 0.298315 75 48 38
-0.438143 0.359034 0.550446 229 225 228
-0.444675 0.357482 0.568209 220 216 222
-0.448183 0.374383 0.570059 217 210 217
-0.442690 0.369378 0.565832 189 181 190
0.127424 0.503932 0.040132 105 56 33
-0.360053 0.135560 -0.043642 77 47 32
-0.366521 0.094407 -0.044524 81 53 34
0.121825 0.503873 0.068327 108 56 38
-0.564619 0.589037 0.580733 255 254 249
-0.562362 0.586571 0.552954 211 200 198
-0.561890 0.583927 0.560817 247 246 246
-0.563491 0.586555 0.569537 253 254 253
-0.542928 0.574786 0.549748 245 240 237
-0.535434 0.585851 0.568609 235 224 202
-0.548337 0.583991 0.573624 243 239 231
-0.554275 0.597869 0.581430 248 241 226
-0.184578 0.311456 -0.034402 130 87 44
-0.151301 0.323572 -0.027173 167 104 40
-0.172361 0.311101 -0.034524 161 116 54
-0.156924 0.318289 -0.035179 161 106 52
-0.190575 0.325042 -0.036598 129 91 51
-0.175462 0.325846 -0.026572 150 103 43
-0.395556 0.309793 -0.039487 56 34 28
-0.408695 0.307570 -0.033539 46 28 26
-0.203384 0.226222 0.400038 81 48 33
-0.193105 0.229964 0.423817 131 90 61
-0.197980 0.207474 0.410739 117 78 49
-0.194777 0.240926 0.415611 133 90 56
-0.413261 0.471332 0.099154 28 19 24
-0.411879 0.473516 0.111946 29 20 25
-0.411448 0.479183 0.131081 29 20 25
-0.270846 0.019623 -0.044378 98 71 44
-0.298456 0.022108 -0.044976 95 66 43
-0.413083 0.458776 0.076307 28 19 24
0.410385 0.222134 -0.060823 114 100 94
0.411055 0.248940 -0.061282 117 101 92
-0.435812 0.052384 0.124138 58 30 24
-0.437326 0.044740 0.149168 60 31 26
-0.435566 0.072473 0.175168 54 28 22
-0.436172 0.064842 0.155816 58 29 24
0.225880 0.407139 -0.026366 150 100 56
0.190982 0.398075 -0.026331 147 97 55
-0.038421 0.231595 -0.031705 174 109 83
-0.037053 0.191977 -0.023354 189 148 100
0.072943 0.609537 0.510081 194 178 149
-0.256009 0.477613 0.437712 104 56 32
-0.237069 0.495485 0.449022 92 43 27
-0.233829 0.481458 0.444252 93 44 25
-0.254325 0.487955 0.442589 95 47 25
-0.420502 0.532431 0.562501 217 200 170
-0.446020 0.538073 0.565502 221 201 174
-0.408967 0.516771 0.559021 214 192 165
-0.021905 0.166979 -0.034731 158 113 69
-0.030730 0.135746 -0.036875 163 119 75
-0.431182 0.277007 0.158323 39 25 25
-0.429360 0.287320 0.131681 38 24 25
0.086308 0.505962 0.224202 119 67 40
0.078072 0.504520 0.203889 111 60 39
-0.294394 0.490824 0.436486 100 54 26
-0.311528 0.504102 0.442015 98 50 26
-0.154511 0.600460 0.543967 190 174 146
-0.136964 0.599559 0.537991 190 174 146
-0.145584 0.604168 0.548845 191 177 149
-0.138184 0.602970 0.530547 190 172 142
-0.137861 0.585260 0.523744 191 171 133
-0.151451 0.598531 0.530310 192 170 132
-0.129249 0.600266 0.523575 192 171 130
0.441262 0.440515 -0.026032 178 156 131
0.409778 0.482369 -0.164745 66 67 73
0.414725 0.484911 -0.173387 38 29 35
0.404257 0.488684 -0.179419 38 39 44
0.314341 0.622152 -0.227306 117 130 149
-0.414646 -0.056457 0.417806 141 102 86
-0.442255 0.056241 0.490636 126 85 75
-0.311032 0.536291 0.561067 204 186 158
-0.298344 0.525738 0.563436 205 187 159
-0.300994 0.541164 0.554272 200 174 147
0.245062 0.500703 0.333665 81 41 31
-0.194098 0.150096 0.423608 151 113 93
0.030278 0.233740 -0.033235 139 93 56
0.065130 0.541503 0.471289 179 149 110
0.080848 0.543162 0.466363 187 155 115
0.048330 0.539019 0.477475 190 161 126
0.052861 0.547492 0.473693 186 156 114
0.049395 0.527042 0.487898 190 164 132
0.420348 0.486460 -0.329031 40 35 40
0.416633 0.486998 -0.280298 48 45 47
0.412869 0.490966 -0.301923 51 50 54
0.383564 0.491334 -0.086919 90 76 72
0.397370 0.477897 -0.076437 70 55 47
0.385395 0.485025 -0.081407 59 42 42
0.220956 0.138148 -0.029789 199 167 125
0.197721 0.164995 -0.030125 197 163 119
-0.132635 -0.073514 -0.041009 115 84 55
-0.168190 -0.063721 -0.041743 109 79 51
0.536104 0.266361 -0.066575 131 155 173
-0.012804 0.506377 0.388462 100 51 25
0.008221 0.504681 0.397549 98 50 28
-0.226453 0.388153 0.352068 77 35 20
-0.238744 0.386993 0.353230 80 40 26
-0.229274 0.405536 0.352894 75 34 18
0.360806 0.459699 -0.020433 137 89 54
0.358081 0.475816 -0.018343 128 83 56
0.335971 0.479039 -0.018958 134 86 54
0.234610 0.557386 0.409874 186 152 119
0.238330 0.542475 0.415313 193 156 120
0.218540 0.538587 0.422994 191 155 115
-0.421928 0.291481 0.042945 40 24 26
-0.417829 0.309573 0.002939 41 24 25
-0.420083 0.304143 0.022056 40 24 26
0.055991 -0.007086 -0.035963 185 146 93
0.014759 0.000574 -0.036528 179 138 84
0.033034 0.031824 -0.035939 181 142 89
0.211270 0.564353 0.414074 166 133 103
0.197156 0.569526 0.416244 183 147 110
0.217619 0.549143 0.417361 188 154 116
0.175084 0.571504 0.420157 170 131 94
0.204455 0.550946 0.421841 187 153 116
-0.229894 0.498904 0.217126 44 25 24
-0.235441 0.499796 0.229125 48 27 27
0.107000 0.400533 -0.028198 139 89 53
0.243880 0.499551 0.033936 107 57 38
0.229185 0.500216 0.041963 108 57 37
0.242431 0.498510 0.065016 110 60 41
-0.428891 0.266499 0.116783 40 25 25
-0.429728 0.241394 0.125360 43 26 26
0.261114 0.489489 0.375448 103 63 43
0.236545 0.488635 0.386782 101 56 32
-0.416877 0.346186 -0.012253 39 24 25
-0.417277 0.323707 -0.022706 41 25 25
-0.417171 0.334434 0.000353 39 24 25
0.260251 0.491081 0.368967 92 50 32
-0.415345 0.347110 -0.026132 38 24 25
-0.440561 0.177355 0.473526 121 73 57
-0.442656 0.175783 0.517292 125 77 65
-0.004616 -0.032284 -0.037207 177 136 87
-0.202131 0.287764 0.389932 96 52 29
-0.199830 0.304977 0.372077 94 48 25
-0.199122 0.301829 0.361757 93 48 23
-0.199182 0.277753 0.361593 98 51 25
-0.151044 0.506269 0.452077 84 40 23
-0.192535 -0.164880 -0.043687 112 76 42
-0.181020 -0.201063 -0.043730 115 77 42
0.268145 0.615133 0.426273 203 185 154
0.281064 0.615452 0.425942 205 187 158
0.288928 0.617898 0.437934 209 195 167
0.276496 0.614930 0.446558 201 185 153
-0.376802 0.512041 0.488667 90 41 24
-0.391720 0.510710 0.488605 90 42 22
-0.387437 0.503282 0.510076 94 43 26
-0.343835 -0.100173 -0.047700 104 69 38
-0.268651 0.510496 0.463181 74 32 20
-0.263500 0.507399 0.454820 81 38 22
-0.282358 0.511705 0.484016 69 31 20
-0.279905 0.510580 0.457485 87 41 21
0.272240 0.498684 0.022702 103 56 37
-0.426627 0.136600 -0.006792 68 37 25
-0.427572 0.116888 -0.003923 68 38 26
-0.180360 0.230529 -0.015354 171 123 39
-0.205965 0.244062 -0.016531 166 119 40
0.116987 0.502116 0.381494 99 52 30
0.128842 0.502067 0.385743 72 38 26
-0.393406 0.507236 0.266634 25 13 19
-0.404052 0.505659 0.285829 20 10 12
-0.407124 0.500082 0.266450 24 15 17
-0.420726 0.489793 0.278277 19 9 13
-0.199097 0.055934 0.420583 159 120 85
-0.197804 0.088315 0.423526 156 113 79
-0.208820 0.053546 0.399526 95 59 42
-0.205329 0.074901 0.405819 154 115 84
0.084887 0.027597 -0.034916 188 150 101
0.196301 0.622707 -0.240559 85 76 69
0.172832 0.622698 -0.271862 81 72 64
0.198668 0.621197 -0.266991 74 69 66
0.199770 0.625263 -0.280980 73 78 81
-0.192314 0.593903 0.541715 173 150 115
-0.220166 0.587666 0.541902 164 134 103
-0.205285 0.580998 0.546243 197 170 127
-0.211722 0.589809 0.548032 201 174 135
-0.199283 0.597351 0.546722 191 166 131
-0.196628 0.582981 0.535115 162 141 111
-0.213322 0.591848 0.538951 138 120 94
-0.201874 0.573797 0.541561 162 141 111
0.068849 0.490318 -0.022348 118 71 46
0.085576 0.494867 -0.019115 118 71 47
0.093499 0.499667 -0.014390 111 64 42
-0.256726 -0.235240 -0.046810 107 68 37
-0.219466 -0.223755 -0.045042 107 71 41
-0.438498 0.023696 0.191831 62 37 31
-0.437936 0.040982 0.167691 55 31 25
-0.439999 -0.004722 0.181206 59 34 30
-0.420329 0.259658 0.429745 100 69 70
-0.417452 0.273758 0.423703 100 69 70
-0.416512 0.286392 0.426452 100 69 70
-0.068767 0.559624 0.511203 189 159 124
-0.052213 0.535496 0.516505 186 155 122
-0.040875 0.539910 0.507292 188 159 124
-0.072723 0.540299 0.518153 182 153 119
-0.061771 0.542460 0.512773 186 156 122
-0.195819 0.122472 0.422502 167 144 153
-0.427335 0.132982 0.013236 68 37 26
-0.048451 0.484736 -0.026828 94 57 38
-0.042748 0.473222 -0.028795 120 75 46
-0.200143 0.062336 -0.041280 105 72 46
-0.246700 -0.009022 -0.044022 106 77 51
-0.265132 -0.027836 -0.044203 104 75 49
-0.329546 0.504014 0.103567 31 20 24
0.257584 0.196411 -0.028094 206 172 131
-0.288543 0.465929 0.418097 130 82 61
-0.281947 0.460586 0.419648 132 83 62
-0.261157 0.502435 0.085342 38 24 24
-0.256347 0.502236 0.102483 38 24 24
0.421457 0.389482 -0.021673 230 214 190
0.392834 0.337386 -0.023093 227 210 187
0.388490 0.368455 -0.022189 216 195 165
-0.056216 0.113148 -0.037832 145 103 62
-0.082555 0.102600 -0.038773 135 96 59
-0.073022 0.137349 -0.036891 140 101 62
-0.073124 0.506893 0.171650 83 42 31
-0.115733 0.505522 0.174363 66 35 26
-0.093333 0.505548 0.169629 82 42 30
-0.098317 0.504706 0.200930 84 44 31
0.248982 0.629529 -0.173312 113 95 86
0.219541 0.624833 -0.189086 111 94 81
0.232191 0.622968 -0.175838 120 98 85
-0.416454 0.362248 0.030108 37 22 25
-0.416190 0.380198 0.033394 35 23 25
-0.412601 0.457851 0.017419 33 21 23
-0.412151 0.469512 0.037128 34 22 26
-0.430865 0.453592 0.478623 69 29 22
-0.429508 0.463426 0.460489 69 30 23
-0.429078 0.453082 0.456328 68 30 22
-0.435824 0.335184 0.496171 99 52 38
-0.056370 0.502464 0.030640 72 35 27
-0.027556 0.503902 0.019577 70 33 26
-0.201424 0.275466 0.357807 98 51 29
-0.198902 0.347203 0.378077 81 39 20
-0.195836 0.358378 0.362449 80 38 18
-0.382616 0.327842 -0.040616 50 31 25
-0.393169 0.370612 -0.037957 46 28 27
0.349035 0.344482 -0.023914 186 144 101
-0.212285 0.082021 0.353837 128 85 51
-0.209616 0.063937 0.357442 136 88 51
-0.206082 0.101348 0.358958 129 79 50
-0.211270 0.111156 0.353458 129 79 50
-0.224286 0.094673 0.348908 113 76 49
-0.437966 -0.004605 0.123032 61 32 25
-0.007344 0.607840 0.576215 198 183 154
-0.030159 0.607230 0.626039 200 186 156
-0.022991 0.606559 0.600061 201 185 156
-0.042721 0.607656 0.602341 200 183 152
-0.444033 0.106201 0.528826 139 99 96
0.141931 0.502661 0.196166 110 59 39
-0.444953 -0.003729 0.492577 138 94 87
-0.415667 0.356825 0.007061 38 23 25
-0.418588 0.328682 0.024319 40 24 26
-0.418961 0.345778 0.036120 39 24 28
-0.421403 0.330835 0.052939 39 24 26
-0.429229 0.403413 0.219691 29 20 24
-0.421573 0.437289 0.182656 27 19 23
-0.426331 0.398692 0.197417 28 20 24
-0.434597 0.052828 0.076770 55 27 22
-0.432725 0.079701 0.085650 55 25 20
-0.435554 0.050801 0.095577 55 26 20
-0.434285 0.068535 0.098577 55 26 20
-0.093177 0.570891 0.506150 184 150 113
-0.076020 0.580224 0.502038 183 151 110
-0.060215 0.564474 0.493936 116 88 63
-0.087168 0.561482 0.509847 193 159 116
-0.067630 0.575343 0.496096 123 101 74
-0.082404 0.570256 0.505437 177 140 103
-0.073987 0.564921 0.502619 171 138 106
-0.074737 0.584107 0.497279 176 143 103
-0.068539 0.569636 0.500594 166 134 100
-0.144825 0.500899 0.065420 47 27 26
-0.124955 0.501659 0.073577 48 25 25
-0.139646 0.502055 0.047761 51 26 25
-0.141374 0.500698 0.036577 47 26 26
-0.048478 0.607344 0.584827 199 183 154
0.071110 0.617103 -0.277537 87 77 70
0.405565 0.161072 -0.024404 221 198 173
-0.076558 0.311730 -0.023812 183 133 96
-0.061435 0.289790 -0.029163 205 149 111
-0.447717 0.313485 0.330468 55 31 20
-0.443784 0.299817 0.329668 117 73 47
-0.389334 0.501721 0.523640 91 43 26
-0.399743 0.504662 0.547675 123 84 65
-0.438708 0.260485 0.302025 26 17 20
-0.438153 0.275330 0.318781 22 11 12
-0.418881 0.445869 0.122853 28 19 24
-0.414637 0.463415 0.112364 28 19 24
-0.416554 0.439895 0.098663 28 19 24
0.232578 0.499853 0.357637 85 44 29
0.220242 0.490740 0.383949 101 55 35
0.204059 0.499777 0.365362 82 44 30
-0.252183 -0.151023 0.429550 167 127 98
-0.240730 -0.158517 0.435572 113 80 66
-0.246448 -0.141353 0.433603 113 80 66
-0.253091 -0.151917 0.421834 171 129 97
0.124722 0.503735 0.196997 109 58 39
0.134882 0.504772 0.177003 109 57 37
0.111060 0.504220 0.178401 109 58 37
-0.416319 0.386228 0.004167 35 23 24
-0.416565 0.367206 -0.001222 38 23 26
-0.414477 0.378741 -0.022535 39 25 26
0.071200 0.505916 0.334077 114 59 26
-0.328164 0.490155 -0.030748 37 26 26
-0.304749 0.467783 -0.035709 43 29 26
-0.435669 0.025977 0.008504 69 36 22
-0.433834 0.028895 -0.028697 68 36 27
-0.436792 0.006662 -0.003175 64 31 24
-0.421885 0.068568 0.423962 180 167 198
-0.434531 0.083373 0.432774 107 70 62
-0.437197 0.057676 0.432554 111 75 69
-0.319326 0.214826 -0.036797 99 74 52
0.405829 0.480267 0.117577 82 51 45
0.416295 0.478919 0.161327 82 53 47
0.411501 0.478769 0.128145 80 50 45
0.076130 0.611856 0.591420 198 183 153
0.099802 0.613028 0.578342 198 184 150
0.101471 0.606795 0.441130 187 158 118
0.086311 0.600870 0.446670 186 160 119
0.081446 0.599445 0.444408 88 74 57
0.090983 0.609975 0.446470 184 161 124
0.114560 0.607151 0.452478 189 168 137
0.072447 0.597116 0.449089 187 161 124
0.094864 0.596188 0.439242 157 130 100
-0.120252 0.457133 -0.032146 77 49 32
-0.107718 0.447492 -0.032421 78 49 32
-0.164042 0.466479 -0.031417 71 45 33
-0.255443 0.158734 0.353206 126 76 49
-0.243292 0.153216 0.348588 121 72 46
-0.254257 0.132180 0.353371 130 83 50
0.214808 0.503266 0.153364 114 64 41
-0.226647 0.500261 0.294144 39 21 20
0.409337 0.478593 0.266738 88 55 46
0.404260 0.477828 0.293346 89 57 49
0.426803 0.480147 0.270894 100 67 57
0.420367 0.477062 0.298091 103 70 61
-0.161818 -0.177784 -0.042950 119 82 44
-0.385815 0.508914 0.271648 19 10 11
-0.391621 0.508959 0.291665 19 9 10
-0.363912 0.509050 0.270305 24 14 19
0.196043 0.550340 0.424251 188 154 115
-0.105949 0.500548 -0.006726 49 28 26
-0.102405 0.499670 -0.015933 47 28 25
-0.402314 0.485662 0.044200 32 21 23
-0.412504 0.471039 0.058166 32 21 25
-0.065642 0.509278 0.266661 78 40 31
-0.067223 0.506706 0.237880 76 37 29
-0.069729 0.507852 0.252788 76 38 28
0.178335 0.595262 0.415159 180 144 106
0.182805 0.611728 0.420080 195 166 129
0.190254 0.604378 0.407994 196 163 124
0.316646 0.498745 0.295016 89 53 40
0.313301 0.498153 0.327208 79 50 42
0.335660 0.497544 0.304264 71 45 39
-0.140167 0.494212 0.525647 111 59 35
-0.432027 0.379139 0.267514 27 17 22
-0.436801 0.353421 0.289542 26 16 19
0.235338 0.625711 -0.187502 92 82 79
0.227184 0.622145 -0.217297 83 86 95
0.248865 0.620280 -0.201585 78 84 88
0.231662 0.625764 -0.201817 81 78 81
0.256253 0.619895 -0.218120 87 91 99
0.104348 0.185846 -0.032262 172 128 84
-0.132741 0.606554 0.553837 194 179 153
0.043603 0.612117 0.624819 200 184 154
-0.157192 0.606379 0.562550 194 182 154
-0.430097 0.415993 0.232958 25 20 23
-0.310141 0.119555 -0.041959 80 55 36
-0.302563 0.131596 -0.039691 77 52 33
-0.110899 0.359673 -0.027845 139 100 60
0.052700 0.503867 0.021515 90 46 31
0.013036 0.504503 0.024327 82 40 29
-0.002576 0.504585 0.036640 77 38 29
-0.209942 -0.152465 0.422435 172 130 94
-0.217466 -0.135318 0.403396 116 80 62
-0.212109 -0.142488 0.413692 171 129 94
0.376003 0.400387 -0.021847 192 152 113
0.402268 0.395994 -0.021319 199 168 134
0.410599 0.363853 -0.021971 217 192 162
0.085150 0.504373 0.100702 109 58 35
0.069560 0.505031 0.074779 109 58 36
0.214986 0.500911 0.350285 87 45 29
-0.180095 0.494321 0.232763 64 35 27
-0.180035 0.496721 0.250916 59 33 26
0.137210 0.489959 0.419540 104 58 35
0.094908 0.490946 0.435247 104 57 35
0.144395 0.489730 0.431996 105 59 37
0.137537 0.490290 0.447668 107 62 37
0.322746 0.137901 -0.027126 219 199 170
-0.288094 0.600802 0.575006 202 187 156
-0.298629 0.596379 0.560969 215 205 181
-0.297633 0.602074 0.578538 203 188 158
-0.590950 0.587346 0.663017 255 254 253
-0.577049 0.595165 0.665354 255 254 253
-0.600606 0.584062 0.662796 255 253 254
-0.583891 0.588663 0.651051 255 255 253
-0.404419 0.067462 -0.044285 102 65 42
-0.388427 0.080070 -0.044634 108 71 48
-0.378757 0.301628 -0.041043 60 35 26
-0.361001 0.296578 -0.039883 65 39 26
-0.410867 0.099072 -0.042089 98 65 43
-0.391602 0.103130 -0.044287 76 44 28
0.004776 0.609459 0.590695 198 183 153
-0.433390 0.484865 0.318752 20 6 6
-0.427202 0.482533 0.312241 16 8 9
-0.427309 0.492010 0.323076 35 16 11
-0.247525 0.348761 -0.036852 133 91 42
-0.229177 0.354109 -0.036364 124 83 40
-0.221023 0.342882 -0.034293 114 77 38
-0.120236 0.506476 0.236912 74 38 29
-0.150606 0.506541 0.251211 71 39 29
-0.147288 -0.159087 -0.042639 125 86 55
-0.366398 0.607104 0.584294 206 189 160
-0.359503 0.591688 0.557743 218 204 181
-0.352278 0.596799 0.568143 204 189 160
-0.377704 0.598033 0.571527 205 189 161
-0.359434 0.601343 0.574979 205 188 158
-0.364840 0.596075 0.561440 204 186 160
-0.216202 -0.147648 0.362300 158 113 79
-0.218560 -0.147839 0.384091 160 118 81
-0.444187 0.051325 0.507835 131 87 79
-0.433005 0.095340 0.063642 57 27 20
-0.217926 -0.172389 0.400359 148 107 78
-0.218984 -0.180641 0.387094 148 107 78
-0.208724 -0.211112 0.424823 172 129 95
-0.210899 -0.185961 0.416516 153 116 86
-0.216780 -0.186918 0.404670 120 84 62
-0.444112 0.283556 0.562496 153 142 141
-0.439484 0.301450 0.557847 159 140 144
-0.526304 0.601936 0.678531 235 222 195
-0.543824 0.601994 0.679767 239 226 197
-0.525734 0.603665 0.655075 233 219 193
-0.039593 0.383376 -0.031291 122 77 44
-0.009320 0.397462 -0.030492 132 85 47
-0.426293 0.088397 -0.034136 60 27 20
-0.431976 0.066484 -0.007114 63 29 20
-0.432923 0.054719 -0.017772 60 28 21
-0.038335 0.506621 0.361973 89 41 22
-0.024081 0.505922 0.392327 96 44 24
-0.439165 0.228914 0.333485 113 76 52
-0.435467 0.263859 0.333558 112 74 50
-0.445720 0.244198 0.329517 71 44 32
-0.527011 0.568649 0.554051 229 214 208
-0.541709 0.579262 0.558112 252 251 251
-0.099121 0.605429 0.652839 205 189 160
-0.107668 0.606854 0.678732 207 189 159
0.307427 0.622668 0.467383 230 224 211
0.310955 0.632941 0.470622 245 244 238
0.300549 0.617288 0.481422 204 186 158
-0.295603 0.572219 0.552419 221 200 174
-0.314637 0.574380 0.556627 203 180 155
-0.304147 0.590690 0.557078 215 199 173
-0.316536 0.563442 0.558354 207 185 158
-0.432057 0.377629 0.454825 84 42 27
0.372851 0.561637 -0.103407 145 129 113
-0.284690 0.272610 -0.033493 138 96 41
-0.260674 0.273222 -0.033684 127 91 34
-0.246869 0.269124 -0.033849 138 99 35
-0.267497 0.283722 -0.032453 129 89 41
-0.262509 0.292333 -0.034234 139 101 39
-0.248364 0.299141 -0.031548 135 98 40
-0.290642 0.268001 -0.026686 121 84 37
-0.262197 0.285330 -0.028686 128 90 38
-0.278285 0.281980 -0.043691 133 100 61
-0.260744 0.295636 -0.043244 142 106 58
-0.262434 0.296289 -0.030467 130 91 38
-0.285985 0.291517 -0.032941 122 85 39
-0.270161 0.299368 -0.033032 121 86 39
-0.281212 0.284702 -0.035424 120 87 33
-0.277339 0.298792 -0.037619 123 87 38
-0.266180 0.281238 -0.042341 154 117 77
-0.250748 -0.053724 0.350776 143 98 64
-0.259883 -0.028042 0.353238 145 100 64
-0.235252 -0.056502 0.349197 118 81 50
-0.217708 0.497152 0.504268 112 55 31
-0.209082 0.320035 0.352998 82 41 22
-0.137488 -0.016024 -0.040543 123 89 58
-0.132731 -0.049454 -0.041090 124 90 60
-0.115651 -0.034315 -0.039828 130 95 63
-0.204503 0.498511 0.329712 33 13 13
-0.211500 0.496672 0.341395 37 14 11
-0.215812 0.479947 0.351012 54 22 14
-0.230821 0.487207 0.345414 54 22 14
-0.209395 0.491563 0.348566 54 22 15
-0.207890 0.466392 0.357287 58 24 12
0.064908 0.490054 0.467591 114 69 40
0.054064 0.491896 0.447372 104 58 34
0.041812 0.492827 0.480310 113 68 39
0.061376 0.492978 0.479330 174 136 95
0.050673 0.497115 0.486317 190 159 121
-0.002655 0.494393 0.457206 100 54 30
-0.204220 0.161572 0.400562 106 65 44
-0.180861 0.502282 0.316577 51 21 13
-0.180209 0.501468 0.288593 57 24 14
-0.194317 0.499741 0.305358 43 18 14
-0.433183 0.456562 0.508499 77 35 28
-0.420849 0.245927 0.022994 46 26 26
-0.421786 0.250127 0.044776 46 27 26
-0.286737 0.224142 -0.037866 78 50 26
-0.314286 0.227558 -0.032081 103 67 29
-0.312215 0.231659 -0.037494 115 79 34
-0.302093 0.238859 -0.035700 107 74 39
-0.299612 0.214876 -0.036440 101 70 41
-0.316348 0.227017 -0.046543 69 45 28
-0.294983 0.231517 -0.042566 104 72 40
-0.306495 0.219994 -0.046390 74 46 27
-0.304897 0.237864 -0.045903 71 45 26
-0.313433 0.211620 -0.043261 95 65 41
-0.057491 0.572743 0.493676 186 156 116
-0.048702 0.568054 0.493742 176 143 102
-0.031004 0.606402 0.490507 186 168 135
-0.064497 0.585967 0.496067 184 152 111
-0.049000 0.587383 0.490699 188 162 121
-0.057465 0.586692 0.491214 184 153 111
-0.051537 0.602400 0.495418 188 164 125
-0.042894 0.572695 0.488477 119 95 72
0.355071 0.493806 -0.010686 114 69 50
-0.093911 0.502199 0.467158 99 51 34
-0.080202 0.494940 0.479504 99 51 34
-0.118904 0.499636 0.485213 100 53 32
0.394895 0.239942 -0.023789 205 181 153
0.372610 0.289971 -0.024364 200 173 143
0.394167 0.481647 0.298077 86 54 46
-0.423977 0.358466 0.141544 30 21 24
-0.422654 0.381141 0.130765 29 20 25
-0.242573 0.224164 0.433747 96 66 67
-0.258417 0.221124 0.425907 183 162 189
-0.246517 0.217323 0.425359 167 129 123
0.438693 0.405394 -0.025290 212 193 169
-0.219470 -0.198431 0.391875 136 98 73
-0.211237 -0.207778 0.414281 150 110 84
-0.019959 0.505303 0.092178 79 39 31
-0.019029 0.504456 0.078292 80 40 31
-0.440828 0.060258 0.437687 115 77 66
-0.443646 0.036368 0.446325 113 76 65
-0.444396 0.062974 0.451052 113 76 66
-0.439383 0.038168 0.435692 115 77 68
-0.437439 0.265424 0.267585 32 22 27
0.208298 0.622510 0.641350 196 184 155
-0.030934 0.507233 0.337702 91 42 22
0.098499 0.504513 0.353077 110 55 27
-0.442860 0.202584 0.538585 124 82 78
-0.447938 0.391760 0.333693 92 57 33
