ply
format ascii 1.0
element vertex 1337
property float x
property float y
property float z
property uchar red
property uchar green
property uchar blue
end_header
-0.093655 0.229883 -0.049586 0 0 255
-0.125473 0.224629 0.253587 0 0 255
0.036049 0.313110 -0.010141 0 0 255
-0.000026 0.294060 0.241858 0 0 255
0.075046 0.343421 0.047859 0 0 255
0.037060 0.323776 0.213858 0 0 255
0.096353 0.355994 0.133859 0 0 255
0.046760 0.283991 -0.057127 0 0 255
-0.207273 0.190942 0.143858 0 0 255
-0.143772 0.215985 0.235859 0 0 255
0.039802 0.321563 -0.055055 0 0 255
0.162761 0.392353 0.041858 0 0 255
-0.031368 0.237904 -0.057095 0 0 255
-0.047059 0.269752 0.241858 0 0 255
0.170790 0.386371 0.233859 0 0 255
-0.140871 0.227318 0.193859 0 0 255
0.019005 0.314313 0.177859 0 0 255
0.060684 0.321489 -0.057097 0 0 255
-0.073343 0.231728 -0.057136 0 0 255
-0.207283 0.190973 0.131859 0 0 255
-0.153156 0.219500 0.145859 0 0 255
-0.095767 0.251100 0.109859 0 0 255
-0.022267 0.291679 0.089859 0 0 255
-0.035092 0.201182 -0.052141 0 0 255
0.084977 0.366232 0.248914 0 0 255
0.099891 0.358133 0.253172 0 0 255
0.033977 0.298978 -0.057140 0 0 255
0.200321 0.427515 0.248901 0 0 255
0.061191 0.326818 -0.018142 0 0 255
-0.223680 0.161827 0.033858 0 0 255
0.077020 0.336758 0.042084 0 0 255
-0.221818 0.173147 0.035859 0 0 255
-0.122565 0.217147 0.003859 0 0 255
0.018809 0.293849 0.233859 0 0 255
0.033403 0.234144 -0.058141 0 0 255
-0.218883 0.184445 0.073858 0 0 255
-0.227279 0.159891 0.245858 0 0 255
-0.190484 0.190594 0.049859 0 0 255
0.048436 0.344979 0.249858 0 0 255
0.177591 0.391579 0.124427 0 0 255
0.024013 0.297409 0.011859 0 0 255
0.024885 0.273339 -0.049756 0 0 255
0.193009 0.388825 0.087858 0 0 255
0.035182 0.259702 -0.057135 0 0 255
0.200190 0.392747 0.137859 0 0 255
0.195241 0.398893 -0.012141 0 0 255
-0.199904 0.183809 0.009858 0 0 255
0.019346 0.277956 -0.057096 0 0 255
-0.079430 0.215323 -0.058141 0 0 255
-0.230875 0.157948 0.065247 0 0 255
-0.091748 0.244571 0.087858 0 0 255
0.160793 0.370830 0.235859 0 0 255
-0.059987 0.271144 -0.057128 0 0 255
0.062201 0.328197 0.167858 0 0 255
-0.102667 0.237643 -0.060142 0 0 255
-0.221784 0.162727 -0.024141 0 0 255
0.068234 0.331212 0.035859 0 0 255
-0.086975 0.277751 -0.057135 0 0 255
0.001735 0.295157 0.211859 0 0 255
0.160156 0.390587 0.081859 0 0 255
-0.236682 0.163469 0.029859 0 0 255
0.115433 0.347913 -0.016141 0 0 255
-0.097078 0.276650 0.253859 0 0 255
0.004135 0.296395 0.047859 0 0 255
0.170561 0.387145 0.063859 0 0 255
-0.229241 0.159475 0.227858 0 0 255
-0.213691 0.177397 0.049859 0 0 255
0.123409 0.370281 0.175858 0 0 255
-0.163826 0.213269 0.253309 0 0 255
-0.045355 0.292165 0.248896 0 0 255
0.022331 0.310129 0.248928 0 0 255
-0.206934 0.182753 0.229859 0 0 255
0.099250 0.339171 -0.012994 0 0 255
0.207340 0.396779 0.023858 0 0 255
-0.089960 0.245578 0.012869 0 0 255
-0.091524 0.243816 0.215859 0 0 255
-0.027033 0.272562 0.020640 0 0 255
0.207492 0.396264 0.200822 0 0 255
0.148557 0.383968 0.037858 0 0 255
-0.183953 0.194792 0.029859 0 0 255
-0.102381 0.238218 0.163859 0 0 255
0.062108 0.316680 -0.064142 0 0 255
-0.079085 0.251116 0.093858 0 0 255
0.050173 0.328805 -0.049496 0 0 255
0.077020 0.336758 0.106048 0 0 255
-0.213869 0.178000 0.103859 0 0 255
-0.076794 0.271546 -0.050142 0 0 255
0.174678 0.380287 0.020144 0 0 255
-0.038379 0.308833 0.253859 0 0 255
-0.240891 0.161238 -0.020141 0 0 255
0.046860 0.318863 0.049859 0 0 255
0.150493 0.384472 0.201859 0 0 255
0.060279 0.336939 0.109859 0 0 255
0.093299 0.345178 0.101858 0 0 255
-0.039466 0.272289 0.033858 0 0 255
-0.176084 0.198320 0.053859 0 0 255
-0.167037 0.202985 0.089859 0 0 255
-0.052175 0.258857 -0.057091 0 0 255
-0.231479 0.167031 0.157858 0 0 255
-0.242348 0.161470 0.085859 0 0 255
-0.004589 0.281296 -0.011928 0 0 255
0.192675 0.389950 0.231858 0 0 255
-0.083212 0.258007 0.176876 0 0 255
0.179398 0.392520 0.095859 0 0 255
0.008172 0.322721 -0.050142 0 0 255
0.017642 0.323342 -0.050142 0 0 255
-0.195683 0.187021 0.033858 0 0 255
0.170706 0.386655 0.085859 0 0 255
0.165940 0.374578 0.009858 0 0 255
-0.057860 0.221713 -0.054999 0 0 255
-0.255086 0.194579 0.245858 0 0 255
-0.244618 0.170564 0.139858 0 0 255
-0.250585 0.181312 0.205859 0 0 255
-0.099918 0.273917 -0.050142 0 0 255
-0.028019 0.268850 -0.022142 0 0 255
-0.038230 0.269245 -0.050142 0 0 255
0.005336 0.297083 0.063859 0 0 255
-0.019810 0.283388 0.175858 0 0 255
0.205731 0.395167 0.077859 0 0 255
0.159864 0.381008 0.091859 0 0 255
0.082464 0.339503 0.129858 0 0 255
-0.219670 0.173783 0.117859 0 0 255
-0.060813 0.295057 -0.054142 0 0 255
0.092249 0.334638 -0.002141 0 0 255
0.156191 0.379323 0.109859 0 0 255
-0.233414 0.166521 0.073858 0 0 255
-0.007289 0.290413 0.193859 0 0 255
-0.103370 0.227472 0.245858 0 0 255
0.185975 0.433695 0.254300 0 0 255
-0.242167 0.160861 -0.031125 0 0 255
-0.114536 0.229955 0.224290 0 0 255
0.102265 0.350118 0.087858 0 0 255
-0.120103 0.228306 0.137859 0 0 255
-0.093517 0.243502 0.121858 0 0 255
-0.194898 0.187378 0.219859 0 0 255
0.147189 0.374505 0.055858 0 0 255
0.130899 0.366122 0.095859 0 0 255
0.068330 0.330883 0.119859 0 0 255
-0.130478 0.213359 0.233859 0 0 255
-0.073131 0.244306 0.247859 0 0 255
-0.051112 0.234141 -0.049568 0 0 255
-0.034241 0.275775 0.181858 0 0 255
0.041426 0.316083 0.219859 0 0 255
0.015528 0.230935 -0.056141 0 0 255
-0.046896 0.269203 0.093858 0 0 255
0.091576 0.343952 0.205859 0 0 255
-0.250436 0.181356 0.221859 0 0 255
-0.179679 0.196369 0.077859 0 0 255
-0.218428 0.165223 0.011859 0 0 255
0.133541 0.368102 0.001859 0 0 255
-0.068438 0.257421 0.107858 0 0 255
0.152408 0.385053 0.173859 0 0 255
0.164090 0.373781 -0.014141 0 0 255
0.187080 0.386047 0.099859 0 0 255
0.022831 0.343652 -0.049716 0 0 255
-0.059332 0.261893 0.195858 0 0 255
-0.054760 0.253497 0.251859 0 0 255
0.047319 0.310274 0.241858 0 0 255
0.057425 0.325449 0.185858 0 0 255
-0.100330 0.238335 0.223975 0 0 255
-0.128130 0.259303 0.253859 0 0 255
-0.019836 0.283477 0.149859 0 0 255
-0.042946 0.213615 -0.049688 0 0 255
-0.152779 0.211186 0.189858 0 0 255
0.121934 0.361177 0.171858 0 0 255
0.027447 0.349191 0.248955 0 0 255
-0.069028 0.255951 0.245858 0 0 255
-0.236348 0.155301 0.023858 0 0 255
-0.026980 0.279429 -0.036142 0 0 255
-0.116883 0.230842 0.099859 0 0 255
-0.158273 0.208607 0.165859 0 0 255
0.102431 0.349557 0.201859 0 0 255
-0.131231 0.222941 0.049859 0 0 255
0.182731 0.402394 0.135859 0 0 255
-0.215436 0.176246 0.203858 0 0 255
0.172517 0.387585 0.023858 0 0 255
-0.158125 0.208108 0.181858 0 0 255
0.080646 0.338601 0.181858 0 0 255
-0.256795 0.196159 0.104239 0 0 255
-0.199407 0.227760 0.251117 0 0 255
-0.126795 0.215007 0.247859 0 0 255
0.207492 0.396264 0.124789 0 0 255
-0.216542 0.165896 0.167858 0 0 255
-0.098854 0.240394 0.139858 0 0 255
-0.010996 0.288840 0.205859 0 0 255
-0.129538 0.224270 0.175858 0 0 255
-0.038845 0.263146 0.011859 0 0 255
-0.037716 0.273419 0.047859 0 0 255
0.030633 0.310266 0.049859 0 0 255
0.068150 0.331491 0.071859 0 0 255
-0.093634 0.243896 0.151859 0 0 255
0.014247 0.302210 0.143858 0 0 255
0.130510 0.374474 0.151859 0 0 255
0.071220 0.342255 0.123859 0 0 255
-0.208386 0.180611 0.221859 0 0 255
-0.109453 0.233925 0.217858 0 0 255
-0.117735 0.219632 0.243859 0 0 255
-0.183170 0.194070 0.137859 0 0 255
-0.014818 0.259493 -0.049416 0 0 255
-0.024546 0.271210 0.009858 0 0 255
-0.168799 0.201890 0.033858 0 0 255
-0.003722 0.292455 0.047859 0 0 255
-0.199371 0.185390 0.179859 0 0 255
0.024457 0.260697 -0.057127 0 0 255
-0.077114 0.251504 0.039859 0 0 255
-0.061050 0.295860 0.254193 0 0 255
-0.065078 0.267204 -0.050142 0 0 255
0.139458 0.414686 0.249858 0 0 255
0.175198 0.378533 -0.022142 0 0 255
-0.059454 0.262304 0.179859 0 0 255
-0.150172 0.202384 0.001859 0 0 255
-0.195007 0.177697 0.245858 0 0 255
-0.088654 0.255256 0.155859 0 0 255
-0.231499 0.167097 0.057859 0 0 255
0.048411 0.320672 0.109859 0 0 255
-0.255993 0.192226 0.063859 0 0 255
-0.067383 0.246821 0.239859 0 0 255
0.041215 0.316797 0.187859 0 0 255
-0.048543 0.267717 0.023858 0 0 255
-0.007104 0.289788 0.153858 0 0 255
0.035122 0.323282 0.199858 0 0 255
-0.065564 0.247724 0.015859 0 0 255
-0.188852 0.192127 0.063859 0 0 255
-0.062787 0.259471 0.213858 0 0 255
0.063820 0.349535 0.253859 0 0 255
-0.254961 0.188359 0.235859 0 0 255
-0.166018 0.213629 0.033858 0 0 255
-0.186652 0.202335 0.179859 0 0 255
0.152745 0.376874 0.077859 0 0 255
0.148815 0.404224 0.253859 0 0 255
0.031560 0.264887 -0.049534 0 0 255
0.136623 0.367921 -0.024141 0 0 255
-0.149042 0.212652 0.211859 0 0 255
0.027088 0.301109 -0.049851 0 0 255
-0.084367 0.247823 0.179859 0 0 255
-0.015382 0.317732 -0.049124 0 0 255
-0.025172 0.280364 -0.016141 0 0 255
-0.160826 0.217226 0.171858 0 0 255
0.107740 0.352758 0.169859 0 0 255
0.044143 0.328038 0.179859 0 0 255
0.117655 0.368580 0.039859 0 0 255
0.169854 0.396574 0.137859 0 0 255
-0.035344 0.251328 -0.049378 0 0 255
0.039871 0.286123 -0.049549 0 0 255
0.089667 0.343353 0.169859 0 0 255
0.081009 0.337374 0.093858 0 0 255
0.172272 0.388410 0.151859 0 0 255
0.057009 0.333893 0.117859 0 0 255
0.139530 0.379232 0.165859 0 0 255
0.178896 0.401257 0.217858 0 0 255
-0.177929 0.197503 0.045859 0 0 255
0.046853 0.318888 0.081859 0 0 255
0.026943 0.308642 0.097858 0 0 255
0.152742 0.376883 0.147859 0 0 255
-0.025174 0.280371 0.247859 0 0 255
0.019798 0.304596 0.111858 0 0 255
-0.133779 0.231546 0.025859 0 0 255
-0.237579 0.176821 0.205859 0 0 255
0.095265 0.345583 0.185858 0 0 255
-0.233060 0.214619 0.249858 0 0 255
-0.115104 0.231873 0.159087 0 0 255
0.037814 0.314193 0.033858 0 0 255
0.152586 0.377409 0.093858 0 0 255
0.192999 0.388856 0.205859 0 0 255
-0.234536 0.156223 0.199858 0 0 255
0.107947 0.352060 0.093858 0 0 255
0.169570 0.376409 0.241858 0 0 255
-0.070639 0.293019 -0.055121 0 0 255
-0.227633 0.168132 0.023858 0 0 255
-0.211518 0.177102 0.007859 0 0 255
-0.009705 0.242234 -0.057108 0 0 255
-0.188672 0.191520 0.191859 0 0 255
0.171560 0.390814 -0.012141 0 0 255
-0.236959 0.174918 0.111858 0 0 255
-0.196780 0.211851 0.253273 0 0 255
0.060845 0.335029 0.061859 0 0 255
0.124671 0.351936 -0.016141 0 0 255
-0.001370 0.291556 -0.006141 0 0 255
-0.234851 0.171372 0.254043 0 0 255
-0.036451 0.283233 0.125858 0 0 255
-0.101820 0.250409 0.249017 0 0 255
0.098267 0.356572 0.063859 0 0 255
0.160845 0.391779 0.051858 0 0 255
0.148558 0.383966 0.157858 0 0 255
0.017076 0.313784 0.063859 0 0 255
0.062188 0.337537 0.079858 0 0 255
-0.009488 0.304876 0.253514 0 0 255
0.090443 0.340734 -0.029099 0 0 255
0.039376 0.308921 -0.055050 0 0 255
0.002159 0.293724 -0.057140 0 0 255
-0.010697 0.287831 -0.057109 0 0 255
-0.042224 0.281595 0.187859 0 0 255
-0.236451 0.172983 0.163859 0 0 255
0.062201 0.337493 0.149859 0 0 255
-0.047405 0.277961 0.055858 0 0 255
-0.214375 0.186748 0.091859 0 0 255
-0.056418 0.273178 0.073858 0 0 255
-0.226323 0.170750 0.147859 0 0 255
-0.191158 0.199912 0.039859 0 0 255
-0.194083 0.188662 -0.006141 0 0 255
-0.115731 0.241035 0.105859 0 0 255
-0.042217 0.281573 0.083858 0 0 255
0.125341 0.370801 0.047859 0 0 255
-0.241714 0.183940 0.109859 0 0 255
0.121494 0.369703 0.065858 0 0 255
-0.035538 0.273108 -0.010141 0 0 255
-0.163471 0.205030 0.253246 0 0 255
0.203032 0.404280 0.217858 0 0 255
-0.071323 0.246039 -0.018142 0 0 255
0.075392 0.335211 0.233859 0 0 255
-0.126670 0.235713 0.181858 0 0 255
0.133777 0.377530 0.179859 0 0 255
0.157353 0.382443 -0.008142 0 0 255
-0.157003 0.218405 0.049859 0 0 255
0.105375 0.360745 0.071859 0 0 255
-0.226312 0.170710 0.071859 0 0 255
0.194017 0.399505 0.205859 0 0 255
-0.101530 0.249430 0.085859 0 0 255
-0.095762 0.251078 0.203858 0 0 255
-0.011314 0.296956 0.107858 0 0 255
0.121494 0.369703 0.095859 0 0 255
0.022843 0.315441 0.115858 0 0 255
0.076386 0.345937 0.187859 0 0 255
0.008058 0.309020 0.117859 0 0 255
-0.031150 0.300545 0.248923 0 0 255
0.057936 0.323723 0.245858 0 0 255
-0.193799 0.187703 0.253449 0 0 255
0.020921 0.314886 0.195858 0 0 255
-0.017163 0.246283 -0.057095 0 0 255
-0.258203 0.200914 0.113859 0 0 255
0.040306 0.326905 0.147859 0 0 255
0.100530 0.348935 0.001859 0 0 255
-0.129005 0.222469 -0.006141 0 0 255
0.013878 0.303454 0.254049 0 0 255
-0.034067 0.232933 -0.049379 0 0 255
-0.084476 0.248190 0.239859 0 0 255
-0.017077 0.295287 0.139858 0 0 255
-0.090073 0.288210 0.249858 0 0 255
-0.014565 0.293847 0.123859 0 0 255
0.214786 0.399805 0.223859 0 0 255
-0.149889 0.222552 0.191859 0 0 255
-0.101458 0.354811 -0.061274 0 0 255
-0.063518 0.268981 0.033858 0 0 255
0.000309 0.257716 -0.057094 0 0 255
-0.256279 0.192141 0.015859 0 0 255
0.089626 0.343492 0.111858 0 0 255
-0.092446 0.246928 -0.049720 0 0 255
-0.185140 0.193681 0.207859 0 0 255
0.175320 0.399250 0.102839 0 0 255
0.026528 0.239625 -0.050142 0 0 255
0.107953 0.362608 0.053859 0 0 255
-0.103857 0.236158 -0.012141 0 0 255
-0.069289 0.267335 0.219859 0 0 255
0.023463 0.249973 -0.049640 0 0 255
-0.141198 0.207296 0.245858 0 0 255
-0.250728 0.196803 0.145859 0 0 255
0.077588 0.334840 -0.007095 0 0 255
0.018000 0.331791 -0.049802 0 0 255
-0.208889 0.179061 -0.006141 0 0 255
0.059270 0.326262 0.153858 0 0 255
0.104318 0.350228 0.107858 0 0 255
0.214806 0.399740 0.067859 0 0 255
-0.085689 0.371998 -0.057085 0 0 255
-0.073635 0.253839 0.021859 0 0 255
-0.248810 0.177666 0.125858 0 0 255
0.016074 0.218582 -0.049424 0 0 255
0.156076 0.379710 0.039859 0 0 255
-0.116098 0.221148 0.227498 0 0 255
0.101826 0.344558 0.253859 0 0 255
-0.031439 0.275428 0.253859 0 0 255
-0.134355 0.247571 0.253859 0 0 255
-0.211924 0.178475 0.041858 0 0 255
0.207492 0.396264 0.237686 0 0 255
-0.153142 0.219451 0.163859 0 0 255
0.005193 0.297566 0.185858 0 0 255
0.052727 0.292016 -0.057140 0 0 255
0.196716 0.390392 0.179859 0 0 255
-0.084498 0.248264 0.053859 0 0 255
-0.048976 0.297351 -0.054927 0 0 255
-0.094511 0.232775 0.007859 0 0 255
-0.236899 0.156163 0.167858 0 0 255
0.022852 0.315407 0.087858 0 0 255
-0.206013 0.200772 0.254066 0 0 255
-0.057074 0.282436 -0.055125 0 0 255
0.134709 0.367343 0.225859 0 0 255
-0.256035 0.192213 0.003859 0 0 255
-0.251362 0.181082 0.083858 0 0 255
0.110977 0.355160 0.181858 0 0 255
0.148880 0.375838 0.111858 0 0 255
0.044880 0.318507 0.169859 0 0 255
-0.056596 0.252653 -0.018142 0 0 255
-0.218485 0.165417 0.187859 0 0 255
-0.109352 0.261752 -0.056141 0 0 255
-0.025256 0.287689 -0.055134 0 0 255
-0.031289 0.286931 0.209858 0 0 255
-0.075128 0.262488 0.151859 0 0 255
-0.231797 0.168104 0.174833 0 0 255
-0.003203 0.317167 0.253859 0 0 255
0.130959 0.365919 0.057859 0 0 255
-0.024402 0.312973 0.248936 0 0 255
-0.120913 0.237403 0.039859 0 0 255
0.009004 0.298781 0.023858 0 0 255
-0.237562 0.176826 0.245858 0 0 255
0.002217 0.304171 0.019858 0 0 255
0.135318 0.365286 0.237859 0 0 255
-0.176955 0.208300 0.189858 0 0 255
-0.161695 0.206076 0.031859 0 0 255
0.056688 0.324478 0.229859 0 0 255
-0.178278 0.205727 0.105859 0 0 255
0.097950 0.347130 0.241858 0 0 255
-0.076543 0.242534 0.009858 0 0 255
-0.178284 0.205744 0.205859 0 0 255
-0.252924 0.193135 0.039859 0 0 255
-0.140858 0.227276 0.205859 0 0 255
0.156589 0.377980 0.013858 0 0 255
0.162770 0.392321 0.205859 0 0 255
-0.242333 0.160812 0.175858 0 0 255
-0.160840 0.217274 0.127859 0 0 255
-0.052583 0.274316 0.199858 0 0 255
-0.032926 0.285417 0.100879 0 0 255
0.203028 0.404293 0.043859 0 0 255
0.107676 0.352974 0.207859 0 0 255
-0.141595 0.215682 -0.021181 0 0 255
-0.023342 0.231937 -0.057109 0 0 255
-0.210844 0.188912 0.048899 0 0 255
-0.086125 0.246715 -0.009107 0 0 255
0.189394 0.386944 0.145859 0 0 255
0.143371 0.380350 0.129858 0 0 255
-0.230163 0.169627 -0.022142 0 0 255
0.108212 0.351166 -0.018142 0 0 255
0.111274 0.354913 0.109859 0 0 255
0.057387 0.325574 0.161858 0 0 255
-0.184066 0.204139 0.085859 0 0 255
0.049605 0.330724 0.100856 0 0 255
0.057462 0.272559 -0.058141 0 0 255
-0.133771 0.231518 0.219859 0 0 255
0.181365 0.399964 0.091859 0 0 255
-0.086074 0.257159 0.137859 0 0 255
0.021763 0.312046 0.014930 0 0 255
-0.034216 0.275688 0.153858 0 0 255
0.119571 0.369155 0.151859 0 0 255
-0.184723 0.202907 0.129858 0 0 255
0.179403 0.417147 0.253859 0 0 255
-0.129932 0.232641 0.095859 0 0 255
0.160830 0.391828 0.021859 0 0 255
-0.209206 0.190426 0.021859 0 0 255
-0.186663 0.202333 0.051858 0 0 255
-0.016731 0.315245 0.253244 0 0 255
0.011209 0.308921 0.075859 0 0 255
0.127562 0.391468 0.253859 0 0 255
-0.015164 0.295871 0.193859 0 0 255
0.046692 0.319431 0.254166 0 0 255
-0.094427 0.253617 0.129858 0 0 255
0.000963 0.304802 0.053859 0 0 255
0.156582 0.378003 0.231858 0 0 255
0.177237 0.399819 0.066850 0 0 255
0.083768 0.349187 0.062860 0 0 255
0.006670 0.208079 -0.052141 0 0 255
-0.094578 0.242125 0.167858 0 0 255
0.176312 0.399544 0.049859 0 0 255
0.126673 0.373346 0.137859 0 0 255
-0.107703 0.235058 0.245858 0 0 255
-0.069964 0.266102 0.075859 0 0 255
-0.178881 0.207761 0.015859 0 0 255
0.114060 0.356073 -0.004142 0 0 255
-0.092233 0.253249 0.220856 0 0 255
0.189951 0.420272 0.253295 0 0 255
-0.027887 0.247278 -0.049531 0 0 255
-0.216917 0.185028 0.031859 0 0 255
-0.120241 0.267897 -0.052141 0 0 255
-0.000476 0.207423 -0.070141 0 0 255
-0.196900 0.177047 -0.010141 0 0 255
-0.062855 0.270294 0.175858 0 0 255
-0.016823 0.283929 -0.026141 0 0 255
-0.144189 0.214914 0.253859 0 0 255
0.008407 0.272630 -0.050071 0 0 255
-0.164098 0.214187 0.189858 0 0 255
0.031992 0.333850 -0.054977 0 0 255
-0.079657 0.260088 0.067859 0 0 255
-0.170254 0.200935 0.131859 0 0 255
0.197845 0.400662 0.241858 0 0 255
0.206141 0.404208 0.057859 0 0 255
-0.061592 0.269518 0.117859 0 0 255
0.034108 0.312620 0.111858 0 0 255
0.004499 0.250614 -0.057109 0 0 255
-0.018798 0.216596 -0.057136 0 0 255
-0.163803 0.202845 0.009858 0 0 255
-0.044278 0.202791 -0.058141 0 0 255
0.112182 0.344806 -0.024141 0 0 255
0.029647 0.320640 -0.049285 0 0 255
-0.016125 0.285034 0.081859 0 0 255
0.065905 0.303860 -0.066141 0 0 255
-0.201469 0.178386 -0.028141 0 0 255
-0.105301 0.241034 0.254000 0 0 255
-0.187850 0.181706 0.243859 0 0 255
-0.256297 0.192136 -0.008142 0 0 255
-0.173841 0.197787 0.020070 0 0 255
-0.214708 0.166746 0.023858 0 0 255
0.132135 0.376029 0.248923 0 0 255
0.164691 0.392880 0.187859 0 0 255
0.088290 0.355047 0.253859 0 0 255
0.010869 0.299527 0.085859 0 0 255
-0.075476 0.253016 0.185858 0 0 255
0.195743 0.390699 0.059859 0 0 255
0.012529 0.300968 0.162685 0 0 255
-0.066696 0.258582 0.067859 0 0 255
-0.015223 0.331278 -0.054142 0 0 255
-0.083536 0.237973 -0.000142 0 0 255
-0.246758 0.183398 0.059859 0 0 255
-0.028900 0.278865 0.107858 0 0 255
-0.061764 0.256016 0.225815 0 0 255
-0.210647 0.170197 -0.014141 0 0 255
0.039406 0.315858 0.203858 0 0 255
-0.134814 0.220953 0.167858 0 0 255
0.141447 0.379805 0.057859 0 0 255
-0.108733 0.224453 0.001859 0 0 255
-0.129286 0.223418 0.207859 0 0 255
0.058609 0.325047 0.003859 0 0 255
-0.118767 0.230158 0.071859 0 0 255
-0.132843 0.221343 0.075859 0 0 255
0.130628 0.365153 0.209858 0 0 255
0.134661 0.367505 0.169859 0 0 255
-0.251824 0.193460 0.253677 0 0 255
-0.035542 0.273124 0.241858 0 0 255
0.116722 0.350604 0.020687 0 0 255
-0.077741 0.288830 0.248924 0 0 255
0.042767 0.253606 -0.050142 0 0 255
-0.054737 0.264355 0.105859 0 0 255
-0.246470 0.174188 0.207859 0 0 255
0.000800 0.284229 0.017859 0 0 255
-0.098118 0.266074 0.253859 0 0 255
-0.213813 0.177811 0.081859 0 0 255
-0.082727 0.249326 0.171858 0 0 255
-0.214831 0.174202 0.143858 0 0 255
0.182695 0.402515 0.249858 0 0 255
-0.212827 0.177895 0.025859 0 0 255
-0.167000 0.202861 0.069858 0 0 255
-0.017960 0.284186 0.045859 0 0 255
0.058975 0.270922 -0.071121 0 0 255
0.038953 0.352599 -0.055019 0 0 255
-0.205903 0.182032 0.097858 0 0 255
0.128372 0.353526 -0.000142 0 0 255
0.135569 0.357396 0.007859 0 0 255
0.010684 0.321280 0.254247 0 0 255
-0.256292 0.192137 0.171858 0 0 255
-0.122835 0.236849 0.121858 0 0 255
-0.052224 0.266064 0.139858 0 0 255
0.007062 0.298298 0.225859 0 0 255
0.080891 0.337772 0.165859 0 0 255
-0.054820 0.267782 0.253859 0 0 255
0.138296 0.369316 0.199858 0 0 255
-0.252617 0.184882 0.183859 0 0 255
0.136428 0.368580 0.063859 0 0 255
-0.032213 0.275969 0.211859 0 0 255
0.109497 0.353868 0.059859 0 0 255
0.129352 0.364301 0.073858 0 0 255
-0.161767 0.199278 0.020338 0 0 255
0.068217 0.331267 0.191859 0 0 255
0.200066 0.393166 0.021859 0 0 255
0.131141 0.365305 0.254075 0 0 255
-0.190246 0.217958 0.248931 0 0 255
0.125711 0.362506 0.111858 0 0 255
-0.069930 0.276542 0.249023 0 0 255
0.089678 0.343317 0.139858 0 0 255
-0.005020 0.212334 -0.049438 0 0 255
0.049387 0.268082 -0.049738 0 0 255
-0.016022 0.298768 0.248861 0 0 255
0.023326 0.320854 0.248964 0 0 255
-0.226306 0.170691 0.121858 0 0 255
-0.030514 0.263187 -0.049761 0 0 255
0.107292 0.361314 0.023858 0 0 255
-0.040952 0.291383 -0.055021 0 0 255
-0.198270 0.195759 0.075859 0 0 255
-0.108626 0.245218 0.127859 0 0 255
-0.202096 0.194587 0.019858 0 0 255
-0.079644 0.260042 0.125858 0 0 255
0.080249 0.346981 0.139858 0 0 255
0.210697 0.406569 0.211859 0 0 255
-0.237574 0.176823 0.223859 0 0 255
-0.006141 0.300620 0.133859 0 0 255
-0.242862 0.187771 0.185858 0 0 255
0.058341 0.336439 0.133859 0 0 255
0.127592 0.363203 -0.002141 0 0 255
0.052164 0.322080 -0.008142 0 0 255
-0.135695 0.230971 0.155859 0 0 255
0.065450 0.340610 0.137859 0 0 255
-0.022255 0.291644 0.121858 0 0 255
0.210690 0.406595 0.227858 0 0 255
0.139538 0.379206 0.195858 0 0 255
-0.044555 0.268338 -0.000142 0 0 255
-0.142211 0.224800 0.033858 0 0 255
-0.072537 0.264218 0.169859 0 0 255
-0.257638 0.195910 0.045859 0 0 255
-0.046141 0.231442 -0.057123 0 0 255
-0.052585 0.274323 0.021859 0 0 255
-0.089656 0.244552 0.231858 0 0 255
0.177765 0.390992 0.075859 0 0 255
-0.082008 0.218731 -0.069046 0 0 255
0.033482 0.321775 0.092893 0 0 255
0.053581 0.317300 -0.049733 0 0 255
-0.019930 0.276752 -0.049922 0 0 255
-0.013963 0.284776 -0.009161 0 0 255
-0.025756 0.254167 -0.057124 0 0 255
0.031861 0.320204 0.169859 0 0 255
-0.125614 0.239189 0.248888 0 0 255
0.066863 0.335835 0.248941 0 0 255
-0.059672 0.270083 0.049859 0 0 255
0.075462 0.352984 0.253859 0 0 255
-0.105797 0.263832 0.248865 0 0 255
0.055849 0.253309 -0.069044 0 0 255
-0.138174 0.229211 0.253859 0 0 255
0.163173 0.376879 0.225578 0 0 255
-0.196535 0.186893 0.137859 0 0 255
0.100628 0.348603 0.217858 0 0 255
0.150390 0.391866 0.254116 0 0 255
-0.097820 0.229861 -0.022142 0 0 255
-0.215106 0.175133 0.253420 0 0 255
0.018391 0.309344 -0.050142 0 0 255
0.054948 0.340851 0.253859 0 0 255
0.191303 0.397727 0.031859 0 0 255
-0.054614 0.264391 0.117859 0 0 255
0.177889 0.390576 0.227858 0 0 255
-0.122912 0.265277 0.253859 0 0 255
-0.087475 0.244228 0.253653 0 0 255
0.167528 0.383302 0.013858 0 0 255
-0.172485 0.200252 0.217858 0 0 255
-0.240287 0.171847 0.051858 0 0 255
-0.077460 0.259711 -0.055064 0 0 255
-0.100940 0.247433 0.135859 0 0 255
-0.167926 0.213029 0.217858 0 0 255
0.154330 0.385604 0.083858 0 0 255
-0.226960 0.169537 0.237859 0 0 255
0.132447 0.374977 0.025859 0 0 255
0.016001 0.212302 -0.062141 0 0 255
-0.214579 0.202406 0.253859 0 0 255
-0.225560 0.161128 0.011859 0 0 255
-0.060982 0.260420 0.014903 0 0 255
-0.256059 0.192205 -0.020141 0 0 255
-0.223771 0.203856 0.253859 0 0 255
0.163527 0.382724 0.075859 0 0 255
-0.032858 0.249978 -0.057097 0 0 255
0.000450 0.214994 -0.060142 0 0 255
-0.052578 0.274298 0.143858 0 0 255
-0.104785 0.246331 0.195858 0 0 255
-0.117388 0.229110 -0.012141 0 0 255
-0.008283 0.265600 -0.057122 0 0 255
-0.093510 0.271644 0.248904 0 0 255
-0.166807 0.237417 0.253605 0 0 255
0.200452 0.402523 0.151859 0 0 255
0.180083 0.400661 0.159859 0 0 255
0.110687 0.378019 0.248865 0 0 255
-0.159918 0.207117 -0.008142 0 0 255
-0.116734 0.230337 0.011859 0 0 255
-0.090592 0.254753 0.077859 0 0 255
0.069296 0.341708 0.209858 0 0 255
-0.221855 0.162705 -0.009197 0 0 255
0.177761 0.383961 -0.006141 0 0 255
-0.004578 0.203797 -0.064142 0 0 255
0.032538 0.321496 0.043859 0 0 255
-0.249199 0.187980 0.029859 0 0 255
-0.233901 0.171653 0.189858 0 0 255
-0.099275 0.259506 -0.056141 0 0 255
-0.066549 0.258088 0.083858 0 0 255
0.170213 0.389394 0.223859 0 0 255
0.112746 0.364028 0.253599 0 0 255
0.094427 0.355450 0.191859 0 0 255
-0.173124 0.200086 0.157858 0 0 255
-0.075144 0.262482 0.111858 0 0 255
0.049605 0.330724 0.192858 0 0 255
0.114389 0.365521 0.189858 0 0 255
-0.203737 0.182673 0.207859 0 0 255
0.026734 0.309347 -0.049420 0 0 255
0.037527 0.272912 -0.057115 0 0 255
0.000097 0.251395 -0.050059 0 0 255
0.010922 0.299351 0.241858 0 0 255
-0.088663 0.255284 0.171858 0 0 255
-0.221782 0.183587 0.140850 0 0 255
0.067645 0.340239 0.176849 0 0 255
-0.117428 0.229099 -0.000142 0 0 255
-0.077105 0.251472 -0.021134 0 0 255
-0.243798 0.187494 0.156879 0 0 255
-0.197560 0.186319 0.025859 0 0 255
0.022544 0.316450 0.210850 0 0 255
0.023503 0.316734 0.171858 0 0 255
0.016406 0.312546 0.121858 0 0 255
0.056707 0.334914 0.176856 0 0 255
0.153742 0.387591 0.067859 0 0 255
0.105382 0.360720 0.147859 0 0 255
0.059241 0.333400 -0.064142 0 0 255
-0.179553 0.206524 0.167858 0 0 255
0.132135 0.376029 0.210859 0 0 255
0.005072 0.305016 -0.055119 0 0 255
-0.062014 0.239256 -0.056141 0 0 255
-0.149896 0.222579 0.129858 0 0 255
0.074034 0.315015 -0.054142 0 0 255
0.057677 0.335200 0.187859 0 0 255
0.203302 0.403367 -0.005127 0 0 255
-0.052591 0.274342 0.047859 0 0 255
-0.094987 0.237832 0.253859 0 0 255
-0.115729 0.241029 0.169859 0 0 255
-0.046777 0.268799 0.230883 0 0 255
-0.241599 0.158943 0.038204 0 0 255
0.035431 0.318181 0.015859 0 0 255
0.182078 0.401252 0.127859 0 0 255
0.066874 0.289948 -0.050142 0 0 255
-0.218891 0.184443 0.169859 0 0 255
-0.029365 0.287477 0.065858 0 0 255
0.204947 0.404859 -0.022142 0 0 255
-0.127885 0.246860 0.248948 0 0 255
-0.134348 0.261633 0.248878 0 0 255
-0.197325 0.185523 -0.014141 0 0 255
-0.236439 0.155609 0.099859 0 0 255
-0.106493 0.252101 -0.062141 0 0 255
0.044420 0.327102 0.044811 0 0 255
-0.120907 0.237383 0.145859 0 0 255
0.009316 0.308360 0.189858 0 0 255
0.195260 0.398899 0.005858 0 0 255
-0.052285 0.266267 0.193859 0 0 255
0.043467 0.295531 -0.050142 0 0 255
-0.009274 0.311197 0.248872 0 0 255
-0.236479 0.155741 0.243859 0 0 255
0.193308 0.398320 0.065858 0 0 255
0.109565 0.353641 0.237859 0 0 255
0.104710 0.359561 0.087858 0 0 255
0.086669 0.350046 0.173859 0 0 255
-0.250715 0.196757 0.167858 0 0 255
-0.026605 0.285204 0.014884 0 0 255
0.030201 0.308288 -0.030141 0 0 255
-0.146550 0.204243 0.013858 0 0 255
-0.246018 0.187944 0.069858 0 0 255
-0.238842 0.156679 0.003859 0 0 255
-0.040601 0.226824 -0.049913 0 0 255
0.167168 0.391561 0.015859 0 0 255
-0.143790 0.216048 0.163859 0 0 255
-0.034204 0.275646 0.005858 0 0 255
-0.242456 0.161835 0.075859 0 0 255
0.004161 0.304747 0.155859 0 0 255
-0.007002 0.303526 -0.049215 0 0 255
-0.023478 0.218312 -0.050142 0 0 255
-0.028001 0.268792 0.247859 0 0 255
-0.085417 0.237282 0.017859 0 0 255
0.026866 0.308898 0.189858 0 0 255
-0.222627 0.177078 0.187859 0 0 255
0.214782 0.399821 0.187859 0 0 255
0.098261 0.356591 0.045859 0 0 255
0.158963 0.369965 0.251859 0 0 255
-0.252818 0.182737 -0.021671 0 0 255
0.172620 0.387236 0.049859 0 0 255
-0.238582 0.166095 0.013858 0 0 255
-0.239395 0.186712 0.253453 0 0 255
-0.251306 0.198755 0.061859 0 0 255
-0.162453 0.205332 0.205859 0 0 255
0.016091 0.303026 -0.056141 0 0 255
-0.101680 0.235849 0.019943 0 0 255
-0.250030 0.179390 -0.004142 0 0 255
-0.091776 0.244666 0.039859 0 0 255
0.031122 0.306475 0.225859 0 0 255
0.011748 0.296565 -0.049348 0 0 255
0.170935 0.385882 0.253859 0 0 255
-0.046850 0.247919 -0.057140 0 0 255
-0.154303 0.209288 0.057859 0 0 255
-0.053026 0.289893 0.248914 0 0 255
-0.084321 0.240623 -0.026141 0 0 255
0.100745 0.383417 0.253869 0 0 255
-0.171637 0.225556 0.253452 0 0 255
0.018016 0.303570 0.127859 0 0 255
-0.039691 0.280085 0.169859 0 0 255
-0.138396 0.254176 0.253884 0 0 255
-0.179166 0.208724 0.248982 0 0 255
-0.228884 0.179396 0.248935 0 0 255
-0.215845 0.170584 0.093858 0 0 255
0.140062 0.363356 0.005858 0 0 255
-0.152887 0.218595 0.222705 0 0 255
-0.202819 0.182945 0.217044 0 0 255
-0.135062 0.221789 0.254261 0 0 255
-0.052921 0.264893 0.013858 0 0 255
-0.203003 0.183565 0.193859 0 0 255
0.212394 0.403975 0.033858 0 0 255
-0.249164 0.187991 -0.008142 0 0 255
0.194036 0.413522 0.253859 0 0 255
-0.208286 0.180274 0.139858 0 0 255
0.123105 0.350182 0.235859 0 0 255
-0.204950 0.176056 0.253448 0 0 255
-0.046616 0.268254 0.217858 0 0 255
0.026947 0.315668 0.222710 0 0 255
0.140323 0.369512 0.125858 0 0 255
0.085988 0.348732 0.123859 0 0 255
0.112003 0.345410 0.011859 0 0 255
0.076860 0.345054 0.253859 0 0 255
0.028647 0.253595 -0.057140 0 0 255
0.173615 0.405003 0.248915 0 0 255
-0.244636 0.169197 0.111858 0 0 255
0.059460 0.325621 0.219859 0 0 255
0.077942 0.326602 0.246330 0 0 255
0.042852 0.261975 -0.057106 0 0 255
-0.023979 0.269295 -0.057124 0 0 255
0.150500 0.384454 0.131859 0 0 255
-0.130038 0.223277 0.193859 0 0 255
-0.144649 0.218949 0.224379 0 0 255
-0.210844 0.188912 0.249047 0 0 255
0.103512 0.352950 0.224328 0 0 255
-0.157005 0.246578 0.254160 0 0 255
0.136539 0.375248 0.222655 0 0 255
0.038791 0.315005 0.147859 0 0 255
-0.021421 0.288826 -0.031263 0 0 255
-0.097694 0.229436 -0.056141 0 0 255
-0.242266 0.161193 0.209858 0 0 255
-0.214538 0.173216 0.068466 0 0 255
-0.165852 0.204326 0.193859 0 0 255
-0.185701 0.202617 0.102827 0 0 255
0.113101 0.355789 0.014888 0 0 255
0.062664 0.328886 0.139858 0 0 255
-0.020631 0.282802 0.129858 0 0 255
0.204276 0.403656 0.071859 0 0 255
0.079376 0.327026 -0.024141 0 0 255
-0.140460 0.211847 0.020446 0 0 255
0.108697 0.356570 0.248969 0 0 255
0.000951 0.276679 -0.057133 0 0 255
-0.019989 0.283994 0.229859 0 0 255
-0.249961 0.180131 0.245858 0 0 255
0.014448 0.308570 0.221859 0 0 255
0.017073 0.292669 0.247859 0 0 255
-0.160565 0.230428 0.253859 0 0 255
0.066582 0.364955 0.254332 0 0 255
-0.062271 0.260038 0.169859 0 0 255
0.181336 0.393018 0.137859 0 0 255
-0.135696 0.219515 0.217858 0 0 255
-0.142022 0.217119 0.153858 0 0 255
-0.059385 0.262067 0.023858 0 0 255
0.049227 0.360164 0.253859 0 0 255
-0.154724 0.210711 0.245858 0 0 255
-0.129000 0.222451 0.241858 0 0 255
-0.158641 0.216891 0.249093 0 0 255
0.065363 0.319776 0.251859 0 0 255
-0.155396 0.209508 0.229859 0 0 255
0.126005 0.372128 0.081859 0 0 255
-0.152484 0.220800 0.199858 0 0 255
-0.066736 0.258716 -0.054958 0 0 255
0.211101 0.399420 0.157858 0 0 255
-0.214752 0.166896 -0.000533 0 0 255
0.032543 0.321498 0.221859 0 0 255
0.146346 0.376066 0.223859 0 0 255
-0.138824 0.241534 0.248951 0 0 255
-0.204422 0.222102 0.253859 0 0 255
-0.096273 0.358433 -0.057118 0 0 255
0.115122 0.348961 0.227858 0 0 255
-0.041292 0.271407 0.159859 0 0 255
0.129453 0.363961 0.027858 0 0 255
0.153091 0.386408 0.103859 0 0 255
0.084375 0.340095 0.023858 0 0 255
0.044868 0.234042 -0.064142 0 0 255
-0.017669 0.294109 -0.044141 0 0 255
0.142933 0.395914 0.253932 0 0 255
0.186372 0.400438 0.017859 0 0 255
-0.210520 0.187818 0.121858 0 0 255
-0.217394 0.166113 0.061859 0 0 255
-0.010488 0.280086 0.227858 0 0 255
0.143791 0.371895 0.021859 0 0 255
0.045707 0.322754 -0.050142 0 0 255
0.043248 0.307982 0.011859 0 0 255
0.030733 0.306361 -0.056141 0 0 255
0.115017 0.356358 0.216316 0 0 255
-0.190425 0.186617 -0.028141 0 0 255
0.092388 0.334168 -0.016141 0 0 255
-0.218215 0.185629 0.055858 0 0 255
-0.116453 0.229387 -0.027120 0 0 255
0.019709 0.304896 0.217858 0 0 255
0.034683 0.226180 -0.064466 0 0 255
0.056533 0.314375 0.247859 0 0 255
-0.209635 0.205958 0.248993 0 0 255
0.129222 0.364737 0.154245 0 0 255
-0.147259 0.213675 0.029859 0 0 255
0.030553 0.356369 -0.054142 0 0 255
0.008690 0.243511 -0.049596 0 0 255
-0.150540 0.259960 0.249858 0 0 255
0.000293 0.303602 0.097858 0 0 255
-0.120490 0.228932 0.195858 0 0 255
-0.129662 0.231732 0.253968 0 0 255
0.026701 0.316499 0.129858 0 0 255
-0.249643 0.196192 0.071859 0 0 255
0.018344 0.294347 -0.016141 0 0 255
-0.210193 0.179671 -0.022142 0 0 255
-0.088186 0.246631 0.027858 0 0 255
0.064124 0.338043 0.095859 0 0 255
-0.244650 0.190368 0.247859 0 0 255
-0.147348 0.213978 0.048913 0 0 255
-0.224395 0.171281 0.059859 0 0 255
0.023788 0.305207 -0.012141 0 0 255
0.073454 0.334712 0.065858 0 0 255
-0.063506 0.268938 0.151859 0 0 255
-0.013227 0.296377 0.147859 0 0 255
-0.248696 0.186043 0.041858 0 0 255
-0.244323 0.185253 0.143858 0 0 255
-0.170854 0.201787 0.241858 0 0 255
-0.002288 0.301694 0.071859 0 0 255
0.123421 0.370242 0.121858 0 0 255
-0.205350 0.191490 0.187859 0 0 255
0.050100 0.307926 -0.057131 0 0 255
-0.079591 0.252822 0.249014 0 0 255
-0.162048 0.200226 0.001859 0 0 255
-0.104790 0.246348 0.159859 0 0 255
-0.216456 0.172649 -0.029040 0 0 255
-0.002292 0.301709 0.179859 0 0 255
-0.245983 0.191019 0.223859 0 0 255
0.139544 0.379188 0.079858 0 0 255
-0.193082 0.199369 0.165859 0 0 255
0.124343 0.360085 -0.016141 0 0 255
0.010908 0.299398 -0.004142 0 0 255
-0.250729 0.196807 0.117859 0 0 255
0.153745 0.387579 0.151859 0 0 255
0.159853 0.381043 0.243859 0 0 255
0.101531 0.359636 0.113859 0 0 255
-0.016500 0.293337 0.023858 0 0 255
-0.245449 0.189091 0.201859 0 0 255
0.167946 0.395971 0.129858 0 0 255
-0.245438 0.189094 0.131859 0 0 255
-0.258215 0.200952 0.015859 0 0 255
-0.060267 0.272090 0.189858 0 0 255
0.085404 0.378874 0.252537 0 0 255
-0.171198 0.209991 0.135859 0 0 255
-0.138750 0.218611 0.061859 0 0 255
0.120503 0.358968 0.247859 0 0 255
-0.024181 0.291102 0.187859 0 0 255
-0.181794 0.196469 0.247859 0 0 255
0.013819 0.310695 0.029859 0 0 255
0.116317 0.366057 0.173859 0 0 255
-0.009402 0.297541 0.021859 0 0 255
-0.103860 0.236168 -0.022142 0 0 255
0.089250 0.351805 0.165859 0 0 255
-0.173114 0.209418 0.077859 0 0 255
-0.144714 0.226211 0.115858 0 0 255
-0.191159 0.199917 0.117859 0 0 255
-0.124756 0.236292 0.167858 0 0 255
-0.068366 0.257179 -0.020141 0 0 255
0.197844 0.400666 0.193859 0 0 255
-0.226317 0.170729 0.225859 0 0 255
-0.022262 0.291666 0.179859 0 0 255
0.121494 0.369701 0.215859 0 0 255
0.126673 0.373346 0.167858 0 0 255
-0.052577 0.274297 0.127859 0 0 255
0.121748 0.358351 -0.008142 0 0 255
-0.002303 0.301745 0.079858 0 0 255
0.064101 0.338121 0.049859 0 0 255
-0.148974 0.212425 -0.000142 0 0 255
-0.027448 0.288050 0.085859 0 0 255
0.008060 0.309010 0.171858 0 0 255
-0.138951 0.227880 0.169859 0 0 255
0.075049 0.343410 0.071859 0 0 255
-0.026105 0.290554 0.213858 0 0 255
0.171767 0.397155 0.041858 0 0 255
0.188820 0.395923 0.011859 0 0 255
0.190752 0.396440 0.217858 0 0 255
0.114393 0.365509 0.107858 0 0 255
-0.044444 0.269490 0.107858 0 0 255
-0.074870 0.250970 0.009858 0 0 255
0.022327 0.225640 -0.064142 0 0 255
0.011905 0.310114 0.097858 0 0 255
0.132777 0.366821 -0.006141 0 0 255
0.071151 0.377695 0.249858 0 0 255
0.201684 0.401786 0.117859 0 0 255
-0.174463 0.189259 0.239859 0 0 255
-0.152489 0.220799 0.081859 0 0 255
-0.203742 0.193102 0.249039 0 0 255
-0.148343 0.203254 -0.013878 0 0 255
0.159807 0.381198 0.121858 0 0 255
0.095866 0.346512 0.059859 0 0 255
0.185212 0.401058 0.193859 0 0 255
-0.078667 0.242665 0.229447 0 0 255
0.081658 0.328145 0.239859 0 0 255
-0.091253 0.234765 0.231858 0 0 255
-0.014858 0.210336 -0.056141 0 0 255
-0.235391 0.169126 0.131859 0 0 255
0.009928 0.344960 0.251859 0 0 255
0.138472 0.368720 0.081859 0 0 255
-0.045214 0.277606 0.253370 0 0 255
0.146441 0.362943 0.245858 0 0 255
-0.018649 0.314677 -0.055092 0 0 255
-0.186710 0.196061 0.015859 0 0 255
-0.249197 0.177551 0.173940 0 0 255
0.141864 0.364309 0.020241 0 0 255
-0.232793 0.157380 0.184968 0 0 255
-0.255659 0.192325 0.079005 0 0 255
-0.087791 0.246221 0.137859 0 0 255
-0.247117 0.191656 0.085859 0 0 255
-0.168136 0.192612 -0.026141 0 0 255
-0.111230 0.243450 0.155859 0 0 255
-0.243835 0.177054 0.009858 0 0 255
0.076842 0.336705 0.133859 0 0 255
-0.120711 0.271931 -0.066387 0 0 255
-0.196426 0.203612 0.253816 0 0 255
0.017205 0.341519 0.253859 0 0 255
0.014516 0.266096 -0.049646 0 0 255
0.163462 0.383223 0.211859 0 0 255
0.146766 0.368890 -0.030141 0 0 255
0.158231 0.372437 -0.002141 0 0 255
-0.079190 0.251469 0.147859 0 0 255
0.187729 0.399608 0.159859 0 0 255
-0.214649 0.166927 0.135859 0 0 255
0.186791 0.398476 0.203858 0 0 255
-0.007006 0.247205 -0.049962 0 0 255
-0.067132 0.217806 -0.066141 0 0 255
-0.134634 0.234432 0.248927 0 0 255
0.047964 0.248888 -0.060142 0 0 255
0.147086 0.374851 0.165859 0 0 255
-0.045854 0.258643 0.015823 0 0 255
-0.209800 0.189221 0.221859 0 0 255
0.187534 0.386181 0.215988 0 0 255
0.156783 0.412533 0.248910 0 0 255
-0.068413 0.257340 0.155859 0 0 255
0.095060 0.346274 0.014931 0 0 255
-0.241466 0.172577 0.087858 0 0 255
0.111114 0.390661 0.253583 0 0 255
-0.241433 0.158992 0.161858 0 0 255
0.073752 0.333704 0.081627 0 0 255
0.060434 0.283869 -0.062141 0 0 255
0.204288 0.407832 0.253859 0 0 255
-0.023427 0.281515 0.157858 0 0 255
0.054286 0.244502 -0.054519 0 0 255
0.029859 0.299844 -0.008142 0 0 255
0.074060 0.333795 0.179859 0 0 255
-0.051966 0.208857 -0.049067 0 0 255
-0.191803 0.198724 0.069858 0 0 255
-0.184050 0.204085 0.139858 0 0 255
0.139526 0.379248 0.027858 0 0 255
-0.083964 0.228581 -0.056141 0 0 255
0.047119 0.332073 0.248910 0 0 255
0.154547 0.377829 0.125858 0 0 255
0.116311 0.366076 0.055858 0 0 255
0.174323 0.388526 0.167207 0 0 255
-0.227531 0.160741 0.131859 0 0 255
0.095299 0.345468 0.089859 0 0 255
-0.242537 0.160751 0.051858 0 0 255
-0.131851 0.232078 0.087858 0 0 255
0.102575 0.391322 0.249858 0 0 255
-0.227633 0.168132 0.129858 0 0 255
0.084438 0.339883 0.207859 0 0 255
0.011638 0.289889 -0.012141 0 0 255
0.055095 0.333314 0.033858 0 0 255
0.156131 0.379528 0.071859 0 0 255
0.145522 0.373088 0.031859 0 0 255
0.081491 0.328704 -0.012141 0 0 255
0.055712 0.324189 0.017188 0 0 255
-0.063276 0.254080 -0.026141 0 0 255
0.212936 0.399010 0.137859 0 0 255
-0.008459 0.287318 0.013858 0 0 255
-0.179728 0.196535 0.121858 0 0 255
-0.206357 0.180804 0.011859 0 0 255
0.102405 0.349646 0.071859 0 0 255
0.080813 0.338035 0.077859 0 0 255
-0.163569 0.205360 0.217858 0 0 255
-0.218488 0.209593 0.253859 0 0 255
-0.166684 0.212422 0.041858 0 0 255
0.210865 0.398961 0.009858 0 0 255
0.098705 0.348054 0.117859 0 0 255
-0.129534 0.224255 0.063859 0 0 255
-0.187832 0.195728 0.222341 0 0 255
0.211040 0.398371 0.051858 0 0 255
-0.240222 0.171867 0.059859 0 0 255
-0.158150 0.208191 0.137859 0 0 255
-0.095769 0.251105 0.173859 0 0 255
0.135422 0.357893 0.235859 0 0 255
0.095173 0.345892 0.031859 0 0 255
-0.112950 0.232511 0.105859 0 0 255
-0.177660 0.203639 0.221859 0 0 255
0.035854 0.313767 0.213858 0 0 255
-0.225650 0.172012 0.171858 0 0 255
-0.089970 0.252654 0.093858 0 0 255
0.066642 0.304481 -0.056141 0 0 255
0.203049 0.404220 0.245858 0 0 255
-0.140183 0.217953 0.203858 0 0 255
-0.080650 0.249354 -0.000142 0 0 255
-0.099618 0.250016 0.069858 0 0 255
-0.094150 0.252680 0.186827 0 0 255
-0.119568 0.239905 0.195858 0 0 255
-0.182507 0.184790 -0.008568 0 0 255
-0.008740 0.298840 0.163859 0 0 255
0.061063 0.327250 0.083858 0 0 255
0.093957 0.335914 0.013858 0 0 255
0.023467 0.306293 -0.027138 0 0 255
0.068261 0.331114 0.207859 0 0 255
-0.129580 0.224414 0.089859 0 0 255
-0.027018 0.262137 -0.056141 0 0 255
-0.026147 0.269572 -0.008142 0 0 255
0.181434 0.382288 0.007859 0 0 255
0.105752 0.352426 0.039859 0 0 255
-0.086352 0.247482 0.111858 0 0 255
-0.130658 0.221008 -0.029108 0 0 255
-0.113254 0.267881 -0.055043 0 0 255
0.191081 0.388290 0.161858 0 0 255
0.029943 0.319637 0.115858 0 0 255
-0.081042 0.250681 0.069858 0 0 255
0.012278 0.290464 0.015859 0 0 255
-0.250809 0.181245 0.103859 0 0 255
0.094422 0.355471 0.143858 0 0 255
0.174361 0.398966 0.083858 0 0 255
0.195231 0.398891 0.055858 0 0 255
0.149022 0.375355 0.205859 0 0 255
0.042224 0.327473 0.073858 0 0 255
-0.173587 0.199948 0.079858 0 0 255
-0.039497 0.272391 0.063859 0 0 255
0.191419 0.397761 -0.024141 0 0 255
-0.085130 0.257439 0.052863 0 0 255
-0.211694 0.219949 0.252587 0 0 255
-0.036803 0.217520 -0.056141 0 0 255
-0.222738 0.183303 0.081859 0 0 255
0.137800 0.369364 0.107858 0 0 255
-0.011410 0.219819 -0.056141 0 0 255
-0.142545 0.215401 -0.004142 0 0 255
-0.102353 0.238122 0.083858 0 0 255
-0.074687 0.285563 -0.055115 0 0 255
-0.149985 0.201752 0.233859 0 0 255
-0.064698 0.258880 0.191859 0 0 255
0.071875 0.343578 0.193859 0 0 255
-0.080941 0.250336 -0.055057 0 0 255
-0.106712 0.245795 0.037858 0 0 255
0.027017 0.308391 0.123859 0 0 255
-0.195815 0.187465 0.149859 0 0 255
-0.114108 0.242597 0.182858 0 0 255
0.192967 0.388964 0.247859 0 0 255
0.138090 0.370012 0.143858 0 0 255
0.005721 0.295783 0.009858 0 0 255
0.008620 0.268522 -0.056141 0 0 255
0.118611 0.358312 0.135859 0 0 255
-0.245148 0.185009 0.076949 0 0 255
0.039636 0.325685 0.031859 0 0 255
-0.052106 0.265661 0.051858 0 0 255
-0.131226 0.222925 0.161718 0 0 255
0.015167 0.313188 0.149859 0 0 255
-0.071735 0.254472 0.043859 0 0 255
-0.118579 0.278819 -0.071122 0 0 255
0.048659 0.330443 0.153858 0 0 255
-0.040029 0.281227 0.056839 0 0 255
0.094279 0.341870 0.254251 0 0 255
0.018141 0.317232 -0.055040 0 0 255
0.057364 0.325653 0.135859 0 0 255
-0.072545 0.264246 0.185858 0 0 255
-0.087892 0.245640 0.157858 0 0 255
-0.053178 0.255200 0.013858 0 0 255
0.046069 0.328576 0.117859 0 0 255
0.124050 0.361072 0.061859 0 0 255
-0.164107 0.214216 0.015859 0 0 255
-0.049048 0.276470 0.084881 0 0 255
-0.192211 0.189384 0.175858 0 0 255
-0.204676 0.192824 0.103859 0 0 255
0.033435 0.302988 -0.018142 0 0 255
0.022606 0.270578 -0.056141 0 0 255
0.032340 0.311550 0.093858 0 0 255
-0.002880 0.331863 -0.055080 0 0 255
-0.008941 0.288948 0.219859 0 0 255
0.059972 0.316848 -0.002141 0 0 255
0.067374 0.341155 0.201859 0 0 255
-0.001010 0.339631 0.251859 0 0 255
-0.245880 0.170191 0.073858 0 0 255
0.116743 0.357576 0.029859 0 0 255
0.029415 0.300296 0.007859 0 0 255
-0.179531 0.206531 0.123859 0 0 255
-0.198256 0.195706 0.161858 0 0 255
-0.033285 0.265502 0.005858 0 0 255
-0.015820 0.294656 0.073858 0 0 255
-0.170777 0.201528 0.041858 0 0 255
-0.026761 0.278685 0.071859 0 0 255
0.144708 0.382877 0.213858 0 0 255
0.147399 0.373793 0.179859 0 0 255
0.007555 0.289593 -0.026141 0 0 255
0.128441 0.360333 0.020292 0 0 255
0.172906 0.421480 0.253501 0 0 255
-0.162782 0.195663 0.245858 0 0 255
-0.143645 0.215560 0.131859 0 0 255
0.027020 0.308383 0.149859 0 0 255
-0.210192 0.179667 0.055858 0 0 255
0.169051 0.386964 0.031859 0 0 255
0.135417 0.407204 0.249858 0 0 255
0.110560 0.364365 0.129858 0 0 255
-0.043085 0.270420 0.169859 0 0 255
0.187406 0.386611 -0.006141 0 0 255
-0.039318 0.236577 -0.056141 0 0 255
0.016159 0.302797 0.059859 0 0 255
0.144991 0.381923 0.066904 0 0 255
-0.223947 0.162729 0.069858 0 0 255
-0.020851 0.280651 0.253859 0 0 255
-0.189047 0.189111 0.003859 0 0 255
-0.017267 0.274801 0.247859 0 0 255
0.147465 0.366529 0.227858 0 0 255
0.048484 0.320424 0.215859 0 0 255
-0.049048 0.276470 0.070899 0 0 255
0.095000 0.346478 0.045859 0 0 255
-0.170015 0.191914 -0.006141 0 0 255
-0.116381 0.250268 0.248930 0 0 255
-0.080747 0.249685 0.123859 0 0 255
-0.107468 0.271681 0.253859 0 0 255
-0.001744 0.292816 0.101858 0 0 255
0.170134 0.395629 0.118811 0 0 255
-0.189644 0.180718 0.003859 0 0 255
-0.094141 0.242254 -0.002141 0 0 255
0.065514 0.333350 0.014913 0 0 255
0.165658 0.375529 0.254273 0 0 255
-0.214712 0.166762 0.247859 0 0 255
0.147272 0.374221 0.153858 0 0 255
-0.056590 0.213745 -0.058141 0 0 255
0.034494 0.322075 0.067859 0 0 255
0.005346 0.297048 0.117859 0 0 255
-0.185080 0.193479 0.091859 0 0 255
-0.102433 0.238389 0.095859 0 0 255
0.210701 0.406553 0.019858 0 0 255
-0.241832 0.165132 0.135859 0 0 255
0.035113 0.224728 -0.056141 0 0 255
-0.017327 0.275009 -0.010141 0 0 255
-0.000045 0.265955 -0.049516 0 0 255
0.098809 0.347700 0.173859 0 0 255
-0.069853 0.248118 0.227858 0 0 255
0.009783 0.289114 0.245858 0 0 255
0.194761 0.389950 0.033858 0 0 255
0.183473 0.393322 0.053859 0 0 255
-0.116167 0.256588 -0.051316 0 0 255
-0.201139 0.184313 0.165859 0 0 255
0.040870 0.353167 0.248860 0 0 255
-0.071959 0.255082 0.079858 0 0 255
-0.254208 0.188582 0.207859 0 0 255
-0.243407 0.166751 0.161858 0 0 255
-0.043979 0.259354 -0.008142 0 0 255
0.134902 0.391450 0.253859 0 0 255
0.161659 0.381988 0.105859 0 0 255
0.038405 0.305155 -0.000142 0 0 255
-0.186910 0.192616 0.125858 0 0 255
-0.240793 0.173783 -0.020141 0 0 255
0.087151 0.330723 0.013858 0 0 255
0.086050 0.341482 0.085859 0 0 255
0.120298 0.359656 0.191859 0 0 255
0.174068 0.389392 0.091859 0 0 255
0.032703 0.302771 0.013858 0 0 255
0.045342 0.316945 -0.057136 0 0 255
-0.193336 0.179101 -0.016141 0 0 255
-0.095621 0.236522 -0.062141 0 0 255
0.179509 0.392148 0.253475 0 0 255
-0.079968 0.240011 -0.006141 0 0 255
0.008843 0.299328 0.093858 0 0 255
0.003936 0.308852 0.248949 0 0 255
0.112175 0.344831 0.241858 0 0 255
-0.257363 0.198077 0.142783 0 0 255
0.170207 0.388341 0.243859 0 0 255
0.144564 0.369281 0.254152 0 0 255
-0.090112 0.245533 0.191859 0 0 255
-0.090878 0.234593 0.245858 0 0 255
-0.026887 0.279113 0.183859 0 0 255
0.043820 0.307999 0.247859 0 0 255
-0.041238 0.264183 0.253223 0 0 255
-0.120292 0.228265 0.045859 0 0 255
0.088726 0.332449 0.233859 0 0 255
-0.243942 0.168678 0.203858 0 0 255
-0.175977 0.197957 0.149859 0 0 255
0.095113 0.346092 0.075859 0 0 255
-0.052120 0.265714 0.181858 0 0 255
0.027742 0.298903 0.235859 0 0 255
-0.062686 0.266173 0.248944 0 0 255
0.037672 0.314673 -0.049304 0 0 255
-0.043296 0.271134 0.087858 0 0 255
0.129354 0.364296 0.145859 0 0 255
-0.098906 0.240572 0.189858 0 0 255
0.041794 0.343010 -0.049262 0 0 255
0.060095 0.316434 -0.014141 0 0 255
-0.054032 0.265124 0.027858 0 0 255
-0.069997 0.255645 0.059859 0 0 255
0.026541 0.309291 0.141859 0 0 255
-0.132847 0.221356 0.229859 0 0 255
0.088353 0.347793 0.253859 0 0 255
-0.015524 0.304129 -0.044141 0 0 255
-0.140154 0.217856 0.137859 0 0 255
0.027878 0.298443 0.251859 0 0 255
0.026796 0.309141 0.161858 0 0 255
-0.017936 0.284105 0.219859 0 0 255
-0.013440 0.275965 -0.000142 0 0 255
-0.245884 0.172275 -0.026141 0 0 255
-0.020709 0.201920 -0.056141 0 0 255
-0.179545 0.195919 0.171858 0 0 255
0.077517 0.335076 0.219859 0 0 255
-0.116765 0.230440 0.203858 0 0 255
0.147310 0.374095 0.083858 0 0 255
0.052969 0.312322 -0.018142 0 0 255
0.066578 0.329760 0.219859 0 0 255
-0.053229 0.255375 -0.012141 0 0 255
0.193047 0.388695 0.045859 0 0 255
0.184255 0.391468 0.177859 0 0 255
-0.145124 0.213510 0.013858 0 0 255
-0.136465 0.219490 0.149859 0 0 255
-0.010949 0.288683 0.127859 0 0 255
-0.043164 0.270686 0.127859 0 0 255
0.204115 0.393582 0.229859 0 0 255
0.040581 0.269645 -0.050102 0 0 255
-0.043046 0.270287 0.119859 0 0 255
0.101168 0.339739 0.229824 0 0 255
-0.233422 0.166547 0.083858 0 0 255
-0.122141 0.227468 0.085859 0 0 255
0.202060 0.393477 0.129858 0 0 255
0.063181 0.320144 -0.050142 0 0 255
-0.197691 0.186759 0.051858 0 0 255
-0.103536 0.228034 -0.010141 0 0 255
-0.130459 0.213296 -0.000142 0 0 255
-0.090028 0.281019 0.249034 0 0 255
-0.005623 0.291419 0.179859 0 0 255
-0.154703 0.210639 0.099859 0 0 255
-0.095263 0.242355 0.177859 0 0 255
-0.006118 0.272499 -0.050142 0 0 255
-0.004444 0.323057 0.248955 0 0 255
-0.218353 0.164971 0.039859 0 0 255
-0.007593 0.203228 -0.056141 0 0 255
0.174952 0.379363 0.231858 0 0 255
-0.183236 0.194294 0.161858 0 0 255
-0.035538 0.273110 -0.024141 0 0 255
-0.200580 0.175384 -0.004142 0 0 255
0.061161 0.326918 0.021859 0 0 255
0.054786 0.278025 -0.049569 0 0 255
-0.147166 0.213363 0.073858 0 0 255
0.174182 0.389004 0.109859 0 0 255
0.023371 0.306618 0.155859 0 0 255
0.148769 0.369169 -0.008142 0 0 255
0.191050 0.388394 -0.028141 0 0 255
0.203599 0.395324 0.063859 0 0 255
-0.246518 0.172087 -0.012141 0 0 255
0.098704 0.348057 0.051858 0 0 255
0.071721 0.333521 0.027858 0 0 255
0.064718 0.321953 0.225859 0 0 255
0.157065 0.383413 0.224458 0 0 255
-0.217947 0.184722 0.134835 0 0 255
-0.026989 0.279455 0.059859 0 0 255
-0.015881 0.284209 0.020034 0 0 255
-0.170462 0.193419 0.009858 0 0 255
-0.004589 0.281296 -0.049877 0 0 255
-0.041442 0.271914 0.041858 0 0 255
0.135851 0.356443 -0.024141 0 0 255
-0.045072 0.263046 -0.049897 0 0 255
-0.149334 0.248849 0.253509 0 0 255
0.098940 0.347257 0.039859 0 0 255
-0.047136 0.220717 -0.049900 0 0 255
-0.030872 0.215106 -0.049830 0 0 255
0.202173 0.393094 0.193859 0 0 255
-0.062302 0.250794 0.003859 0 0 255
-0.067303 0.260634 0.253250 0 0 255
