ply
format ascii 1.0
element vertex 1313
property float x
property float y
property float z
property uchar red
property uchar green
property uchar blue
end_header
0.051849 0.333126 0.000328 255 0 0
-0.015449 0.325324 0.149454 255 0 0
0.064163 0.244108 -0.070546 255 0 0
0.094287 0.347925 0.096772 255 0 0
0.005947 0.395193 -0.040546 255 0 0
0.089583 0.382332 0.113454 255 0 0
0.004665 0.392681 -0.060546 255 0 0
0.025167 0.356905 0.111454 255 0 0
0.028341 0.344158 0.241454 255 0 0
0.044840 0.382145 0.196386 255 0 0
0.096420 0.366671 0.052877 255 0 0
0.057229 0.391295 -0.008546 255 0 0
-0.018284 0.345467 -0.094546 255 0 0
0.080977 0.324766 0.119455 255 0 0
-0.014632 0.368422 0.129454 255 0 0
0.058251 0.389367 0.191844 255 0 0
0.068327 0.357055 0.103454 255 0 0
-0.002323 0.381327 -0.016546 255 0 0
0.106595 0.337696 0.073454 255 0 0
0.036766 0.365568 0.227518 255 0 0
0.067570 0.364066 -0.028546 255 0 0
-0.031785 0.337220 0.077454 255 0 0
-0.011731 0.373477 0.201455 255 0 0
-0.019454 0.343843 -0.058546 255 0 0
0.030539 0.357742 0.192475 255 0 0
0.024030 0.339920 0.161454 255 0 0
0.038455 0.364224 0.207454 255 0 0
-0.000893 0.375078 -0.036546 255 0 0
0.044213 0.418421 0.147455 255 0 0
0.028032 0.352071 0.171454 255 0 0
0.036839 0.349596 0.103454 255 0 0
0.084948 0.357908 -0.038546 255 0 0
-0.003510 0.305296 0.161454 255 0 0
0.100151 0.358510 0.107454 255 0 0
-0.010503 0.362277 -0.044546 255 0 0
0.007298 0.355786 0.141454 255 0 0
-0.013005 0.346380 -0.080546 255 0 0
0.071686 0.377343 -0.014546 255 0 0
0.008735 0.336754 -0.011524 255 0 0
0.052567 0.347888 0.131454 255 0 0
-0.014914 0.347898 -0.012546 255 0 0
-0.002472 0.435113 0.214072 255 0 0
0.057967 0.379370 0.160489 255 0 0
-0.007167 0.326402 0.164621 255 0 0
-0.006451 0.387165 0.213454 255 0 0
0.096495 0.371724 0.153454 255 0 0
0.013429 0.402020 -0.026546 255 0 0
0.010548 0.358311 0.207350 255 0 0
0.030641 0.364295 0.235454 255 0 0
0.013556 0.409585 -0.008546 255 0 0
0.002598 0.341634 0.109455 255 0 0
0.085143 0.378197 0.161987 255 0 0
0.011847 0.404923 0.083454 255 0 0
0.026106 0.329679 -0.026546 255 0 0
-0.005317 0.335153 -0.027528 255 0 0
0.023669 0.347874 0.059454 255 0 0
0.108729 0.375719 0.071455 255 0 0
0.003099 0.379570 -0.070546 255 0 0
0.056224 0.332201 0.128520 255 0 0
0.057523 0.354168 0.155455 255 0 0
0.037477 0.334335 -0.029440 255 0 0
0.035039 0.398739 0.077454 255 0 0
-0.016234 0.351503 0.143454 255 0 0
0.007882 0.380876 0.141454 255 0 0
0.057718 0.356569 0.216540 255 0 0
-0.035128 0.384421 0.193081 255 0 0
0.094927 0.342304 0.126815 255 0 0
0.080484 0.369126 0.130520 255 0 0
0.009938 0.354331 0.251454 255 0 0
0.055045 0.337146 0.047454 255 0 0
0.049502 0.360548 -0.008546 255 0 0
0.078798 0.373432 0.123454 255 0 0
0.021259 0.331902 -0.016546 255 0 0
-0.011649 0.365745 0.201599 255 0 0
-0.020209 0.334220 -0.032546 255 0 0
-0.024776 0.368520 0.116947 255 0 0
0.083908 0.345958 0.113454 255 0 0
0.069126 0.339827 0.123454 255 0 0
0.073903 0.376917 -0.052078 255 0 0
0.040965 0.399763 0.075454 255 0 0
0.059995 0.324090 -0.024705 255 0 0
0.005974 0.392616 0.207454 255 0 0
-0.023708 0.321670 -0.049460 255 0 0
0.011046 0.403915 0.232126 255 0 0
0.055762 0.366961 -0.008546 255 0 0
0.003434 0.410409 0.235454 255 0 0
0.028881 0.301040 0.091455 255 0 0
0.019362 0.348745 0.089454 255 0 0
0.083970 0.351019 -0.000788 255 0 0
0.031265 0.307250 0.113454 255 0 0
0.063417 0.411926 0.133454 255 0 0
0.099842 0.346061 0.111454 255 0 0
0.038741 0.404886 0.073454 255 0 0
0.053013 0.369931 0.131454 255 0 0
0.071840 0.332557 0.116540 255 0 0
-0.024213 0.375653 0.115454 255 0 0
0.061382 0.386876 0.072430 255 0 0
0.109298 0.341095 0.068097 255 0 0
0.102479 0.371075 0.091455 255 0 0
0.067762 0.348579 -0.006546 255 0 0
0.021866 0.390197 0.113454 255 0 0
-0.003858 0.326326 0.105454 255 0 0
0.044254 0.268962 -0.074546 255 0 0
0.031249 0.365059 0.181454 255 0 0
-0.007194 0.319942 0.091455 255 0 0
0.091491 0.315496 0.077454 255 0 0
-0.013071 0.315766 0.084002 255 0 0
-0.014563 0.346020 0.135454 255 0 0
0.079371 0.313109 0.081455 255 0 0
0.068995 0.345043 -0.017451 255 0 0
0.036125 0.371188 0.186782 255 0 0
0.077069 0.361620 0.104118 255 0 0
-0.000554 0.427886 0.189454 255 0 0
0.051943 0.363718 0.117454 255 0 0
-0.002254 0.335271 0.191454 255 0 0
0.024767 0.375111 0.189454 255 0 0
0.102519 0.366933 0.049454 255 0 0
0.027268 0.299011 0.112500 255 0 0
0.072838 0.367541 0.161454 255 0 0
0.002340 0.360843 0.141454 255 0 0
0.004537 0.273648 -0.071473 255 0 0
0.084589 0.364650 -0.094546 255 0 0
0.073389 0.338991 -0.026546 255 0 0
0.038936 0.371509 0.196693 255 0 0
0.020239 0.376158 0.141454 255 0 0
0.013569 0.409575 -0.024546 255 0 0
0.030672 0.355081 0.175454 255 0 0
0.084442 0.358310 0.123454 255 0 0
0.127440 0.331775 0.131902 255 0 0
0.005450 0.349588 0.117454 255 0 0
-0.007544 0.322715 -0.018546 255 0 0
0.008983 0.401321 -0.062546 255 0 0
0.070625 0.249190 -0.072546 255 0 0
0.039007 0.345896 0.280211 255 0 0
0.022216 0.318363 0.174443 255 0 0
0.011014 0.352829 0.131454 255 0 0
-0.007530 0.354802 0.119455 255 0 0
0.058965 0.351712 -0.032546 255 0 0
0.031912 0.389872 0.147455 255 0 0
0.041450 0.355394 0.095454 255 0 0
0.058644 0.248498 -0.071451 255 0 0
0.043738 0.329355 -0.002075 255 0 0
0.032987 0.302129 0.081455 255 0 0
0.016769 0.346855 0.237454 255 0 0
0.002230 0.387927 -0.028546 255 0 0
0.085644 0.367577 -0.034546 255 0 0
0.003107 0.316830 -0.084546 255 0 0
0.052642 0.296716 -0.056546 255 0 0
0.089401 0.308366 0.067454 255 0 0
0.050302 0.339467 0.127455 255 0 0
0.044561 0.388220 0.083454 255 0 0
0.071625 0.381284 0.155455 255 0 0
0.051817 0.330596 0.101454 255 0 0
0.009310 0.398521 0.123454 255 0 0
0.015636 0.326153 0.214548 255 0 0
-0.015727 0.370258 0.115454 255 0 0
0.054472 0.336424 -0.014546 255 0 0
0.002785 0.390041 -0.090546 255 0 0
-0.009738 0.355298 -0.088546 255 0 0
0.044563 0.344032 0.275455 255 0 0
0.001298 0.314555 0.229455 255 0 0
0.050923 0.328751 0.142339 255 0 0
0.052367 0.335270 0.113454 255 0 0
0.016489 0.356141 0.104466 255 0 0
-0.001761 0.384602 0.137455 255 0 0
0.088879 0.382892 0.094162 255 0 0
0.093907 0.334597 0.099455 255 0 0
-0.000001 0.319347 -0.048546 255 0 0
0.066683 0.385214 0.145454 255 0 0
0.000007 0.319356 -0.038546 255 0 0
-0.030811 0.389847 0.191454 255 0 0
0.030504 0.370548 0.254465 255 0 0
0.015141 0.352102 0.161454 255 0 0
0.019688 0.315263 -0.002546 255 0 0
0.018169 0.349694 0.193455 255 0 0
-0.002825 0.368948 -0.072546 255 0 0
0.048294 0.344722 0.169454 255 0 0
0.002496 0.397938 0.133454 255 0 0
0.046829 0.346092 0.089454 255 0 0
0.042813 0.324980 0.147427 255 0 0
0.026200 0.345861 0.078450 255 0 0
-0.010899 0.377926 0.191454 255 0 0
0.067431 0.389731 0.049454 255 0 0
0.026110 0.348960 0.005454 255 0 0
0.015244 0.354576 0.202856 255 0 0
-0.029214 0.333716 -0.016546 255 0 0
0.039788 0.401496 0.178450 255 0 0
-0.012016 0.312370 0.071455 255 0 0
-0.025895 0.322134 0.187454 255 0 0
0.012711 0.361702 0.181454 255 0 0
0.045160 0.379335 0.204467 255 0 0
0.027717 0.328491 0.137455 255 0 0
0.041853 0.333411 0.204232 255 0 0
0.037858 0.312325 0.127455 255 0 0
0.012113 0.357066 0.114413 255 0 0
-0.025244 0.335670 0.085454 255 0 0
0.074863 0.368486 0.172437 255 0 0
-0.007145 0.355345 0.173455 255 0 0
0.091204 0.370821 0.067454 255 0 0
0.005995 0.310821 -0.095265 255 0 0
-0.016523 0.321067 -0.095428 255 0 0
0.045588 0.338105 0.169819 255 0 0
0.008423 0.400618 -0.086546 255 0 0
0.006529 0.343620 0.184925 255 0 0
0.021528 0.339355 0.247455 255 0 0
0.010228 0.361121 0.154553 255 0 0
0.105986 0.346569 0.091455 255 0 0
0.049696 0.375399 0.163454 255 0 0
0.164861 0.465564 -0.039201 0 255 0
0.207620 0.477553 -0.103455 0 255 0
0.210917 0.491337 -0.004546 0 255 0
0.213056 0.474748 -0.052546 0 255 0
0.173643 0.496914 -0.074546 0 255 0
0.167269 0.489206 -0.002546 0 255 0
0.182306 0.455367 -0.076546 0 255 0
0.186858 0.502855 -0.036546 0 255 0
0.190109 0.458751 -0.000546 0 255 0
0.171411 0.477011 -0.104546 0 255 0
0.194815 0.458242 -0.032546 0 255 0
0.188058 0.505891 -0.006546 0 255 0
0.207650 0.467307 -0.078546 0 255 0
0.163765 0.474103 -0.064546 0 255 0
0.204170 0.482853 -0.028644 0 255 0
0.165604 0.490530 -0.044546 0 255 0
0.179645 0.479361 -0.022546 0 255 0
0.188504 0.459537 -0.100546 0 255 0
0.197913 0.454607 -0.056546 0 255 0
0.206962 0.489577 -0.072546 0 255 0
0.171109 0.466993 -0.006546 0 255 0
0.175095 0.455940 -0.056546 0 255 0
0.169154 0.469817 -0.084546 0 255 0
0.197365 0.475488 -0.010546 0 255 0
0.205941 0.497932 -0.042546 0 255 0
0.176887 0.503172 -0.052546 0 255 0
0.178990 0.497771 -0.020546 0 255 0
0.196947 0.496264 -0.019492 0 255 0
0.178764 0.454128 -0.038546 0 255 0
0.209848 0.468114 -0.036546 0 255 0
0.204170 0.482853 -0.087647 0 255 0
0.171488 0.488405 -0.060546 0 255 0
0.187664 0.465315 -0.018886 0 255 0
0.192628 0.465131 -0.084546 0 255 0
0.184214 0.470616 -0.035515 0 255 0
0.206968 0.489585 -0.056546 0 255 0
0.202205 0.469082 -0.062546 0 255 0
0.166584 0.480581 -0.032546 0 255 0
0.179895 0.489384 -0.034546 0 255 0
0.198046 0.457057 -0.072546 0 255 0
0.169141 0.483797 -0.090546 0 255 0
0.196498 0.494067 -0.000546 0 255 0
0.187330 0.461683 -0.048546 0 255 0
0.176710 0.467609 -0.068546 0 255 0
0.204652 0.467136 -0.000546 0 255 0
0.180621 0.470918 -0.094546 0 255 0
0.212692 0.483929 -0.040546 0 255 0
0.162335 0.475241 -0.050028 0 255 0
0.201463 0.464561 -0.096546 0 255 0
0.182097 0.492744 -0.006546 0 255 0
0.200947 0.467527 -0.048546 0 255 0
0.199948 0.488767 -0.100546 0 255 0
0.166673 0.480693 -0.076546 0 255 0
0.199247 0.470238 -0.026546 0 255 0
0.170136 0.488260 -0.016546 0 255 0
0.187360 0.461721 -0.062546 0 255 0
0.211675 0.479439 -0.065359 0 255 0
0.181693 0.473872 -0.010546 0 255 0
0.196364 0.494174 -0.032546 0 255 0
0.173859 0.467237 -0.048546 0 255 0
0.209532 0.478588 -0.004546 0 255 0
0.174080 0.499643 -0.040546 0 255 0
0.171637 0.499784 -0.008546 0 255 0
0.202327 0.456207 -0.042546 0 255 0
0.181666 0.459864 -0.088546 0 255 0
0.172972 0.469335 -0.029928 0 255 0
0.171739 0.464571 -0.100546 0 255 0
0.202284 0.486909 -0.013288 0 255 0
0.199730 0.502974 -0.008546 0 255 0
0.169202 0.477446 -0.000399 0 255 0
0.164587 0.465220 -0.056546 0 255 0
0.189501 0.451561 -0.042546 0 255 0
0.197019 0.470652 -0.105512 0 255 0
0.195145 0.481146 -0.020546 0 255 0
0.195774 0.469087 -0.037486 0 255 0
0.183928 0.460620 -0.029821 0 255 0
0.166107 0.467130 -0.073838 0 255 0
0.182969 0.469051 -0.105538 0 255 0
0.209451 0.478652 -0.078546 0 255 0
0.179533 0.467945 -0.080546 0 255 0
0.187385 0.491094 -0.016546 0 255 0
0.187324 0.452037 -0.054546 0 255 0
0.209316 0.463621 -0.054546 0 255 0
0.179554 0.461545 -0.001833 0 255 0
0.200323 0.473135 -0.084546 0 255 0
0.194124 0.465289 -0.008546 0 255 0
0.188732 0.474689 -0.026546 0 255 0
0.163309 0.484688 -0.066546 0 255 0
0.204043 0.477842 -0.038546 0 255 0
0.163016 0.485735 -0.054546 0 255 0
0.170446 0.479011 -0.011326 0 255 0
0.199696 0.478745 -0.096546 0 255 0
0.170429 0.473914 -0.094546 0 255 0
0.190988 0.467782 -0.094546 0 255 0
0.171094 0.457336 -0.046546 0 255 0
0.177992 0.469220 -0.020546 0 255 0
0.169522 0.474636 -0.041502 0 255 0
0.168635 0.490673 -0.034546 0 255 0
0.190020 0.463441 -0.074546 0 255 0
0.179326 0.454834 -0.066546 0 255 0
0.177632 0.478406 -0.033487 0 255 0
0.173555 0.470068 -0.058546 0 255 0
0.172792 0.459257 -0.074546 0 255 0
0.204491 0.489684 -0.036546 0 255 0
0.174724 0.497240 -0.064546 0 255 0
0.210740 0.469960 -0.068546 0 255 0
0.169742 0.494905 -0.052546 0 255 0
0.169315 0.461525 -0.064546 0 255 0
0.203849 0.485664 -0.000349 0 255 0
0.188952 0.454085 -0.068546 0 255 0
0.180691 0.501529 -0.011544 0 255 0
0.202320 0.463880 -0.086546 0 255 0
0.198905 0.466597 -0.071518 0 255 0
0.212866 0.484148 -0.050546 0 255 0
0.203025 0.458207 -0.064546 0 255 0
0.190014 0.500399 -0.014546 0 255 0
0.169048 0.485235 -0.100546 0 255 0
0.202527 0.463716 -0.032546 0 255 0
0.175378 0.495532 -0.000546 0 255 0
0.196059 0.479082 -0.031531 0 255 0
0.209442 0.463326 -0.044546 0 255 0
0.179291 0.486917 -0.014546 0 255 0
0.192150 0.456636 -0.080546 0 255 0
0.206695 0.473178 -0.091315 0 255 0
0.175747 0.476036 -0.086546 0 255 0
0.180330 0.452884 -0.048546 0 255 0
0.174552 0.485968 -0.026546 0 255 0
0.173932 0.460905 -0.033603 0 255 0
0.162421 0.482839 -0.040546 0 255 0
0.206125 0.496630 -0.010546 0 255 0
0.173075 0.474365 -0.074546 0 255 0
0.180799 0.463110 -0.055549 0 255 0
0.182043 0.464676 -0.010349 0 255 0
0.176643 0.480376 -0.096546 0 255 0
0.185707 0.494984 -0.030245 0 255 0
0.193127 0.491460 -0.008546 0 255 0
0.168661 0.489618 -0.072546 0 255 0
0.196253 0.468707 -0.016546 0 255 0
0.174461 0.464782 -0.090546 0 255 0
0.188197 0.498114 -0.002124 0 255 0
0.192039 0.464391 -0.026634 0 255 0
0.178234 0.466313 -0.040546 0 255 0
0.213504 0.475311 -0.042546 0 255 0
0.194409 0.462506 -0.054546 0 255 0
0.190417 0.459137 -0.090546 0 255 0
0.174351 0.486128 -0.006546 0 255 0
0.204428 0.474981 -0.072546 0 255 0
0.190015 0.463445 -0.040546 0 255 0
0.197065 0.488504 -0.024546 0 255 0
0.186703 0.473746 -0.017539 0 255 0
0.179554 0.461545 -0.098931 0 255 0
0.195772 0.462658 -0.064546 0 255 0
0.204676 0.472228 -0.054546 0 255 0
0.171784 0.485614 -0.040546 0 255 0
0.161616 0.474336 -0.038546 0 255 0
0.167090 0.478004 -0.084546 0 255 0
0.205130 0.474423 -0.030869 0 255 0
0.205438 0.461399 -0.072546 0 255 0
0.174453 0.461560 -0.082546 0 255 0
0.206967 0.489583 -0.044546 0 255 0
0.177104 0.497020 -0.032546 0 255 0
0.170262 0.486824 -0.050546 0 255 0
0.199506 0.460927 -0.002546 0 255 0
0.172987 0.475779 -0.018546 0 255 0
0.195910 0.453645 -0.048546 0 255 0
0.164210 0.477597 -0.100546 0 255 0
0.165920 0.463683 -0.048546 0 255 0
0.211822 0.471655 -0.060546 0 255 0
0.203532 0.457804 -0.050546 0 255 0
0.187379 0.455319 -0.035089 0 255 0
0.179126 0.502774 -0.003565 0 255 0
0.167331 0.475094 -0.056546 0 255 0
0.182930 0.462578 -0.070546 0 255 0
0.200755 0.475348 -0.017998 0 255 0
0.204222 0.472589 -0.006546 0 255 0
0.165431 0.485557 -0.009526 0 255 0
0.190474 0.465636 -0.105466 0 255 0
0.208109 0.479719 -0.056546 0 255 0
0.208532 0.464049 -0.062546 0 255 0
0.179746 0.503554 -0.044546 0 255 0
0.197019 0.470652 -0.003591 0 255 0
0.178727 0.474980 -0.102546 0 255 0
0.173540 0.476475 -0.026546 0 255 0
0.190269 0.499021 -0.022546 0 255 0
0.196023 0.461223 -0.046546 0 255 0
0.197622 0.471409 -0.092546 0 255 0
0.204421 0.486383 -0.094546 0 255 0
0.206695 0.473178 -0.045524 0 255 0
0.210111 0.480684 -0.034110 0 255 0
0.206555 0.470733 -0.098546 0 255 0
0.206001 0.485156 -0.080546 0 255 0
0.177066 0.471269 -0.004546 0 255 0
0.174466 0.493703 -0.081370 0 255 0
0.173521 0.495728 -0.014546 0 255 0
0.180152 0.462298 -0.046546 0 255 0
0.183886 0.466992 -0.088546 0 255 0
0.196649 0.460549 -0.100546 0 255 0
0.202568 0.496904 -0.003752 0 255 0
0.198765 0.487153 -0.032546 0 255 0
0.195193 0.454216 -0.064546 0 255 0
0.189170 0.470422 -0.010546 0 255 0
0.185730 0.462884 -0.080546 0 255 0
0.187664 0.465315 -0.002818 0 255 0
0.196977 0.465574 -0.078546 0 255 0
0.178588 0.463544 -0.062546 0 255 0
0.183864 0.479816 -0.028546 0 255 0
0.168846 0.493063 -0.009446 0 255 0
0.172382 0.492804 -0.042546 0 255 0
0.171893 0.472750 -0.066546 0 255 0
0.203205 0.481641 -0.006546 0 255 0
0.163932 0.480460 -0.004546 0 255 0
0.207481 0.485330 -0.064546 0 255 0
0.183066 0.453110 -0.060546 0 255 0
0.162713 0.480051 -0.060546 0 255 0
0.174790 0.471620 -0.036546 0 255 0
0.209156 0.482697 -0.072546 0 255 0
0.212194 0.468804 -0.048546 0 255 0
0.206241 0.460761 -0.038546 0 255 0
0.182661 0.465452 -0.024546 0 255 0
0.194616 0.490119 -0.016546 0 255 0
0.202292 0.469013 -0.040546 0 255 0
0.163394 0.470144 -0.044546 0 255 0
0.166299 0.473797 -0.078546 0 255 0
0.195526 0.500902 -0.002546 0 255 0
0.166395 0.472011 -0.004546 0 255 0
0.167600 0.491497 -0.065735 0 255 0
0.208197 0.491130 -0.014546 0 255 0
0.207555 0.475049 -0.084546 0 255 0
0.176640 0.480371 -0.014546 0 255 0
0.200434 0.478158 -0.103540 0 255 0
0.194771 0.454552 -0.038546 0 255 0
0.207596 0.483948 -0.100546 0 255 0
0.191881 0.472183 -0.032546 0 255 0
0.198245 0.459454 -0.082546 0 255 0
0.164422 0.477863 -0.070546 0 255 0
0.167514 0.473677 -0.032546 0 255 0
0.163566 0.481929 -0.048546 0 255 0
0.201061 0.477659 -0.024546 0 255 0
0.182576 0.497473 -0.037500 0 255 0
0.175490 0.491777 -0.020546 0 255 0
0.200675 0.488098 -0.006546 0 255 0
0.201927 0.496099 -0.036546 0 255 0
0.165682 0.467468 -0.064546 0 255 0
0.176236 0.470225 -0.012546 0 255 0
0.168086 0.496221 -0.038546 0 255 0
0.185814 0.456565 -0.084318 0 255 0
0.192252 0.499999 -0.033598 0 255 0
0.208108 0.479721 -0.046546 0 255 0
0.173112 0.499890 -0.058546 0 255 0
0.172184 0.469962 -0.104546 0 255 0
0.205130 0.474423 -0.000154 0 255 0
0.184662 0.460036 -0.094546 0 255 0
0.196735 0.460655 -0.089069 0 255 0
0.197868 0.482755 -0.010546 0 255 0
0.173890 0.489050 -0.000546 0 255 0
0.199693 0.465970 -0.056546 0 255 0
0.199758 0.496585 -0.013502 0 255 0
0.172812 0.477130 -0.080546 0 255 0
0.190075 0.453175 -0.060546 0 255 0
0.200150 0.468162 -0.009191 0 255 0
0.200232 0.457874 -0.036546 0 255 0
0.211071 0.472252 -0.074679 0 255 0
0.168525 0.495873 -0.003570 0 255 0
0.209745 0.489864 -0.050546 0 255 0
0.173547 0.466322 -0.000546 0 255 0
0.170489 0.459787 -0.052546 0 255 0
0.171998 0.498221 -0.046546 0 255 0
0.174787 0.490893 -0.030775 0 255 0
0.194437 0.475262 -0.016546 0 255 0
0.202030 0.470525 -0.078546 0 255 0
0.206221 0.483777 -0.040546 0 255 0
0.185117 0.468541 -0.098546 0 255 0
0.207620 0.477553 -0.096994 0 255 0
0.203402 0.470687 -0.104546 0 255 0
0.194808 0.471085 -0.098546 0 255 0
0.171150 0.478452 -0.036546 0 255 0
0.170253 0.459491 -0.040546 0 255 0
0.170052 0.463992 -0.078546 0 255 0
0.177668 0.465601 -0.103512 0 255 0
0.182594 0.494903 -0.000546 0 255 0
0.165756 0.490408 -0.058546 0 255 0
0.176274 0.484598 -0.020546 0 255 0
0.207067 0.488215 -0.008546 0 255 0
0.190299 0.455778 -0.074546 0 255 0
0.206022 0.473712 -0.066546 0 255 0
0.199510 0.473783 -0.035464 0 255 0
0.177819 0.469004 -0.086546 0 255 0
0.202631 0.461643 -0.078546 0 255 0
0.204383 0.459683 -0.058546 0 255 0
0.173586 0.457257 -0.062546 0 255 0
0.172320 0.474941 -0.006546 0 255 0
0.169191 0.471008 -0.050546 0 255 0
0.169518 0.495083 -0.060546 0 255 0
0.172284 0.468471 -0.042546 0 255 0
0.178281 0.466370 -0.074546 0 255 0
0.174182 0.483707 -0.033507 0 255 0
0.211889 0.474158 -0.036546 0 255 0
0.167681 0.472322 -0.100546 0 255 0
0.188316 0.462923 -0.008546 0 255 0
0.170802 0.479459 -0.098546 0 255 0
0.188892 0.460434 -0.056546 0 255 0
0.181894 0.467350 -0.004546 0 255 0
0.183609 0.463430 -0.041502 0 255 0
0.181347 0.476651 -0.016546 0 255 0
0.188803 0.461854 -0.068546 0 255 0
0.177886 0.465875 -0.028546 0 255 0
0.176676 0.480417 -0.104546 0 255 0
0.179948 0.458828 -0.082546 0 255 0
0.172151 0.468303 -0.074546 0 255 0
0.194994 0.482486 -0.026546 0 255 0
0.184418 0.499788 -0.018546 0 255 0
0.173775 0.458475 -0.068546 0 255 0
0.193788 0.505142 -0.008546 0 255 0
0.206802 0.467981 -0.084546 0 255 0
0.188329 0.452009 -0.048546 0 255 0
0.169098 0.464465 -0.034546 0 255 0
0.201359 0.482533 -0.035507 0 255 0
0.183609 0.463430 -0.103384 0 255 0
0.170770 0.483865 -0.000546 0 255 0
0.168901 0.461005 -0.058546 0 255 0
0.202689 0.477779 -0.090546 0 255 0
0.196884 0.465648 -0.042546 0 255 0
0.211390 0.469443 -0.054862 0 255 0
0.180193 0.453370 -0.054546 0 255 0
0.186483 0.491810 -0.010546 0 255 0
0.212436 0.468612 -0.042546 0 255 0
0.182328 0.474671 -0.031506 0 255 0
0.205975 0.473750 -0.060546 0 255 0
0.195679 0.501095 -0.012546 0 255 0
0.175477 0.466058 -0.054546 0 255 0
0.178041 0.493415 -0.038546 0 255 0
0.165688 0.485880 -0.036546 0 255 0
0.175674 0.475945 -0.092546 0 255 0
0.197660 0.465032 -0.029402 0 255 0
0.203394 0.468136 -0.090546 0 255 0
0.211861 0.482885 -0.060546 0 255 0
0.165559 0.477788 -0.044546 0 255 0
0.174217 0.470900 -0.081702 0 255 0
0.203208 0.491284 -0.002088 0 255 0
0.195170 0.461901 -0.094613 0 255 0
0.209469 0.486304 -0.035749 0 255 0
0.199921 0.483938 -0.018546 0 255 0
0.162733 0.478952 -0.054546 0 255 0
0.178229 0.456668 -0.072546 0 255 0
0.182805 0.452783 -0.042546 0 255 0
0.199387 0.466213 -0.102546 0 255 0
0.176316 0.454262 -0.044546 0 255 0
0.189526 0.467657 -0.036546 0 255 0
0.139183 0.131281 -0.056546 255 255 0
0.161922 0.084569 -0.094546 255 255 0
0.157751 0.103220 -0.006951 255 255 0
0.143059 0.084240 -0.048546 255 255 0
0.124861 0.111494 -0.096546 255 255 0
0.167021 0.127724 -0.090546 255 255 0
0.174494 0.111418 -0.046546 255 255 0
0.124233 0.109437 -0.034546 255 255 0
0.135034 0.087511 -0.078546 255 255 0
0.174636 0.101959 -0.074546 255 255 0
0.157359 0.131643 -0.034491 255 255 0
0.124952 0.110178 -0.066546 255 255 0
0.164973 0.089809 -0.034212 255 255 0
0.148680 0.107880 -0.041543 255 255 0
0.144755 0.123780 -0.012546 255 255 0
0.140498 0.129722 -0.081416 255 255 0
0.157878 0.084103 -0.068546 255 255 0
0.166431 0.126983 -0.065954 255 255 0
0.170923 0.105520 -0.096546 255 255 0
0.134822 0.129126 -0.034546 255 255 0
0.140303 0.103774 -0.020546 255 255 0
0.127009 0.097007 -0.050546 255 255 0
0.142638 0.092242 -0.096546 255 255 0
0.169379 0.093971 -0.054546 255 255 0
0.159921 0.109161 -0.026045 255 255 0
0.133419 0.091908 -0.033802 255 255 0
0.175478 0.128720 -0.040546 255 255 0
0.132875 0.115341 -0.050546 255 255 0
0.125665 0.101436 -0.082546 255 255 0
0.139625 0.093285 -0.062546 255 255 0
0.151425 0.090364 -0.082546 255 255 0
0.145825 0.117818 -0.028546 255 255 0
0.160913 0.118594 -0.012546 255 255 0
0.168391 0.116596 -0.078546 255 255 0
0.126473 0.121729 -0.078546 255 255 0
0.144208 0.140811 -0.040546 255 255 0
0.149997 0.083833 -0.034087 255 255 0
0.168985 0.110919 -0.062546 255 255 0
0.158458 0.084833 -0.048546 255 255 0
0.176911 0.098393 -0.038546 255 255 0
0.161771 0.117912 -0.039400 255 255 0
0.163300 0.129473 -0.049462 255 255 0
0.167273 0.090536 -0.080546 255 255 0
0.142739 0.110050 -0.007420 255 255 0
0.134991 0.121325 -0.066546 255 255 0
0.162126 0.102296 -0.041501 255 255 0
0.146759 0.124742 -0.041531 255 255 0
0.149254 0.098963 -0.030546 255 255 0
0.163260 0.098839 -0.066546 255 255 0
0.127449 0.096657 -0.068546 255 255 0
0.134949 0.103469 -0.041430 255 255 0
0.130639 0.098050 -0.094546 255 255 0
0.125351 0.121326 -0.040546 255 255 0
0.171162 0.110442 -0.033699 255 255 0
0.147702 0.083103 -0.060546 255 255 0
0.166813 0.104975 -0.084546 255 255 0
0.152938 0.100383 -0.018546 255 255 0
0.142288 0.131972 -0.068546 255 255 0
0.147470 0.093509 -0.041512 255 255 0
0.131765 0.112318 -0.084546 255 255 0
0.162008 0.097278 -0.094546 255 255 0
0.134914 0.116276 -0.033822 255 255 0
0.145123 0.084132 -0.072546 255 255 0
0.155490 0.092241 -0.058546 255 255 0
0.170442 0.121237 -0.054546 255 255 0
0.132525 0.105397 -0.058546 255 255 0
0.150433 0.135787 -0.078546 255 255 0
0.149739 0.083508 -0.092546 255 255 0
0.123860 0.108804 -0.046546 255 255 0
0.170974 0.116631 -0.092546 255 255 0
0.146767 0.099050 -0.008546 255 255 0
0.132688 0.128268 -0.046546 255 255 0
0.148816 0.112883 -0.018546 255 255 0
0.136355 0.097239 -0.084546 255 255 0
0.132396 0.106685 -0.074546 255 255 0
0.138039 0.094501 -0.048546 255 255 0
0.174050 0.100477 -0.062546 255 255 0
0.147661 0.135514 -0.050546 255 255 0
0.124029 0.099378 -0.040135 255 255 0
0.126903 0.120090 -0.058546 255 255 0
0.138435 0.085362 -0.088834 255 255 0
0.140427 0.106778 -0.032546 255 255 0
0.168308 0.105045 -0.052546 255 255 0
0.172343 0.096725 -0.088546 255 255 0
0.167012 0.090743 -0.044546 255 255 0
0.152095 0.115386 -0.007732 255 255 0
0.131733 0.089788 -0.056546 255 255 0
0.158324 0.092542 -0.074546 255 255 0
0.170002 0.121835 -0.034546 255 255 0
0.140654 0.084939 -0.038546 255 255 0
0.165859 0.089104 -0.064546 255 255 0
0.142099 0.115671 -0.041521 255 255 0
0.166363 0.133324 -0.040546 255 255 0
0.144553 0.131607 -0.033756 255 255 0
0.163051 0.106670 -0.014761 255 255 0
0.154692 0.115438 -0.032546 255 255 0
0.174838 0.111850 -0.072546 255 255 0
0.157467 0.093225 -0.041483 255 255 0
0.174440 0.111350 -0.084546 255 255 0
0.136481 0.095757 -0.072546 255 255 0
0.171568 0.120591 -0.044546 255 255 0
0.148385 0.091445 -0.066546 255 255 0
0.168067 0.100126 -0.034186 255 255 0
0.160787 0.095695 -0.050546 255 255 0
0.172891 0.119041 -0.066546 255 255 0
0.134544 0.126791 -0.074546 255 255 0
0.164497 0.100410 -0.076546 255 255 0
0.153122 0.137569 -0.040546 255 255 0
0.129805 0.092227 -0.042546 255 255 0
0.145553 0.091098 -0.054546 255 255 0
0.140232 0.132489 -0.042546 255 255 0
0.124312 0.109374 -0.056414 255 255 0
0.154246 0.090675 -0.096546 255 255 0
0.157751 0.103220 -0.032913 255 255 0
0.172183 0.098874 -0.046546 255 255 0
0.136949 0.086706 -0.068546 255 255 0
0.160751 0.095723 -0.084546 255 255 0
0.124048 0.109585 -0.078546 255 255 0
0.136752 0.114813 -0.012546 255 255 0
0.149472 0.107250 -0.026546 255 255 0
0.139766 0.112738 -0.022546 255 255 0
0.158993 0.084344 -0.038546 255 255 0
0.144036 0.092404 -0.076546 255 255 0
0.158718 0.085159 -0.080546 255 255 0
0.144928 0.083886 -0.082546 255 255 0
0.151134 0.123817 -0.033641 255 255 0
0.132393 0.106682 -0.092546 255 255 0
0.158000 0.126023 -0.041476 255 255 0
0.162697 0.086508 -0.056546 255 255 0
0.131014 0.091266 -0.088546 255 255 0
0.169405 0.093950 -0.072546 255 255 0
0.141530 0.095679 -0.033983 255 255 0
0.132698 0.116703 -0.074546 255 255 0
0.166022 0.124751 -0.074546 255 255 0
0.133747 0.119758 -0.042546 255 255 0
0.150851 0.083153 -0.044546 255 255 0
0.166654 0.106361 -0.070546 255 255 0
0.134552 0.124228 -0.054546 255 255 0
0.144020 0.092383 -0.086546 255 255 0
0.134309 0.102665 -0.050546 255 255 0
0.134323 0.102682 -0.066546 255 255 0
0.157754 0.109650 -0.040546 255 255 0
0.158294 0.113011 -0.018546 255 255 0
0.131562 0.113830 -0.062546 255 255 0
0.166786 0.111366 -0.041523 255 255 0
0.125923 0.100426 -0.060546 255 255 0
0.124551 0.114296 -0.088546 255 255 0
0.130894 0.101583 -0.034224 255 255 0
0.124792 0.103551 -0.072546 255 255 0
0.169881 0.121682 -0.085483 255 255 0
0.120640 0.114394 -0.040546 255 255 0
0.129832 0.093824 -0.080546 255 255 0
0.153936 0.117701 -0.024546 255 255 0
0.138738 0.085742 -0.058546 255 255 0
0.126162 0.118125 -0.068689 255 255 0
0.165518 0.089376 -0.088546 255 255 0
0.151429 0.090359 -0.048546 255 255 0
0.150245 0.106635 -0.007687 255 255 0
0.153412 0.091339 -0.033855 255 255 0
0.162375 0.125097 -0.034315 255 255 0
0.156686 0.093845 -0.066546 255 255 0
0.164475 0.100427 -0.058546 255 255 0
0.142455 0.100054 -0.041496 255 255 0
0.153696 0.101335 -0.041494 255 255 0
0.174124 0.113197 -0.056546 255 255 0
0.131923 0.110987 -0.042546 255 255 0
0.152430 0.119021 -0.040546 255 255 0
0.174897 0.115138 -0.039157 255 255 0
0.142703 0.122856 -0.034072 255 255 0
0.162731 0.109482 -0.034101 255 255 0
0.134262 0.128307 -0.062546 255 255 0
0.171838 0.092015 -0.037790 255 255 0
0.174424 0.102736 -0.082546 255 255 0
0.129897 0.122821 -0.033840 255 255 0
0.140372 0.103862 -0.012546 255 255 0
0.150821 0.083177 -0.052546 255 255 0
0.124367 0.106229 -0.090546 255 255 0
0.132243 0.133732 -0.040546 255 255 0
0.158777 0.110936 -0.008546 255 255 0
0.128314 0.121525 -0.048546 255 255 0
0.151863 0.082966 -0.076546 255 255 0
0.136049 0.087261 -0.044546 255 255 0
0.147503 0.111372 -0.034546 255 255 0
0.134903 0.096987 -0.056546 255 255 0
0.147043 0.134738 -0.085507 255 255 0
0.156680 0.083627 -0.060546 255 255 0
0.176226 0.107169 -0.066546 255 255 0
0.156274 0.083950 -0.088546 255 255 0
0.174366 0.105338 -0.040546 255 255 0
0.132727 0.103888 -0.084546 255 255 0
0.146611 0.099304 -0.022546 255 255 0
0.129997 0.090819 -0.096546 255 255 0
0.167736 0.109347 -0.090546 255 255 0
0.163947 0.088070 -0.072546 255 255 0
0.166141 0.123406 -0.096546 255 255 0
0.174613 0.105141 -0.056799 255 255 0
0.154302 0.121297 -0.014546 255 255 0
0.143344 0.117236 -0.009468 255 255 0
0.159956 0.096355 -0.034422 255 255 0
0.130278 0.091171 -0.064546 255 255 0
0.137394 0.125820 -0.040546 255 255 0
0.168708 0.094506 -0.095200 255 255 0
0.169354 0.108170 -0.078546 255 255 0
0.151423 0.090365 -0.074546 255 255 0
0.168242 0.117875 -0.060546 255 255 0
0.168359 0.105005 -0.044546 255 255 0
0.131737 0.089792 -0.072546 255 255 0
0.131499 0.108770 -0.034432 255 255 0
0.141494 0.108485 -0.041461 255 255 0
0.165186 0.125418 -0.041514 255 255 0
0.158324 0.092542 -0.090546 255 255 0
0.147364 0.131927 -0.041500 255 255 0
0.156630 0.101811 -0.024546 255 255 0
0.120056 0.107234 -0.040546 255 255 0
0.165772 0.113303 -0.012546 255 255 0
0.148021 0.107052 -0.014546 255 255 0
0.125189 0.095899 -0.090546 255 255 0
0.158604 0.133208 -0.041496 255 255 0
0.126110 0.115611 -0.052546 255 255 0
0.148397 0.091461 -0.092546 255 255 0
0.169277 0.114497 -0.051653 255 255 0
0.124953 0.103753 -0.051265 255 255 0
0.147105 0.119355 -0.020546 255 255 0
0.150767 0.083220 -0.068546 255 255 0
0.172323 0.096740 -0.078546 255 255 0
0.142404 0.115427 -0.016546 255 255 0
0.143874 0.134702 -0.076546 255 255 0
0.139952 0.129035 -0.048546 255 255 0
0.126158 0.115572 -0.044546 255 255 0
0.142099 0.115671 -0.034276 255 255 0
0.139341 0.135753 -0.036546 255 255 0
0.131213 0.126886 -0.068546 255 255 0
0.173474 0.103492 -0.090546 255 255 0
0.124917 0.116560 -0.035682 255 255 0
0.165777 0.101947 -0.090546 255 255 0
0.138076 0.094549 -0.090546 255 255 0
0.127069 0.104626 -0.096546 255 255 0
0.162545 0.130074 -0.070546 255 255 0
0.134604 0.099823 -0.078546 255 255 0
0.143555 0.085373 -0.094546 255 255 0
0.171446 0.120438 -0.073000 255 255 0
0.127608 0.094240 -0.036546 255 255 0
0.131940 0.110974 -0.068546 255 255 0
0.147753 0.136729 -0.036546 255 255 0
0.156960 0.103850 -0.014546 255 255 0
0.136261 0.087092 -0.052546 255 255 0
0.143736 0.088813 -0.034166 255 255 0
0.137425 0.088722 -0.094546 255 255 0
0.143385 0.101223 -0.028546 255 255 0
0.125913 0.095323 -0.074809 255 255 0
0.142586 0.084155 -0.064546 255 255 0
0.134905 0.096989 -0.042546 255 255 0
0.164706 0.131240 -0.034546 255 255 0
0.126338 0.108708 -0.084546 255 255 0
0.141081 0.093479 -0.042546 255 255 0
0.124245 0.114539 -0.060546 255 255 0
0.175501 0.122323 -0.039576 255 255 0
0.152899 0.099413 -0.010546 255 255 0
0.168688 0.113757 -0.072546 255 255 0
0.130522 0.127434 -0.040546 255 255 0
0.173972 0.110761 -0.090901 255 255 0
0.126176 0.115558 -0.074546 255 255 0
0.136283 0.122852 -0.048546 255 255 0
0.163727 0.088244 -0.050482 255 255 0
0.173836 0.103204 -0.034546 255 255 0
0.167996 0.125738 -0.047265 255 255 0
0.125913 0.095323 -0.056595 255 255 0
0.132023 0.090152 -0.048546 255 255 0
0.160206 0.119157 -0.033356 255 255 0
0.153304 0.129757 -0.039367 255 255 0
0.143555 0.133564 -0.060546 255 255 0
0.170734 0.095448 -0.064546 255 255 0
0.157963 0.106700 -0.020546 255 255 0
0.167712 0.115742 -0.033876 255 255 0
0.167030 0.103507 -0.064546 255 255 0
0.145089 0.100152 -0.014546 255 255 0
0.163407 0.091055 -0.095238 255 255 0
0.144008 0.092368 -0.048546 255 255 0
0.160767 0.095710 -0.060546 255 255 0
0.136478 0.095753 -0.096546 255 255 0
0.133721 0.119779 -0.060546 255 255 0
0.141169 0.092012 -0.068546 255 255 0
0.138079 0.100979 -0.033995 255 255 0
0.164514 0.100397 -0.048546 255 255 0
0.139627 0.093285 -0.054546 255 255 0
0.138069 0.094541 -0.078546 255 255 0
0.168834 0.112293 -0.096546 255 255 0
0.172279 0.099331 -0.056546 255 255 0
0.139905 0.109699 -0.016546 255 255 0
0.152415 0.112576 -0.013446 255 255 0
0.174151 0.105509 -0.048546 255 255 0
0.132213 0.108201 -0.052546 255 255 0
0.149953 0.090204 -0.060546 255 255 0
0.169944 0.115336 -0.086546 255 255 0
0.136122 0.130647 -0.068878 255 255 0
0.139480 0.130532 -0.074546 255 255 0
0.169538 0.127676 -0.036546 255 255 0
0.174270 0.113081 -0.078546 255 255 0
0.134459 0.101303 -0.090546 255 255 0
0.125785 0.114438 -0.082546 255 255 0
0.140405 0.111906 -0.028546 255 255 0
0.173056 0.098713 -0.094546 255 255 0
0.135162 0.087672 -0.038546 255 255 0
0.129929 0.125352 -0.058546 255 255 0
0.134902 0.096985 -0.064546 255 255 0
0.595579 0.245622 -0.092517 255 0 0
0.605716 0.306560 -0.025547 255 0 0
0.650652 0.255483 -0.048546 255 0 0
0.592529 0.248215 -0.030546 255 0 0
0.596631 0.304776 -0.084546 255 0 0
0.569223 0.273532 -0.062546 255 0 0
0.629983 0.274479 -0.086546 255 0 0
0.572766 0.284412 -0.024546 255 0 0
0.623930 0.271627 -0.024308 255 0 0
0.575909 0.276603 -0.102546 255 0 0
0.615262 0.247855 -0.060546 255 0 0
0.626078 0.283965 -0.054546 255 0 0
0.586686 0.298697 -0.050875 255 0 0
0.584662 0.246639 -0.062546 255 0 0
0.646164 0.251386 -0.077341 255 0 0
0.599889 0.276744 -0.038546 255 0 0
0.616269 0.258783 -0.102546 255 0 0
0.572444 0.258305 -0.084546 255 0 0
0.575372 0.290900 -0.080546 255 0 0
0.576309 0.263507 -0.040546 255 0 0
0.615110 0.253087 -0.036546 255 0 0
0.624141 0.294381 -0.032546 255 0 0
0.616816 0.246619 -0.083127 255 0 0
0.629087 0.264970 -0.066546 255 0 0
0.631757 0.265402 -0.043681 255 0 0
0.585616 0.302104 -0.030546 255 0 0
0.586579 0.293670 -0.098546 255 0 0
0.594910 0.257632 -0.048546 255 0 0
0.588796 0.261241 -0.104546 255 0 0
0.600275 0.241888 -0.073322 255 0 0
0.602252 0.305415 -0.060546 255 0 0
0.575011 0.282428 -0.046546 255 0 0
0.576796 0.260563 -0.022476 255 0 0
0.602987 0.298508 -0.042546 255 0 0
0.639021 0.248833 -0.060546 255 0 0
0.584618 0.300343 -0.068546 255 0 0
0.632717 0.256971 -0.087297 255 0 0
0.568213 0.275475 -0.084546 255 0 0
0.588217 0.254034 -0.078546 255 0 0
0.618915 0.278172 -0.039503 255 0 0
0.617081 0.263016 -0.052546 255 0 0
0.582853 0.263413 -0.058546 255 0 0
0.590527 0.264975 -0.032167 255 0 0
0.599604 0.244257 -0.056546 255 0 0
0.574305 0.290656 -0.060546 255 0 0
0.609203 0.288452 -0.031435 255 0 0
0.587966 0.287457 -0.037381 255 0 0
0.633748 0.279151 -0.034546 255 0 0
0.610199 0.267216 -0.031648 255 0 0
0.651736 0.258392 -0.064546 255 0 0
0.606500 0.249714 -0.023857 255 0 0
0.620159 0.256737 -0.022546 255 0 0
0.577978 0.268473 -0.074546 255 0 0
0.601804 0.253449 -0.105488 255 0 0
0.581795 0.251476 -0.094546 255 0 0
0.574373 0.254305 -0.070546 255 0 0
0.621673 0.260645 -0.078546 255 0 0
0.639778 0.262635 -0.056546 255 0 0
0.636568 0.252174 -0.046546 255 0 0
0.602707 0.247620 -0.042546 255 0 0
0.579570 0.267263 -0.092546 255 0 0
0.641119 0.264320 -0.078546 255 0 0
0.609798 0.252201 -0.072546 255 0 0
0.581549 0.253687 -0.048546 255 0 0
0.609611 0.247239 -0.094546 255 0 0
0.596084 0.297662 -0.022546 255 0 0
0.577912 0.281242 -0.070546 255 0 0
0.625175 0.266766 -0.096546 255 0 0
0.584388 0.274969 -0.040546 255 0 0
0.584346 0.298969 -0.086546 255 0 0
0.574806 0.285147 -0.092546 255 0 0
0.614010 0.302519 -0.036546 255 0 0
0.620518 0.286615 -0.022546 255 0 0
0.575899 0.272286 -0.028546 255 0 0
0.627443 0.259980 -0.032546 255 0 0
0.579952 0.275942 -0.056546 255 0 0
0.613304 0.296822 -0.022546 255 0 0
0.606695 0.254670 -0.054546 255 0 0
0.583099 0.291328 -0.024546 255 0 0
0.619206 0.257497 -0.090546 255 0 0
0.571781 0.267108 -0.052242 255 0 0
0.629797 0.275789 -0.072546 255 0 0
0.602930 0.249998 -0.082546 255 0 0
0.582269 0.254592 -0.032546 255 0 0
0.622474 0.253732 -0.068546 255 0 0
0.619504 0.266062 -0.040546 255 0 0
0.637251 0.256245 -0.070546 255 0 0
0.596637 0.304783 -0.034546 255 0 0
0.595742 0.250604 -0.066546 255 0 0
0.584531 0.286351 -0.052546 255 0 0
0.575160 0.287421 -0.035624 255 0 0
0.590995 0.243073 -0.080546 255 0 0
0.603650 0.255770 -0.034546 255 0 0
0.597642 0.289982 -0.031806 255 0 0
0.628990 0.258712 -0.052546 255 0 0
0.616176 0.252239 -0.048636 255 0 0
0.572741 0.258678 -0.059964 255 0 0
0.584918 0.257922 -0.068546 255 0 0
0.582986 0.281196 -0.029239 255 0 0
0.585511 0.265092 -0.046546 255 0 0
0.578138 0.279941 -0.082546 255 0 0
0.590290 0.247274 -0.050546 255 0 0
0.626420 0.274757 -0.048540 255 0 0
0.642073 0.262307 -0.045587 255 0 0
0.597438 0.299365 -0.052546 255 0 0
0.569703 0.264495 -0.068546 255 0 0
0.590897 0.297902 -0.040546 255 0 0
0.592129 0.250923 -0.101209 255 0 0
0.617634 0.289413 -0.039500 255 0 0
0.581861 0.247654 -0.084546 255 0 0
0.590858 0.255751 -0.058546 255 0 0
0.583357 0.259172 -0.086546 255 0 0
0.632468 0.264835 -0.024546 255 0 0
0.586516 0.293721 -0.060546 255 0 0
0.589212 0.250469 -0.040546 255 0 0
0.584943 0.251528 -0.022825 255 0 0
0.582666 0.284006 -0.099586 255 0 0
0.592057 0.276536 -0.031656 255 0 0
0.630191 0.266647 -0.078822 255 0 0
0.606067 0.242745 -0.064546 255 0 0
0.629927 0.284746 -0.026546 255 0 0
0.620058 0.261929 -0.062546 255 0 0
0.577280 0.293401 -0.070546 255 0 0
0.568511 0.267154 -0.078546 255 0 0
0.594332 0.300282 -0.064546 255 0 0
0.627096 0.256330 -0.042652 255 0 0
0.584854 0.270694 -0.104546 255 0 0
0.581687 0.247434 -0.072546 255 0 0
0.627492 0.271349 -0.036546 255 0 0
0.579459 0.260698 -0.100546 255 0 0
0.569102 0.276591 -0.072546 255 0 0
0.610380 0.259405 -0.044546 255 0 0
0.599590 0.265433 -0.036546 255 0 0
0.610484 0.277212 -0.031133 255 0 0
0.633544 0.251585 -0.078546 255 0 0
0.573407 0.273481 -0.042546 255 0 0
0.581385 0.295246 -0.036322 255 0 0
0.609844 0.282832 -0.039526 255 0 0
0.605092 0.296834 -0.028546 255 0 0
0.625988 0.285323 -0.036546 255 0 0
0.608469 0.243036 -0.078546 255 0 0
0.580460 0.290872 -0.044916 255 0 0
0.579242 0.270064 -0.064546 255 0 0
0.584953 0.294964 -0.076546 255 0 0
0.590563 0.252168 -0.087578 255 0 0
0.572514 0.281858 -0.056546 255 0 0
0.594299 0.256864 -0.035562 255 0 0
0.619594 0.264855 -0.030546 255 0 0
0.570340 0.268511 -0.090546 255 0 0
0.625501 0.263963 -0.086546 255 0 0
0.625816 0.267572 -0.057698 255 0 0
0.618274 0.283792 -0.031508 255 0 0
0.592697 0.270916 -0.039532 255 0 0
0.611995 0.256621 -0.028546 255 0 0
0.606180 0.252525 -0.063543 255 0 0
0.577081 0.270559 -0.083506 255 0 0
0.641894 0.257338 -0.084546 255 0 0
0.647974 0.252502 -0.058546 255 0 0
0.623894 0.284433 -0.045624 255 0 0
0.607358 0.246475 -0.050546 255 0 0
0.591425 0.243614 -0.070546 255 0 0
0.644644 0.249477 -0.068546 255 0 0
0.621653 0.252994 -0.056546 255 0 0
0.570536 0.283432 -0.078546 255 0 0
0.644213 0.261785 -0.068546 255 0 0
0.581142 0.290329 -0.088546 255 0 0
0.596504 0.249999 -0.075573 255 0 0
0.611124 0.271592 -0.039528 255 0 0
0.601354 0.251252 -0.096546 255 0 0
0.582436 0.266299 -0.026546 255 0 0
0.602856 0.241921 -0.086546 255 0 0
0.580443 0.284424 -0.062546 255 0 0
0.587610 0.303073 -0.079273 255 0 0
0.581759 0.260376 -0.076546 255 0 0
0.596717 0.285607 -0.039533 255 0 0
0.618307 0.248494 -0.074546 255 0 0
0.601413 0.281872 -0.031479 255 0 0
0.598995 0.253129 -0.027154 255 0 0
0.624234 0.253496 -0.084546 255 0 0
0.611172 0.252374 -0.086546 255 0 0
0.578386 0.277189 -0.092546 255 0 0
0.636433 0.268069 -0.050546 255 0 0
0.578256 0.252761 -0.056546 255 0 0
0.590777 0.294203 -0.028546 255 0 0
0.605267 0.304362 -0.036546 255 0 0
0.574783 0.292832 -0.026546 255 0 0
0.620511 0.299457 -0.026546 255 0 0
0.642213 0.249632 -0.052546 255 0 0
0.587710 0.258220 -0.096546 255 0 0
0.604070 0.289980 -0.038546 255 0 0
0.633606 0.274152 -0.027561 255 0 0
0.579089 0.294517 -0.054546 255 0 0
0.582669 0.277585 -0.048546 255 0 0
0.629430 0.259266 -0.074546 255 0 0
0.623803 0.266617 -0.048546 255 0 0
0.616339 0.252110 -0.096546 255 0 0
0.622045 0.275683 -0.031576 255 0 0
0.577482 0.251787 -0.078546 255 0 0
0.613524 0.256905 -0.060546 255 0 0
0.570719 0.283286 -0.066546 255 0 0
0.625964 0.272566 -0.064546 255 0 0
0.574070 0.279625 -0.032546 255 0 0
0.575141 0.258483 -0.092546 255 0 0
0.589922 0.257789 -0.027846 255 0 0
0.598995 0.253129 -0.057542 255 0 0
0.609598 0.252360 -0.102546 255 0 0
0.613283 0.244318 -0.068546 255 0 0
0.590187 0.298467 -0.092546 255 0 0
0.635847 0.254480 -0.054995 255 0 0
0.593843 0.243441 -0.062546 255 0 0
0.576007 0.262783 -0.030546 255 0 0
0.588831 0.302101 -0.058546 255 0 0
0.575551 0.258998 -0.050734 255 0 0
0.613059 0.261172 -0.036546 255 0 0
0.615647 0.250105 -0.024546 255 0 0
0.602284 0.255623 -0.044546 255 0 0
0.601128 0.271876 -0.031618 255 0 0
0.611373 0.294393 -0.037476 255 0 0
0.580774 0.255926 -0.040546 255 0 0
0.585512 0.271519 -0.032254 255 0 0
0.599714 0.247608 -0.034546 255 0 0
0.571534 0.259639 -0.076546 255 0 0
0.616735 0.254350 -0.080546 255 0 0
0.586254 0.283708 -0.044546 255 0 0
0.620514 0.253900 -0.030546 255 0 0
0.589597 0.291271 -0.048546 255 0 0
0.613186 0.303098 -0.028546 255 0 0
0.585350 0.266537 -0.038546 255 0 0
0.595358 0.304577 -0.026546 255 0 0
0.639651 0.256566 -0.062546 255 0 0
0.624891 0.263196 -0.022529 255 0 0
0.588250 0.297452 -0.020910 255 0 0
0.591737 0.279346 -0.039512 255 0 0
0.616304 0.290955 -0.028546 255 0 0
0.575976 0.268882 -0.100546 255 0 0
0.622036 0.257800 -0.048546 255 0 0
0.588924 0.259746 -0.040546 255 0 0
0.634457 0.258142 -0.040546 255 0 0
0.622907 0.262219 -0.070546 255 0 0
0.571775 0.274780 -0.050546 255 0 0
0.607275 0.249098 -0.032546 255 0 0
0.647342 0.259293 -0.054546 255 0 0
0.569949 0.283899 -0.086546 255 0 0
0.626315 0.256952 -0.062546 255 0 0
0.623468 0.279661 -0.024546 255 0 0
0.624117 0.253590 -0.076546 255 0 0
0.620826 0.258763 -0.036546 255 0 0
0.610377 0.244074 -0.086546 255 0 0
0.587943 0.245661 -0.090546 255 0 0
0.625744 0.293184 -0.025217 255 0 0
0.597536 0.246622 -0.048546 255 0 0
0.628911 0.277888 -0.079709 255 0 0
0.616460 0.255810 -0.072546 255 0 0
0.609961 0.249516 -0.042546 255 0 0
0.587386 0.261024 -0.052546 255 0 0
0.583631 0.269155 -0.052546 255 0 0
0.596533 0.293420 -0.038546 255 0 0
0.602949 0.249983 -0.070546 255 0 0
0.578879 0.285672 -0.076546 255 0 0
0.639415 0.249327 -0.074546 255 0 0
0.573630 0.275860 -0.022417 255 0 0
0.579279 0.295813 -0.062546 255 0 0
0.577496 0.252340 -0.088546 255 0 0
0.623079 0.259526 -0.096546 255 0 0
0.570357 0.265685 -0.060546 255 0 0
0.575220 0.287496 -0.052546 255 0 0
0.597965 0.297392 -0.030546 255 0 0
0.577205 0.275571 -0.076546 255 0 0
0.626439 0.268355 -0.072546 255 0 0
0.582637 0.290395 -0.066546 255 0 0
0.572002 0.287377 -0.072546 255 0 0
0.577895 0.252022 -0.064546 255 0 0
0.589659 0.303999 -0.036546 255 0 0
0.593980 0.253251 -0.094546 255 0 0
0.594872 0.296137 -0.046546 255 0 0
0.592129 0.250923 -0.023762 255 0 0
0.635800 0.260847 -0.050546 255 0 0
0.632216 0.267591 -0.032546 255 0 0
0.623483 0.271982 -0.042546 255 0 0
0.592661 0.283721 -0.032034 255 0 0
0.618113 0.255809 -0.042546 255 0 0
0.579035 0.289449 -0.096546 255 0 0
0.649249 0.255265 -0.070546 255 0 0
0.603546 0.300618 -0.022143 255 0 0
0.582819 0.258497 -0.026546 255 0 0
0.619306 0.249750 -0.089089 255 0 0
0.578390 0.277184 -0.064546 255 0 0
0.572385 0.274294 -0.095169 255 0 0
0.590235 0.298429 -0.072546 255 0 0
0.589823 0.303869 -0.086546 255 0 0
0.585298 0.255188 -0.102546 255 0 0
0.603654 0.262200 -0.031440 255 0 0
0.634234 0.262092 -0.082546 255 0 0
0.643152 0.254025 -0.044546 255 0 0
0.582818 0.276218 -0.100546 255 0 0
0.607870 0.246068 -0.058546 255 0 0
0.602765 0.245019 -0.093521 255 0 0
0.595150 0.241870 -0.086546 255 0 0
0.618310 0.270987 -0.035302 255 0 0
0.586401 0.288702 -0.103539 255 0 0
0.595744 0.250603 -0.082546 255 0 0
0.581290 0.264656 -0.068546 255 0 0
0.575552 0.268636 -0.034546 255 0 0
0.595656 0.304339 -0.058546 255 0 0
0.618238 0.296599 -0.035461 255 0 0
0.584836 0.289946 -0.031115 255 0 0
0.579820 0.296492 -0.029490 255 0 0
0.584777 0.248107 -0.054546 255 0 0
0.594476 0.305278 -0.078052 255 0 0
0.610555 0.251599 -0.079513 255 0 0
0.580621 0.298410 -0.080546 255 0 0
0.579870 0.264427 -0.082546 255 0 0
0.583588 0.281953 -0.038546 255 0 0
0.645202 0.259817 -0.075545 255 0 0
0.591168 0.252928 -0.072546 255 0 0
0.612410 0.253932 -0.066546 255 0 0
0.596482 0.256396 -0.102546 255 0 0
0.602693 0.270631 -0.039539 255 0 0
0.627558 0.279401 -0.030546 255 0 0
0.625387 0.262802 -0.040546 255 0 0
0.597464 0.241568 -0.079418 255 0 0
0.582417 0.261204 -0.093683 255 0 0
0.576668 0.281110 -0.038546 255 0 0
0.583483 0.296133 -0.092546 255 0 0
0.634887 0.262912 -0.075841 255 0 0
0.595507 0.248236 -0.040546 255 0 0
0.570500 0.278349 -0.090196 255 0 0
0.581525 0.287469 -0.082546 255 0 0
0.607673 0.276891 -0.037456 255 0 0
0.582467 0.266275 -0.098546 255 0 0
0.612016 0.258105 -0.052546 255 0 0
0.600104 0.249689 -0.088546 255 0 0
0.624797 0.278605 -0.042546 255 0 0
0.606144 0.265330 -0.037489 255 0 0
0.569482 0.264220 -0.084546 255 0 0
0.575480 0.284611 -0.099208 255 0 0
0.582986 0.281196 -0.105469 255 0 0
0.624974 0.265686 -0.034546 255 0 0
0.627889 0.289455 -0.030546 255 0 0
0.618061 0.248184 -0.066455 255 0 0
0.589304 0.294058 -0.054546 255 0 0
0.602522 0.303989 -0.030546 255 0 0
0.585470 0.245766 -0.078546 255 0 0
0.644404 0.260453 -0.060546 255 0 0
0.586230 0.293948 -0.042546 255 0 0
0.611255 0.294486 -0.030546 255 0 0
0.600016 0.242094 -0.066546 255 0 0
0.596825 0.247188 -0.098597 255 0 0
0.649716 0.251116 -0.064546 255 0 0
0.612670 0.247362 -0.054546 255 0 0
0.578362 0.259319 -0.035717 255 0 0
0.579210 0.282873 -0.088546 255 0 0
0.615719 0.262825 -0.044546 255 0 0
0.574704 0.264783 -0.046546 255 0 0
0.588074 0.249038 -0.095909 255 0 0
0.574839 0.290231 -0.087892 255 0 0
0.589589 0.254157 -0.064546 255 0 0
0.592518 0.244987 -0.056546 255 0 0
0.600239 0.254694 -0.051530 255 0 0
0.570573 0.272016 -0.056546 255 0 0
0.587111 0.251041 -0.034546 255 0 0
0.605325 0.254663 -0.028546 255 0 0
0.595828 0.268425 -0.031472 255 0 0
0.582708 0.289084 -0.058546 255 0 0
0.620417 0.259088 -0.084546 255 0 0
0.628861 0.255336 -0.080546 255 0 0
0.578768 0.274329 -0.070546 255 0 0
0.574940 0.274818 -0.036546 255 0 0
0.572741 0.258678 -0.066270 255 0 0
0.587782 0.295270 -0.066546 255 0 0
0.577970 0.287741 -0.023330 255 0 0
0.582197 0.281823 -0.056546 255 0 0
0.586813 0.250667 -0.046546 255 0 0
0.602658 0.283437 -0.037427 255 0 0
0.644514 0.255254 -0.050546 255 0 0
0.596992 0.247055 -0.024546 255 0 0
0.608211 0.253464 -0.096546 255 0 0
0.580639 0.288173 -0.038546 255 0 0
0.573100 0.289059 -0.066546 255 0 0
0.584868 0.257860 -0.060546 255 0 0
0.596423 0.256321 -0.042546 255 0 0
0.625426 0.257659 -0.090546 255 0 0
0.578172 0.278356 -0.026546 255 0 0
0.573912 0.265413 -0.094546 255 0 0
0.582741 0.264824 -0.104546 255 0 0
0.568034 0.272036 -0.068546 255 0 0
0.604310 0.250174 -0.076546 255 0 0
0.590169 0.301037 -0.026546 255 0 0
0.628790 0.260094 -0.026546 255 0 0
0.583638 0.293455 -0.082546 255 0 0
0.597210 0.300547 -0.042546 255 0 0
0.626895 0.261602 -0.058546 255 0 0
0.629735 0.264453 -0.050546 255 0 0
0.619873 0.263313 -0.100546 255 0 0
0.576156 0.266184 -0.024792 255 0 0
0.585120 0.299942 -0.037491 255 0 0
0.639915 0.253170 -0.080546 255 0 0
0.639354 0.251692 -0.066546 255 0 0
0.585168 0.255024 -0.090546 255 0 0
0.568494 0.274834 -0.078546 255 0 0
0.630511 0.263836 -0.037531 255 0 0
0.608006 0.243404 -0.072546 255 0 0
0.605758 0.250303 -0.090546 255 0 0
0.584600 0.297800 -0.056546 255 0 0
0.580623 0.270297 -0.058546 255 0 0
0.615464 0.283472 -0.037458 255 0 0
0.583300 0.271951 -0.046546 255 0 0
0.627342 0.258691 -0.068546 255 0 0
0.621395 0.253199 -0.062546 255 0 0
0.628117 0.278519 -0.036546 255 0 0
0.580501 0.271646 -0.096546 255 0 0
0.602861 0.248351 -0.028546 255 0 0
0.607105 0.256899 -0.105578 255 0 0
0.606677 0.298128 -0.037430 255 0 0
0.587090 0.251015 -0.028546 255 0 0
0.588941 0.259766 -0.046546 255 0 0
0.623894 0.284433 -0.029561 255 0 0
0.622288 0.259924 -0.028546 255 0 0
0.584878 0.300135 -0.062546 255 0 0
0.588942 0.259769 -0.034546 255 0 0
0.575160 0.287421 -0.029057 255 0 0
0.632921 0.273291 -0.034546 255 0 0
0.580827 0.298246 -0.072546 255 0 0
0.609168 0.301259 -0.023793 255 0 0
0.600737 0.300299 -0.037404 255 0 0
0.631472 0.255406 -0.048349 255 0 0
0.607950 0.256228 -0.038546 255 0 0
0.593337 0.265295 -0.037303 255 0 0
0.623826 0.266598 -0.064546 255 0 0
0.578610 0.275693 -0.086546 255 0 0
0.618346 0.258180 -0.067541 255 0 0
0.585682 0.246031 -0.068546 255 0 0
0.613929 0.246360 -0.090546 255 0 0
0.579065 0.256204 -0.096546 255 0 0
0.578305 0.294587 -0.084546 255 0 0
0.615926 0.409352 -0.058546 255 125 0
0.631720 0.390653 0.047355 255 125 0
0.636131 0.376922 -0.107242 255 125 0
0.638016 0.372867 -0.013943 255 125 0
0.609806 0.408084 -0.013834 255 125 0
0.635993 0.371921 -0.064546 255 125 0
0.605913 0.403514 -0.098546 255 125 0
0.605864 0.377425 -0.038546 255 125 0
0.617616 0.385774 0.013454 255 125 0
0.644387 0.396941 -0.040546 255 125 0
0.603769 0.381217 -0.072546 255 125 0
0.643885 0.396309 -0.085685 255 125 0
0.639474 0.410041 -0.013770 255 125 0
0.609197 0.375191 -0.100546 255 125 0
0.608633 0.380906 -0.011969 255 125 0
0.630144 0.369396 -0.038546 255 125 0
0.604536 0.402053 -0.038546 255 125 0
