ply
format ascii 1.0
element vertex 1264
property float x
property float y
property float z
property uchar red
property uchar green
property uchar blue
end_header
0.050801 0.637194 0.110050 255 0 255
-0.243258 0.504284 0.318900 255 0 255
-0.004854 0.673560 0.109994 255 0 255
-0.085912 0.359551 0.107930 255 0 255
-0.120000 0.362708 0.109995 255 0 255
-0.031551 0.345952 0.107925 255 0 255
-0.038006 0.363682 0.110004 255 0 255
-0.043299 0.608124 0.107925 255 0 255
-0.082302 0.626638 0.109964 255 0 255
-0.032053 0.564840 0.109986 255 0 255
-0.213857 0.501249 0.244900 255 0 255
-0.103934 0.361338 0.109967 255 0 255
-0.015674 0.459124 0.109983 255 0 255
-0.219366 0.645548 0.261763 255 0 255
0.031617 0.412268 0.109945 255 0 255
-0.250053 0.650026 0.374900 255 0 255
-0.200900 0.496450 0.160900 255 0 255
-0.240057 0.480868 0.304900 255 0 255
-0.017236 0.345961 0.102900 255 0 255
0.009603 0.337557 0.098900 255 0 255
0.076908 0.346379 0.090900 255 0 255
-0.220059 0.406467 0.230900 255 0 255
-0.205315 0.360395 0.174900 255 0 255
-0.129924 0.450694 0.117967 255 0 255
-0.190867 0.439111 0.156900 255 0 255
-0.151905 0.342909 0.086900 255 0 255
-0.174575 0.394537 0.128900 255 0 255
0.054757 0.425751 0.118900 255 0 255
-0.191898 0.588592 0.128900 255 0 255
-0.013344 0.345036 0.092900 255 0 255
-0.226737 0.456959 0.291293 255 0 255
-0.230706 0.684762 0.284900 255 0 255
-0.232290 0.632843 0.276900 255 0 255
0.039914 0.547498 0.107952 255 0 255
-0.240997 0.370630 0.344900 255 0 255
-0.207514 0.489678 0.184190 255 0 255
-0.228495 0.506405 0.299312 255 0 255
-0.108820 0.444163 0.109979 255 0 255
-0.166766 0.350157 0.088900 255 0 255
-0.221428 0.530031 0.272900 255 0 255
-0.191694 0.467913 0.159924 255 0 255
-0.240016 0.388218 0.380900 255 0 255
-0.230992 0.561994 0.306900 255 0 255
0.073880 0.534144 0.109929 255 0 255
-0.218837 0.549335 0.230900 255 0 255
-0.194462 0.660701 0.134900 255 0 255
-0.209195 0.678146 0.188900 255 0 255
-0.195436 0.431904 0.172900 255 0 255
-0.206911 0.425180 0.184900 255 0 255
-0.173794 0.455929 0.125065 255 0 255
0.025135 0.675365 0.108900 255 0 255
-0.181219 0.559742 0.124900 255 0 255
-0.208513 0.359924 0.222900 255 0 255
-0.235772 0.683795 0.354825 255 0 255
-0.047827 0.346334 0.098900 255 0 255
-0.185699 0.592310 0.138900 255 0 255
-0.030711 0.513437 0.109961 255 0 255
-0.228160 0.397966 0.260900 255 0 255
-0.222049 0.684967 0.262900 255 0 255
0.008584 0.443745 0.108900 255 0 255
-0.179483 0.645249 0.116900 255 0 255
-0.251666 0.364113 0.346900 255 0 255
-0.196050 0.654905 0.176900 255 0 255
-0.238518 0.563742 0.300900 255 0 255
-0.047514 0.453624 0.117890 255 0 255
0.049432 0.409506 0.108900 255 0 255
-0.055963 0.663977 0.109960 255 0 255
-0.209126 0.669952 0.192900 255 0 255
-0.184910 0.495096 0.134900 255 0 255
0.063727 0.423845 0.108900 255 0 255
0.002208 0.461457 0.108900 255 0 255
-0.238843 0.428862 0.299691 255 0 255
-0.209649 0.344959 0.193863 255 0 255
-0.114472 0.398337 0.110014 255 0 255
-0.243305 0.421632 0.318900 255 0 255
0.009445 0.558064 0.118104 255 0 255
-0.246847 0.416251 0.330900 255 0 255
-0.209985 0.487670 0.228900 255 0 255
-0.259351 0.582483 0.380312 255 0 255
-0.106931 0.568487 0.117776 255 0 255
0.076593 0.498808 0.109933 255 0 255
-0.198469 0.609188 0.150900 255 0 255
-0.241338 0.417124 0.379761 255 0 255
-0.250305 0.541711 0.342900 255 0 255
-0.204840 0.646550 0.209699 255 0 255
-0.237260 0.542125 0.294900 255 0 255
-0.226948 0.590637 0.254900 255 0 255
-0.197258 0.657206 0.142900 255 0 255
-0.020877 0.631983 0.108900 255 0 255
-0.183793 0.553177 0.132900 255 0 255
-0.191392 0.623244 0.158118 255 0 255
-0.258662 0.672303 0.374437 255 0 255
-0.207518 0.338372 0.250900 255 0 255
-0.146614 0.660754 0.117975 255 0 255
-0.224389 0.605722 0.246900 255 0 255
-0.136331 0.439788 0.117761 255 0 255
-0.224474 0.575070 0.282900 255 0 255
-0.061085 0.466732 0.117480 255 0 255
-0.100607 0.376988 0.118639 255 0 255
-0.186946 0.638657 0.142900 255 0 255
-0.024738 0.618491 0.118562 255 0 255
-0.239439 0.502597 0.380900 255 0 255
-0.235863 0.393469 0.288900 255 0 255
-0.134631 0.678654 0.118530 255 0 255
-0.214149 0.585143 0.204900 255 0 255
-0.232533 0.583601 0.276900 255 0 255
-0.191908 0.351470 0.184900 255 0 255
-0.241952 0.366138 0.376589 255 0 255
-0.215553 0.612022 0.216900 255 0 255
-0.075714 0.359429 0.118273 255 0 255
-0.193595 0.601221 0.132900 255 0 255
-0.202441 0.600118 0.166900 255 0 255
-0.224481 0.495329 0.248900 255 0 255
-0.194449 0.472588 0.168900 255 0 255
-0.213599 0.568669 0.242900 255 0 255
-0.076018 0.627346 0.117821 255 0 255
-0.235459 0.589673 0.324900 255 0 255
-0.166499 0.605685 0.117790 255 0 255
-0.206559 0.593753 0.214900 255 0 255
-0.227997 0.498121 0.294900 255 0 255
-0.174256 0.378330 0.128900 255 0 255
-0.063145 0.360846 0.118106 255 0 255
-0.028405 0.639717 0.117543 255 0 255
-0.244277 0.346185 0.358900 255 0 255
0.079551 0.483866 0.109939 255 0 255
-0.186049 0.476936 0.140900 255 0 255
-0.015060 0.510111 0.118462 255 0 255
-0.145165 0.595016 0.110900 255 0 255
-0.214024 0.468670 0.210900 255 0 255
0.034263 0.338097 0.104900 255 0 255
-0.185378 0.568804 0.134900 255 0 255
-0.096875 0.654271 0.118068 255 0 255
-0.206746 0.575391 0.218900 255 0 255
0.040139 0.582210 0.108900 255 0 255
-0.238211 0.535051 0.334900 255 0 255
-0.166923 0.440156 0.117590 255 0 255
-0.233586 0.352092 0.280900 255 0 255
-0.254937 0.362764 0.382213 255 0 255
-0.102772 0.588050 0.117700 255 0 255
-0.156518 0.344817 0.104900 255 0 255
-0.146179 0.566606 0.118277 255 0 255
-0.128989 0.560908 0.118534 255 0 255
-0.238899 0.610851 0.302900 255 0 255
0.078605 0.633329 0.117934 255 0 255
-0.194251 0.384624 0.168900 255 0 255
-0.234983 0.530276 0.322900 255 0 255
-0.109312 0.403374 0.118253 255 0 255
-0.232245 0.539917 0.274900 255 0 255
-0.205263 0.397188 0.210900 255 0 255
-0.029907 0.449881 0.117793 255 0 255
-0.145309 0.378311 0.117935 255 0 255
-0.229700 0.346822 0.308900 255 0 255
0.006950 0.546326 0.118040 255 0 255
0.004919 0.507909 0.117619 255 0 255
0.061056 0.348759 0.117602 255 0 255
-0.232157 0.396771 0.276900 255 0 255
-0.136426 0.497059 0.117949 255 0 255
-0.224847 0.663070 0.246900 255 0 255
-0.221494 0.425175 0.270900 255 0 255
-0.249460 0.633542 0.374900 255 0 255
-0.246321 0.616518 0.328900 255 0 255
-0.250185 0.508971 0.340900 255 0 255
-0.066027 0.414621 0.118068 255 0 255
-0.108150 0.630087 0.118216 255 0 255
0.072945 0.423930 0.117868 255 0 255
0.027401 0.681017 0.118181 255 0 255
-0.231120 0.654180 0.274900 255 0 255
-0.210983 0.592649 0.198900 255 0 255
-0.119065 0.472922 0.118026 255 0 255
-0.239628 0.482191 0.380900 255 0 255
-0.113423 0.355176 0.118034 255 0 255
0.029633 0.345215 0.118242 255 0 255
0.008661 0.525515 0.117975 255 0 255
-0.136568 0.582966 0.117792 255 0 255
-0.086924 0.633754 0.118380 255 0 255
-0.254303 0.650929 0.356900 255 0 255
-0.082643 0.663514 0.118182 255 0 255
-0.094579 0.616979 0.118062 255 0 255
-0.145744 0.472459 0.117869 255 0 255
-0.081867 0.532490 0.118213 255 0 255
-0.061227 0.552639 0.117566 255 0 255
-0.004816 0.481352 0.117869 255 0 255
-0.103462 0.498231 0.117461 255 0 255
0.029736 0.451517 0.117961 255 0 255
-0.145735 0.636031 0.118088 255 0 255
-0.021005 0.472525 0.117698 255 0 255
-0.248239 0.643506 0.338900 255 0 255
-0.217297 0.487668 0.256900 255 0 255
0.019151 0.517152 0.118202 255 0 255
-0.055576 0.598465 0.117910 255 0 255
-0.123999 0.584383 0.109915 255 0 255
-0.057683 0.521215 0.118139 255 0 255
-0.125983 0.517331 0.118387 255 0 255
-0.198648 0.420319 0.154900 255 0 255
-0.070735 0.642581 0.118047 255 0 255
0.000732 0.420877 0.117628 255 0 255
-0.123904 0.527112 0.109943 255 0 255
-0.060906 0.611866 0.118046 255 0 255
-0.064043 0.481673 0.117823 255 0 255
-0.120776 0.493732 0.118198 255 0 255
-0.192677 0.643964 0.162900 255 0 255
-0.098246 0.638205 0.109943 255 0 255
-0.107564 0.613605 0.118255 255 0 255
0.050064 0.576011 0.107907 255 0 255
-0.225182 0.372797 0.248900 255 0 255
-0.126711 0.619719 0.109980 255 0 255
0.030057 0.510744 0.118254 255 0 255
-0.164409 0.355790 0.109996 255 0 255
-0.001631 0.582909 0.107917 255 0 255
-0.009663 0.371970 0.107956 255 0 255
0.008359 0.370184 0.107923 255 0 255
-0.128364 0.352218 0.110025 255 0 255
-0.075951 0.502607 0.109954 255 0 255
-0.169616 0.379388 0.109939 255 0 255
0.025171 0.593570 0.107961 255 0 255
-0.021506 0.691413 0.107932 255 0 255
-0.143892 0.365741 0.118288 255 0 255
0.032363 0.637024 0.107944 255 0 255
0.028168 0.386420 0.117817 255 0 255
0.011156 0.537253 0.107944 255 0 255
-0.021175 0.490964 0.107917 255 0 255
0.046388 0.433664 0.117778 255 0 255
-0.127250 0.607566 0.118051 255 0 255
-0.085732 0.504686 0.109993 255 0 255
-0.046900 0.504610 0.109997 255 0 255
-0.142635 0.535183 0.109970 255 0 255
-0.113849 0.612896 0.110024 255 0 255
-0.198793 0.477600 0.154900 255 0 255
-0.003247 0.546449 0.107941 255 0 255
0.042948 0.571389 0.118089 255 0 255
-0.044812 0.677964 0.118012 255 0 255
-0.089447 0.554548 0.117802 255 0 255
0.059525 0.514704 0.109918 255 0 255
-0.077218 0.592842 0.110048 255 0 255
-0.029226 0.376128 0.107920 255 0 255
0.021504 0.614796 0.107920 255 0 255
0.067567 0.465967 0.118136 255 0 255
-0.150990 0.688265 0.109949 255 0 255
0.066943 0.674657 0.107952 255 0 255
0.015116 0.507786 0.107922 255 0 255
0.040132 0.500424 0.107957 255 0 255
0.016137 0.397156 0.107940 255 0 255
-0.124272 0.496520 0.109940 255 0 255
-0.165874 0.396995 0.109941 255 0 255
-0.018680 0.502701 0.107917 255 0 255
-0.080799 0.393224 0.107939 255 0 255
-0.048289 0.584648 0.107925 255 0 255
-0.044877 0.379455 0.107917 255 0 255
-0.053421 0.647079 0.117935 255 0 255
-0.234256 0.560791 0.320900 255 0 255
-0.163465 0.629576 0.109935 255 0 255
0.051794 0.459096 0.109988 255 0 255
0.065025 0.482865 0.110005 255 0 255
-0.100325 0.628424 0.109943 255 0 255
0.075524 0.638073 0.109976 255 0 255
-0.055727 0.520799 0.107923 255 0 255
-0.121777 0.508258 0.109937 255 0 255
-0.049839 0.423448 0.109967 255 0 255
-0.151897 0.645520 0.109964 255 0 255
-0.114737 0.474047 0.109934 255 0 255
-0.020920 0.674931 0.107939 255 0 255
-0.039245 0.521385 0.118412 255 0 255
0.027175 0.564518 0.117787 255 0 255
-0.040492 0.515516 0.109984 255 0 255
-0.030881 0.531876 0.109968 255 0 255
0.045546 0.689428 0.107961 255 0 255
0.064372 0.624086 0.107940 255 0 255
-0.102139 0.542933 0.109951 255 0 255
-0.052542 0.622356 0.109980 255 0 255
-0.123592 0.422767 0.109939 255 0 255
-0.074260 0.577900 0.118062 255 0 255
-0.199328 0.584038 0.152900 255 0 255
-0.227811 0.446964 0.296900 255 0 255
-0.241703 0.472408 0.346900 255 0 255
-0.195843 0.483108 0.174900 255 0 255
-0.237168 0.513698 0.328900 255 0 255
-0.207134 0.458927 0.218900 255 0 255
-0.211819 0.686882 0.198900 255 0 255
-0.202037 0.437396 0.200900 255 0 255
-0.240664 0.439473 0.342900 255 0 255
-0.238815 0.486710 0.336900 255 0 255
-0.198314 0.671743 0.182900 255 0 255
-0.249857 0.377043 0.374900 255 0 255
-0.139724 0.548877 0.117676 255 0 255
0.078065 0.660025 0.118900 255 0 255
-0.198612 0.467339 0.186900 255 0 255
-0.061236 0.389066 0.117684 255 0 255
-0.094956 0.422814 0.117662 255 0 255
-0.240035 0.680612 0.346900 255 0 255
-0.199673 0.680477 0.208900 255 0 255
-0.109568 0.642656 0.117602 255 0 255
-0.180826 0.653713 0.119932 255 0 255
-0.173003 0.425091 0.124900 255 0 255
-0.247126 0.500142 0.364900 255 0 255
-0.234527 0.446347 0.320900 255 0 255
-0.248246 0.686446 0.360900 255 0 255
-0.069036 0.342752 0.086900 255 0 255
-0.249583 0.555871 0.376900 255 0 255
-0.235736 0.505900 0.286900 255 0 255
-0.057078 0.408629 0.117598 255 0 255
-0.144790 0.486568 0.109931 255 0 255
-0.206144 0.505744 0.179744 255 0 255
-0.227619 0.693294 0.296900 255 0 255
-0.249793 0.574317 0.338900 255 0 255
-0.242281 0.640195 0.314900 255 0 255
-0.205993 0.583410 0.175427 255 0 255
-0.245910 0.653235 0.324900 255 0 255
-0.196315 0.494266 0.176900 255 0 255
-0.220018 0.347163 0.266900 255 0 255
-0.209410 0.471137 0.226900 255 0 255
-0.238138 0.355225 0.334900 255 0 255
-0.145962 0.519533 0.118176 255 0 255
-0.253360 0.591433 0.375916 255 0 255
-0.254533 0.441623 0.372900 255 0 255
-0.240317 0.445533 0.306900 255 0 255
-0.210384 0.461662 0.194900 255 0 255
-0.079230 0.458321 0.109996 255 0 255
-0.214295 0.540191 0.208900 255 0 255
-0.216997 0.555078 0.216900 255 0 255
-0.235017 0.665232 0.322900 255 0 255
-0.221582 0.470176 0.238900 255 0 255
-0.233088 0.580990 0.317056 255 0 255
-0.219111 0.612779 0.224900 255 0 255
-0.212693 0.611415 0.236900 255 0 255
-0.202275 0.514325 0.166900 255 0 255
-0.218831 0.580726 0.260900 255 0 255
-0.205290 0.663672 0.176900 255 0 255
-0.221671 0.346118 0.302900 255 0 255
-0.238211 0.364500 0.334900 255 0 255
0.052605 0.337856 0.116900 255 0 255
-0.151518 0.416435 0.118308 255 0 255
-0.183689 0.611384 0.126014 255 0 255
-0.234324 0.362472 0.318900 255 0 255
-0.224307 0.388968 0.248900 255 0 255
-0.047429 0.656029 0.109991 255 0 255
-0.222308 0.550073 0.238900 255 0 255
-0.203389 0.451368 0.202900 255 0 255
-0.213344 0.519967 0.240900 255 0 255
-0.187076 0.374204 0.142900 255 0 255
-0.208970 0.694455 0.194154 255 0 255
-0.039443 0.472355 0.110011 255 0 255
-0.008402 0.690672 0.108900 255 0 255
-0.179397 0.549131 0.118900 255 0 255
-0.189896 0.667909 0.118900 255 0 255
-0.251725 0.531790 0.377936 255 0 255
0.075808 0.466260 0.107900 255 0 255
-0.127334 0.405160 0.109971 255 0 255
-0.248732 0.549556 0.338900 255 0 255
-0.107485 0.344632 0.096900 255 0 255
-0.108206 0.495150 0.109954 255 0 255
-0.228699 0.551432 0.262900 255 0 255
-0.228399 0.689624 0.320900 255 0 255
-0.246851 0.540977 0.364900 255 0 255
-0.228170 0.530872 0.296900 255 0 255
-0.059327 0.417286 0.109974 255 0 255
-0.217651 0.497966 0.222900 255 0 255
0.011397 0.345997 0.094900 255 0 255
-0.150734 0.448983 0.117414 255 0 255
-0.187440 0.693968 0.114900 255 0 255
-0.242477 0.666818 0.376900 255 0 255
-0.178284 0.636815 0.111917 255 0 255
-0.185353 0.603559 0.109933 255 0 255
-0.223647 0.471494 0.280900 255 0 255
-0.206606 0.648970 0.182900 255 0 255
-0.215907 0.434211 0.248900 255 0 255
-0.196629 0.348326 0.200900 255 0 255
-0.245487 0.561134 0.327614 255 0 255
-0.246717 0.649317 0.366900 255 0 255
-0.205734 0.372752 0.212900 255 0 255
0.081415 0.685027 0.112900 255 0 255
-0.241920 0.462481 0.312900 255 0 255
-0.214353 0.687421 0.278900 255 0 255
-0.218150 0.659602 0.256900 255 0 255
-0.175411 0.484898 0.130900 255 0 255
-0.200781 0.529140 0.158900 255 0 255
-0.241866 0.674366 0.314900 255 0 255
-0.232502 0.564508 0.278337 255 0 255
-0.189562 0.497180 0.150900 255 0 255
-0.228197 0.463404 0.296900 255 0 255
-0.185333 0.680608 0.158900 255 0 255
-0.240688 0.584650 0.382900 255 0 255
-0.192697 0.395857 0.164900 255 0 255
-0.246597 0.352813 0.366900 255 0 255
-0.002623 0.337758 0.104166 255 0 255
0.047087 0.687056 0.118247 255 0 255
-0.000543 0.347540 0.107941 255 0 255
-0.238992 0.453430 0.336900 255 0 255
-0.212682 0.462150 0.238900 255 0 255
-0.196765 0.395382 0.180900 255 0 255
-0.195481 0.368528 0.174900 255 0 255
-0.202565 0.605173 0.198900 255 0 255
-0.224334 0.651034 0.282900 255 0 255
-0.240327 0.566171 0.381724 255 0 255
-0.251178 0.404903 0.342900 255 0 255
-0.084910 0.345026 0.091864 255 0 255
-0.194515 0.605506 0.170900 255 0 255
-0.196128 0.408572 0.144900 255 0 255
0.003973 0.657371 0.109990 255 0 255
-0.208308 0.351268 0.240900 255 0 255
-0.185837 0.678234 0.108900 255 0 255
-0.245490 0.624520 0.322900 255 0 255
-0.224396 0.429492 0.244900 255 0 255
-0.101042 0.471136 0.110012 255 0 255
-0.213697 0.378534 0.208900 255 0 255
-0.253190 0.572995 0.382550 255 0 255
-0.246417 0.389579 0.364900 255 0 255
-0.211558 0.431241 0.234900 255 0 255
0.058067 0.676544 0.108900 255 0 255
-0.181984 0.349302 0.146900 255 0 255
0.018148 0.488739 0.108900 255 0 255
-0.174586 0.562421 0.110900 255 0 255
-0.218751 0.500245 0.260900 255 0 255
-0.186120 0.403343 0.138900 255 0 255
-0.224273 0.501419 0.282900 255 0 255
-0.180900 0.403259 0.116900 255 0 255
-0.139696 0.616345 0.117546 255 0 255
-0.229110 0.599705 0.298900 255 0 255
-0.240442 0.412845 0.340900 255 0 255
0.076073 0.390550 0.110021 255 0 255
0.078993 0.567817 0.118295 255 0 255
-0.021685 0.546278 0.109977 255 0 255
-0.174953 0.344660 0.108900 255 0 255
-0.236859 0.495915 0.328481 255 0 255
-0.212573 0.490753 0.206900 255 0 255
-0.200070 0.390026 0.192900 255 0 255
-0.227493 0.491880 0.259877 255 0 255
-0.202641 0.421167 0.200900 255 0 255
-0.227250 0.399817 0.292900 255 0 255
-0.033540 0.456788 0.108900 255 0 255
-0.175124 0.644323 0.130900 255 0 255
-0.215000 0.656468 0.210900 255 0 255
0.069848 0.346890 0.108900 255 0 255
-0.203410 0.638067 0.166900 255 0 255
-0.192391 0.426153 0.128900 255 0 255
-0.249012 0.496454 0.336977 255 0 255
-0.196523 0.474051 0.142900 255 0 255
-0.199901 0.500327 0.192900 255 0 255
0.014695 0.683718 0.108900 255 0 255
-0.014181 0.485388 0.109979 255 0 255
-0.190454 0.659849 0.154900 255 0 255
-0.228684 0.620948 0.296324 255 0 255
0.002636 0.626985 0.108900 255 0 255
0.048455 0.621336 0.108900 255 0 255
-0.155203 0.615552 0.110900 255 0 255
-0.174970 0.469635 0.130900 255 0 255
-0.065876 0.506599 0.108900 255 0 255
-0.228532 0.429272 0.262900 255 0 255
0.081589 0.512694 0.116900 255 0 255
-0.186208 0.440166 0.140900 255 0 255
-0.195369 0.589330 0.174900 255 0 255
0.018083 0.656417 0.107950 255 0 255
0.056646 0.356868 0.108900 255 0 255
-0.202742 0.337357 0.198900 255 0 255
-0.193984 0.578812 0.170900 255 0 255
-0.212206 0.644026 0.200900 255 0 255
-0.190741 0.693641 0.158900 255 0 255
-0.201353 0.668300 0.162900 255 0 255
-0.219915 0.664067 0.266900 255 0 255
-0.237670 0.385675 0.330900 255 0 255
-0.201772 0.482323 0.196900 255 0 255
0.027712 0.533734 0.108900 255 0 255
-0.216671 0.467088 0.254900 255 0 255
-0.236017 0.415993 0.326900 255 0 255
-0.242577 0.358092 0.350900 255 0 255
-0.235352 0.442433 0.288900 255 0 255
-0.243191 0.523842 0.317590 255 0 255
-0.237410 0.594177 0.298900 255 0 255
-0.209660 0.604636 0.228815 255 0 255
-0.215109 0.638509 0.212900 255 0 255
-0.061523 0.349236 0.108900 255 0 255
-0.210020 0.623115 0.228900 255 0 255
-0.219337 0.459476 0.226900 255 0 255
-0.246385 0.681961 0.384257 255 0 255
-0.197400 0.638834 0.148900 255 0 255
-0.241297 0.406892 0.308900 255 0 255
-0.193234 0.470285 0.133945 255 0 255
-0.238607 0.400187 0.298900 255 0 255
-0.201692 0.617255 0.160900 255 0 255
-0.200049 0.620995 0.191608 255 0 255
-0.216734 0.432342 0.220900 255 0 255
-0.239398 0.464727 0.302900 255 0 255
-0.232397 0.541994 0.310900 255 0 255
-0.227278 0.656423 0.092900 255 0 255
-0.250283 0.525349 0.344900 255 0 255
-0.194280 0.686614 0.146900 255 0 255
-0.250260 0.490585 0.383653 255 0 255
-0.196628 0.356504 0.144900 255 0 255
-0.242883 0.457954 0.350900 255 0 255
-0.222196 0.400788 0.236900 255 0 255
-0.062938 0.573449 0.109980 255 0 255
-0.151878 0.549416 0.109975 255 0 255
-0.226572 0.671616 0.252900 255 0 255
-0.244944 0.688742 0.348900 255 0 255
-0.242135 0.621762 0.374900 255 0 255
-0.227619 0.664434 0.292900 255 0 255
-0.080100 0.646616 0.118695 255 0 255
-0.207478 0.542832 0.218900 255 0 255
-0.253649 0.611941 0.354900 255 0 255
0.025455 0.421756 0.117470 255 0 255
-0.213863 0.677093 0.208900 255 0 255
-0.221549 0.355667 0.272900 255 0 255
-0.188427 0.420191 0.148900 255 0 255
-0.200647 0.353269 0.160900 255 0 255
0.040567 0.406276 0.110018 255 0 255
-0.239593 0.672339 0.304900 255 0 255
-0.227453 0.356922 0.294900 255 0 255
-0.245516 0.585676 0.326900 255 0 255
-0.174201 0.525535 0.126900 255 0 255
-0.094456 0.627176 0.117657 255 0 255
-0.014134 0.456752 0.118215 255 0 255
-0.056028 0.365468 0.107903 255 0 255
-0.236978 0.401885 0.328900 255 0 255
-0.058024 0.346462 0.094900 255 0 255
-0.240133 0.380064 0.342900 255 0 255
-0.249863 0.588645 0.341478 255 0 255
-0.011667 0.401021 0.110017 255 0 255
-0.190730 0.645595 0.118252 255 0 255
0.050616 0.338120 0.102900 255 0 255
-0.225177 0.661096 0.284900 255 0 255
-0.214854 0.378780 0.246900 255 0 255
-0.203998 0.390786 0.169913 255 0 255
0.012602 0.592152 0.109985 255 0 255
-0.017867 0.602718 0.118126 255 0 255
-0.210468 0.610942 0.194900 255 0 255
0.019520 0.547743 0.109990 255 0 255
0.033744 0.393414 0.107913 255 0 255
0.031730 0.682142 0.110020 255 0 255
-0.028528 0.629520 0.117752 255 0 255
-0.006554 0.434694 0.109973 255 0 255
-0.014295 0.638763 0.117777 255 0 255
0.055688 0.554369 0.118694 255 0 255
-0.229066 0.582180 0.298900 255 0 255
-0.036646 0.639424 0.107925 255 0 255
-0.228871 0.451279 0.264900 255 0 255
-0.095051 0.480086 0.117618 255 0 255
0.026410 0.435866 0.117687 255 0 255
-0.212773 0.366070 0.236900 255 0 255
-0.248445 0.691509 0.376900 255 0 255
-0.066870 0.670385 0.117456 255 0 255
-0.241152 0.648134 0.308900 255 0 255
0.064023 0.497390 0.118382 255 0 255
-0.211929 0.674637 0.234900 255 0 255
0.023253 0.401777 0.109970 255 0 255
-0.042515 0.640672 0.118109 255 0 255
-0.057465 0.474141 0.107937 255 0 255
-0.234146 0.640511 0.280900 255 0 255
-0.242310 0.435733 0.310900 255 0 255
-0.238775 0.663986 0.302900 255 0 255
-0.252235 0.468513 0.348900 255 0 255
-0.195550 0.386945 0.142900 255 0 255
-0.195083 0.336531 0.182900 255 0 255
-0.025258 0.510233 0.118161 255 0 255
-0.244442 0.368712 0.320900 255 0 255
0.062076 0.661379 0.117929 255 0 255
-0.005089 0.393489 0.117861 255 0 255
-0.214445 0.652681 0.246900 255 0 255
-0.072842 0.565331 0.117833 255 0 255
-0.199583 0.382698 0.156900 255 0 255
0.017176 0.613671 0.118365 255 0 255
0.001129 0.518938 0.118213 255 0 255
-0.158833 0.362783 0.118225 255 0 255
0.064515 0.538179 0.118408 255 0 255
-0.117374 0.548215 0.117707 255 0 255
-0.083087 0.594089 0.117825 255 0 255
-0.217143 0.628718 0.254900 255 0 255
0.039783 0.373728 0.117755 255 0 255
-0.018803 0.492504 0.117868 255 0 255
-0.184621 0.386667 0.132900 255 0 255
-0.045463 0.395937 0.117708 255 0 255
-0.139904 0.403743 0.117791 255 0 255
0.050575 0.520696 0.118071 255 0 255
-0.005789 0.563347 0.118343 255 0 255
-0.240687 0.367914 0.304900 255 0 255
-0.009777 0.525345 0.117939 255 0 255
0.014795 0.448558 0.117732 255 0 255
-0.130671 0.649187 0.118333 255 0 255
-0.221224 0.637764 0.270900 255 0 255
-0.188283 0.685969 0.119731 255 0 255
-0.118149 0.679240 0.118267 255 0 255
-0.250143 0.337221 0.364900 255 0 255
-0.141993 0.653638 0.118186 255 0 255
-0.207827 0.473387 0.188900 255 0 255
-0.245983 0.418112 0.362900 255 0 255
-0.135226 0.531563 0.118009 255 0 255
-0.056530 0.584355 0.118114 255 0 255
-0.200038 0.404257 0.160900 255 0 255
-0.069694 0.435847 0.117617 255 0 255
-0.039197 0.492750 0.117990 255 0 255
-0.220240 0.514874 0.228900 255 0 255
-0.163560 0.686848 0.109953 255 0 255
-0.060395 0.556551 0.109960 255 0 255
-0.075998 0.531242 0.109967 255 0 255
-0.235554 0.518129 0.286900 255 0 255
0.025190 0.497466 0.117842 255 0 255
-0.136502 0.458226 0.117814 255 0 255
-0.120379 0.591793 0.118180 255 0 255
0.026750 0.398990 0.118137 255 0 255
-0.202747 0.410966 0.166900 255 0 255
-0.115842 0.382271 0.118188 255 0 255
-0.170364 0.577881 0.109984 255 0 255
-0.039585 0.558262 0.118007 255 0 255
-0.001773 0.668816 0.118333 255 0 255
0.065469 0.552289 0.109977 255 0 255
-0.246208 0.524483 0.328900 255 0 255
-0.166055 0.675110 0.109953 255 0 255
0.034896 0.456554 0.110007 255 0 255
-0.066982 0.400511 0.109991 255 0 255
0.058721 0.578260 0.118081 255 0 255
0.069192 0.666000 0.107907 255 0 255
0.023159 0.459049 0.107969 255 0 255
-0.144865 0.447736 0.109953 255 0 255
0.078502 0.527028 0.109967 255 0 255
0.064392 0.527982 0.109958 255 0 255
0.082782 0.345155 0.096900 255 0 255
-0.045113 0.522633 0.107928 255 0 255
-0.009135 0.643800 0.110014 255 0 255
-0.112677 0.579932 0.109981 255 0 255
-0.073456 0.514344 0.118098 255 0 255
0.021515 0.355119 0.107944 255 0 255
-0.122893 0.676159 0.109965 255 0 255
0.057124 0.445695 0.110017 255 0 255
0.004341 0.687963 0.110022 255 0 255
-0.089617 0.572986 0.118271 255 0 255
-0.129876 0.422058 0.118072 255 0 255
0.011421 0.461544 0.107974 255 0 255
-0.133392 0.520950 0.109978 255 0 255
-0.063940 0.587975 0.110001 255 0 255
0.043704 0.536469 0.117991 255 0 255
-0.033479 0.413836 0.118139 255 0 255
-0.113933 0.410491 0.117775 255 0 255
-0.140017 0.557118 0.109980 255 0 255
0.008840 0.670650 0.107903 255 0 255
0.052654 0.530477 0.109941 255 0 255
0.080477 0.430508 0.107914 255 0 255
-0.027393 0.365515 0.118144 255 0 255
-0.200129 0.461527 0.160900 255 0 255
-0.220561 0.365681 0.230900 255 0 255
-0.232577 0.525675 0.313393 255 0 255
-0.223524 0.625985 0.245133 255 0 255
-0.148261 0.345186 0.096900 255 0 255
-0.258019 0.426804 0.370900 255 0 255
-0.212785 0.546004 0.238900 255 0 255
-0.221640 0.464055 0.272900 255 0 255
-0.226472 0.381250 0.252935 255 0 255
-0.192719 0.412924 0.162900 255 0 255
-0.235476 0.548783 0.286900 255 0 255
-0.216455 0.368897 0.252900 255 0 255
-0.196852 0.505813 0.146900 255 0 255
0.007689 0.694094 0.114900 255 0 255
-0.225606 0.563042 0.248900 255 0 255
-0.245129 0.553202 0.360900 255 0 255
-0.194856 0.513568 0.170900 255 0 255
-0.240994 0.490660 0.344900 255 0 255
-0.234577 0.464760 0.286900 255 0 255
-0.161035 0.342804 0.088080 255 0 255
-0.219999 0.690665 0.293867 255 0 255
-0.241174 0.631781 0.346900 255 0 255
-0.158947 0.516159 0.117947 255 0 255
-0.192765 0.686921 0.128900 255 0 255
-0.225160 0.540456 0.284900 255 0 255
-0.237677 0.338152 0.320900 255 0 255
-0.215576 0.667234 0.214900 255 0 255
-0.243131 0.538142 0.350900 255 0 255
0.004975 0.642846 0.109991 255 0 255
-0.233981 0.448276 0.282900 255 0 255
-0.250803 0.415047 0.346900 255 0 255
-0.185325 0.671027 0.125995 255 0 255
-0.161310 0.678191 0.117931 255 0 255
-0.226275 0.559095 0.290900 255 0 255
-0.169437 0.524522 0.109951 255 0 255
0.036297 0.337665 0.092900 255 0 255
-0.064573 0.633092 0.110025 255 0 255
-0.239734 0.338096 0.338900 255 0 255
-0.236976 0.375304 0.290900 255 0 255
-0.238181 0.499313 0.298900 255 0 255
-0.225229 0.440281 0.284900 255 0 255
-0.243647 0.399213 0.352900 255 0 255
-0.225268 0.479139 0.250900 255 0 255
-0.220760 0.543610 0.268900 255 0 255
-0.232308 0.611494 0.312900 255 0 255
-0.238494 0.555558 0.333505 255 0 255
-0.206779 0.516102 0.214900 255 0 255
-0.239797 0.514942 0.304900 255 0 255
-0.192575 0.454148 0.164900 255 0 255
-0.231949 0.687071 0.292900 255 0 255
-0.206266 0.354463 0.216900 255 0 255
-0.249239 0.379955 0.337254 255 0 255
-0.224364 0.593449 0.280900 255 0 255
-0.211539 0.345361 0.268900 255 0 255
-0.201284 0.555828 0.196900 255 0 255
-0.247415 0.629018 0.384241 255 0 255
-0.055009 0.678087 0.110025 255 0 255
-0.238966 0.418665 0.303328 255 0 255
-0.194033 0.630056 0.134900 255 0 255
-0.257339 0.688145 0.372900 255 0 255
-0.235024 0.597759 0.288900 255 0 255
-0.202596 0.584732 0.198900 255 0 255
-0.239701 0.529234 0.302900 255 0 255
-0.242284 0.476621 0.314900 255 0 255
-0.243448 0.448243 0.352900 255 0 255
-0.201834 0.343249 0.152900 255 0 255
-0.188639 0.337993 0.144900 255 0 255
-0.230708 0.488474 0.304900 255 0 255
-0.218774 0.526831 0.262900 255 0 255
-0.203859 0.358041 0.206900 255 0 255
-0.179419 0.684085 0.114900 255 0 255
-0.207146 0.520269 0.180795 255 0 255
-0.244149 0.658994 0.354900 255 0 255
-0.216781 0.422128 0.254900 255 0 255
-0.235413 0.569216 0.322900 255 0 255
-0.213795 0.599381 0.242900 255 0 255
-0.241544 0.531588 0.344900 255 0 255
-0.085978 0.484291 0.109952 255 0 255
-0.180360 0.573872 0.118900 255 0 255
-0.197304 0.626546 0.144900 255 0 255
-0.200475 0.527030 0.192900 255 0 255
0.069556 0.383757 0.108900 255 0 255
-0.228805 0.416505 0.262900 255 0 255
-0.222021 0.609308 0.274900 255 0 255
-0.193575 0.545637 0.166900 255 0 255
-0.167483 0.379804 0.088900 255 0 255
-0.228356 0.549314 0.296900 255 0 255
-0.193930 0.656499 0.168900 255 0 255
-0.181963 0.542548 0.124900 255 0 255
-0.224454 0.679344 0.282900 255 0 255
-0.222160 0.372154 0.272900 255 0 255
-0.229382 0.388002 0.298900 255 0 255
-0.240044 0.637675 0.340900 255 0 255
-0.191877 0.604945 0.162900 255 0 255
-0.206158 0.477121 0.216900 255 0 255
-0.135235 0.367991 0.109963 255 0 255
-0.196267 0.632459 0.176900 255 0 255
-0.252934 0.544315 0.350900 255 0 255
-0.256603 0.608480 0.368900 255 0 255
-0.232009 0.654369 0.308900 255 0 255
-0.245119 0.591726 0.385140 255 0 255
-0.246581 0.512294 0.330900 255 0 255
-0.242596 0.446017 0.374900 255 0 255
-0.214761 0.615943 0.248900 255 0 255
-0.152218 0.586292 0.118070 255 0 255
-0.179456 0.669780 0.115899 255 0 255
-0.217374 0.587582 0.254900 255 0 255
-0.138326 0.632412 0.109932 255 0 255
-0.220796 0.576333 0.234900 255 0 255
-0.239068 0.385972 0.302900 255 0 255
-0.193507 0.396734 0.132900 255 0 255
-0.242010 0.388642 0.310900 255 0 255
-0.221510 0.337257 0.298749 255 0 255
-0.128582 0.687876 0.116900 255 0 255
-0.230148 0.467908 0.266900 255 0 255
-0.186382 0.666053 0.138900 255 0 255
-0.234605 0.648787 0.320900 255 0 255
-0.214583 0.456421 0.245595 255 0 255
-0.180800 0.600546 0.122900 255 0 255
-0.255824 0.474027 0.364900 255 0 255
-0.173039 0.386250 0.124900 255 0 255
-0.182684 0.447595 0.124900 255 0 255
-0.204872 0.694495 0.186900 255 0 255
-0.208776 0.430650 0.190900 255 0 255
-0.226617 0.655268 0.254900 255 0 255
-0.225607 0.536462 0.254900 255 0 255
-0.247256 0.404070 0.366900 255 0 255
-0.190338 0.404239 0.154900 255 0 255
-0.140793 0.688142 0.109916 255 0 255
-0.179308 0.372271 0.112900 255 0 255
-0.153427 0.388215 0.109970 255 0 255
-0.182358 0.506822 0.124900 255 0 255
-0.214709 0.417598 0.244900 255 0 255
-0.203037 0.525530 0.166900 255 0 255
0.066878 0.376147 0.118348 255 0 255
0.074958 0.558451 0.118649 255 0 255
-0.226391 0.343151 0.328900 255 0 255
0.065790 0.611517 0.110030 255 0 255
-0.243381 0.686476 0.338900 255 0 255
0.048780 0.339101 0.092523 255 0 255
-0.195620 0.415586 0.174900 255 0 255
0.021959 0.337969 0.114900 255 0 255
-0.228211 0.508390 0.258900 255 0 255
-0.216166 0.524232 0.214900 255 0 255
-0.120133 0.612187 0.117793 255 0 255
-0.238039 0.344859 0.284900 255 0 255
-0.231468 0.607850 0.274900 255 0 255
-0.027895 0.584403 0.118292 255 0 255
-0.033848 0.383245 0.117818 255 0 255
-0.230449 0.535690 0.266900 255 0 255
-0.215410 0.567009 0.210900 255 0 255
-0.249593 0.392298 0.374900 255 0 255
-0.205048 0.337749 0.182900 255 0 255
-0.198829 0.379463 0.186900 255 0 255
-0.156622 0.546335 0.117455 255 0 255
-0.212590 0.687046 0.228026 255 0 255
-0.223494 0.337544 0.256900 255 0 255
-0.242018 0.510118 0.376900 255 0 255
-0.189987 0.355093 0.154900 255 0 255
-0.205035 0.419632 0.208900 255 0 255
-0.041711 0.577116 0.117766 255 0 255
-0.152143 0.625125 0.117663 255 0 255
-0.250801 0.347572 0.342900 255 0 255
-0.220056 0.694767 0.234900 255 0 255
-0.244566 0.469275 0.320900 255 0 255
-0.237808 0.337538 0.300900 255 0 255
-0.251270 0.341538 0.383030 255 0 255
-0.254068 0.515930 0.354900 255 0 255
0.084976 0.413194 0.111968 255 0 255
0.038762 0.484358 0.117821 255 0 255
-0.204371 0.408270 0.174900 255 0 255
-0.172912 0.668389 0.122900 255 0 255
-0.224365 0.413517 0.280900 255 0 255
-0.228202 0.369349 0.260900 255 0 255
-0.097640 0.525619 0.117731 255 0 255
-0.242324 0.638160 0.376900 255 0 255
-0.062711 0.689948 0.117318 255 0 255
-0.048194 0.527377 0.117636 255 0 255
-0.129603 0.509921 0.117772 255 0 255
-0.122656 0.532981 0.118409 255 0 255
-0.249481 0.609680 0.340900 255 0 255
0.034745 0.378888 0.109984 255 0 255
-0.114066 0.659970 0.117959 255 0 255
0.057200 0.484528 0.118494 255 0 255
-0.039376 0.347615 0.110015 255 0 255
-0.173793 0.498867 0.126900 255 0 255
-0.009881 0.419044 0.109996 255 0 255
-0.024898 0.377253 0.117470 255 0 255
0.008952 0.435487 0.108900 255 0 255
-0.209629 0.629166 0.192900 255 0 255
-0.167556 0.485274 0.117760 255 0 255
-0.233249 0.480835 0.280900 255 0 255
-0.247230 0.453136 0.366900 255 0 255
-0.247717 0.473687 0.383467 255 0 255
-0.202504 0.672634 0.200900 255 0 255
-0.051965 0.442302 0.118867 255 0 255
-0.093538 0.410245 0.109999 255 0 255
0.072934 0.491407 0.118900 255 0 255
0.036833 0.552242 0.118229 255 0 255
-0.020211 0.668646 0.117402 255 0 255
0.038988 0.600856 0.118069 255 0 255
-0.087812 0.494904 0.117811 255 0 255
-0.215347 0.337393 0.258900 255 0 255
-0.033177 0.569168 0.118019 255 0 255
0.043865 0.354458 0.117547 255 0 255
-0.226117 0.516123 0.286900 255 0 255
-0.087585 0.611403 0.118521 255 0 255
-0.064261 0.528747 0.117937 255 0 255
-0.258841 0.527168 0.380971 255 0 255
0.066792 0.337265 0.092900 255 0 255
-0.055944 0.567873 0.118226 255 0 255
0.061793 0.409943 0.117457 255 0 255
-0.195088 0.456366 0.140900 255 0 255
0.010958 0.488223 0.117814 255 0 255
-0.111778 0.459105 0.117542 255 0 255
0.005485 0.587531 0.117556 255 0 255
-0.221713 0.637868 0.236900 255 0 255
-0.164277 0.529560 0.118299 255 0 255
0.000562 0.439316 0.117622 255 0 255
-0.040085 0.353900 0.117526 255 0 255
-0.118035 0.525865 0.117427 255 0 255
-0.038999 0.541780 0.118486 255 0 255
-0.030579 0.687207 0.117330 255 0 255
-0.217284 0.337901 0.230900 255 0 255
-0.232927 0.398979 0.314113 255 0 255
0.055007 0.628122 0.117884 255 0 255
-0.079920 0.368501 0.118121 255 0 255
-0.109869 0.487325 0.117848 255 0 255
-0.262096 0.390866 0.376900 255 0 255
-0.154136 0.394500 0.118049 255 0 255
0.063532 0.456601 0.117927 255 0 255
-0.134573 0.390342 0.118167 255 0 255
-0.191178 0.590484 0.120900 255 0 255
0.021136 0.584204 0.117948 255 0 255
-0.091412 0.391391 0.117909 255 0 255
0.030945 0.649594 0.118353 255 0 255
0.063172 0.589582 0.118319 255 0 255
-0.232883 0.415327 0.278900 255 0 255
-0.027781 0.431027 0.117871 255 0 255
-0.058788 0.429439 0.118318 255 0 255
-0.071575 0.475096 0.107925 255 0 255
0.045811 0.613719 0.117682 255 0 255
-0.253897 0.587458 0.358900 255 0 255
0.039716 0.498468 0.117647 255 0 255
-0.055670 0.655736 0.118366 255 0 255
-0.049933 0.480719 0.118234 255 0 255
0.048808 0.406569 0.118221 255 0 255
-0.154685 0.642023 0.118001 255 0 255
-0.018566 0.349326 0.117842 255 0 255
0.048269 0.394416 0.118219 255 0 255
0.039848 0.672238 0.118047 255 0 255
-0.169153 0.352709 0.117713 255 0 255
-0.247168 0.342710 0.324900 255 0 255
0.039423 0.506709 0.118392 255 0 255
-0.103065 0.596291 0.117477 255 0 255
-0.001754 0.572712 0.118338 255 0 255
-0.108527 0.435922 0.117710 255 0 255
0.000118 0.369891 0.117712 255 0 255
-0.057579 0.627516 0.118365 255 0 255
-0.025135 0.520431 0.117957 255 0 255
-0.161035 0.342804 0.117965 255 0 255
-0.258811 0.555787 0.380900 255 0 255
-0.141709 0.481824 0.117736 255 0 255
-0.113508 0.576019 0.118044 255 0 255
-0.014455 0.397525 0.118042 255 0 255
0.001706 0.338883 0.117909 255 0 255
-0.023159 0.423911 0.118020 255 0 255
-0.092603 0.520459 0.110048 255 0 255
0.054752 0.444155 0.117915 255 0 255
-0.063920 0.491871 0.118178 255 0 255
-0.092944 0.345705 0.098900 255 0 255
-0.192514 0.382211 0.126900 255 0 255
-0.162274 0.500508 0.118022 255 0 255
-0.128129 0.632289 0.109945 255 0 255
-0.053676 0.463112 0.109955 255 0 255
-0.022375 0.456459 0.117667 255 0 255
-0.047201 0.349279 0.117658 255 0 255
-0.140782 0.428466 0.109922 255 0 255
0.015088 0.440317 0.117972 255 0 255
-0.126351 0.486739 0.109925 255 0 255
-0.097233 0.364003 0.117458 255 0 255
-0.197692 0.573466 0.180900 255 0 255
-0.153976 0.635738 0.109964 255 0 255
-0.175315 0.362197 0.109978 255 0 255
-0.180137 0.526797 0.118900 255 0 255
-0.112412 0.504223 0.118010 255 0 255
-0.082208 0.569366 0.110048 255 0 255
-0.104662 0.463726 0.117864 255 0 255
0.047101 0.345591 0.106900 255 0 255
-0.070403 0.442132 0.107939 255 0 255
-0.193452 0.521448 0.138900 255 0 255
-0.130775 0.542885 0.109922 255 0 255
-0.117686 0.652561 0.118102 255 0 255
0.065109 0.685270 0.117777 255 0 255
-0.050472 0.468565 0.118297 255 0 255
-0.122221 0.438833 0.109943 255 0 255
-0.067029 0.429146 0.107937 255 0 255
-0.113291 0.528946 0.109998 255 0 255
-0.019833 0.439561 0.117958 255 0 255
-0.000950 0.509156 0.107920 255 0 255
-0.088813 0.509430 0.117763 255 0 255
0.047711 0.478366 0.109986 255 0 255
-0.071840 0.550805 0.118142 255 0 255
-0.122213 0.602406 0.109941 255 0 255
-0.095826 0.611110 0.110016 255 0 255
-0.145895 0.394793 0.109948 255 0 255
0.041351 0.438824 0.109919 255 0 255
-0.108669 0.521829 0.109974 255 0 255
-0.102451 0.647278 0.110002 255 0 255
-0.153257 0.369777 0.109934 255 0 255
-0.117128 0.568610 0.109958 255 0 255
-0.118470 0.620012 0.109931 255 0 255
-0.062446 0.614238 0.109993 255 0 255
0.033875 0.567184 0.107974 255 0 255
0.028073 0.443691 0.107957 255 0 255
-0.046408 0.545399 0.117863 255 0 255
-0.262117 0.613741 0.376900 255 0 255
-0.125920 0.344476 0.094900 255 0 255
-0.042061 0.450420 0.110031 255 0 255
-0.077293 0.554009 0.109954 255 0 255
-0.015457 0.412050 0.107944 255 0 255
-0.128204 0.593456 0.109960 255 0 255
-0.157228 0.658921 0.109949 255 0 255
0.007971 0.435696 0.117879 255 0 255
-0.027435 0.346078 0.090900 255 0 255
-0.118102 0.650604 0.109970 255 0 255
-0.035974 0.402099 0.117424 255 0 255
-0.018113 0.582323 0.110022 255 0 255
-0.002566 0.472695 0.107944 255 0 255
-0.116542 0.552128 0.109942 255 0 255
-0.109141 0.384936 0.110007 255 0 255
0.057209 0.648101 0.107918 255 0 255
0.041937 0.422342 0.109987 255 0 255
-0.164286 0.365987 0.110013 255 0 255
0.039763 0.469832 0.109937 255 0 255
-0.148636 0.362660 0.109996 255 0 255
-0.044650 0.495953 0.109971 255 0 255
0.067699 0.639737 0.107940 255 0 255
-0.127627 0.413401 0.109987 255 0 255
-0.085420 0.400341 0.107941 255 0 255
-0.156519 0.652636 0.118384 255 0 255
0.034272 0.665244 0.118076 255 0 255
-0.161782 0.541297 0.109959 255 0 255
-0.180740 0.432870 0.119924 255 0 255
-0.050028 0.537990 0.107939 255 0 255
-0.004315 0.685714 0.118256 255 0 255
0.031522 0.469539 0.118214 255 0 255
-0.129433 0.491483 0.118031 255 0 255
-0.122807 0.455315 0.109974 255 0 255
-0.098330 0.435800 0.117945 255 0 255
-0.169088 0.651218 0.109944 255 0 255
-0.093633 0.467516 0.109968 255 0 255
0.075686 0.456062 0.109921 255 0 255
0.000269 0.447557 0.117976 255 0 255
-0.147229 0.609768 0.109959 255 0 255
-0.076462 0.557921 0.117899 255 0 255
-0.049668 0.405009 0.110000 255 0 255
-0.136549 0.486862 0.109952 255 0 255
-0.048005 0.412835 0.118280 255 0 255
0.036144 0.462423 0.118258 255 0 255
-0.098690 0.568780 0.109962 255 0 255
-0.006847 0.442935 0.107961 255 0 255
-0.096175 0.484414 0.109970 255 0 255
-0.017546 0.661946 0.107937 255 0 255
-0.179895 0.518567 0.112900 255 0 255
-0.137787 0.644565 0.109915 255 0 255
-0.096960 0.451866 0.117999 255 0 255
-0.097527 0.372244 0.110007 255 0 255
0.069183 0.502428 0.109975 255 0 255
0.079475 0.445034 0.109942 255 0 255
0.002320 0.389870 0.107918 255 0 255
-0.089919 0.417654 0.109978 255 0 255
-0.131776 0.557411 0.109938 255 0 255
-0.083389 0.438758 0.109951 255 0 255
-0.255358 0.550964 0.368900 255 0 255
0.065422 0.580925 0.109945 255 0 255
-0.203543 0.474521 0.170900 255 0 255
-0.216872 0.512986 0.218900 255 0 255
-0.233521 0.431820 0.282900 255 0 255
-0.199828 0.518714 0.190900 255 0 255
-0.183566 0.621581 0.125931 255 0 255
-0.228041 0.686241 0.276900 255 0 255
-0.186593 0.542482 0.142900 255 0 255
-0.178279 0.651127 0.110900 255 0 255
-0.201690 0.694952 0.168900 255 0 255
-0.183556 0.361904 0.126022 255 0 255
-0.209747 0.536891 0.190900 255 0 255
-0.209925 0.680345 0.250699 255 0 255
-0.214863 0.556669 0.248900 255 0 255
-0.242484 0.604120 0.376900 255 0 255
-0.235704 0.460910 0.322900 255 0 255
-0.228949 0.479921 0.298900 255 0 255
-0.205614 0.556748 0.212900 255 0 255
-0.254291 0.546648 0.358900 255 0 255
-0.093974 0.504393 0.109983 255 0 255
-0.248795 0.449380 0.384129 255 0 255
-0.195729 0.343115 0.208900 255 0 255
-0.186091 0.349980 0.162900 255 0 255
-0.261573 0.400979 0.376900 255 0 255
0.075250 0.550210 0.118260 255 0 255
-0.003928 0.620202 0.117976 255 0 255
-0.172737 0.688798 0.120900 255 0 255
-0.166188 0.362302 0.088900 255 0 255
-0.174218 0.558253 0.128900 255 0 255
-0.186643 0.507733 0.140900 255 0 255
-0.214080 0.399062 0.244900 255 0 255
-0.185621 0.558633 0.138900 255 0 255
-0.175559 0.677130 0.130900 255 0 255
-0.248275 0.557637 0.337719 255 0 255
-0.207164 0.337414 0.218900 255 0 255
-0.188850 0.637017 0.150900 255 0 255
-0.211318 0.337108 0.208900 255 0 255
-0.179790 0.557393 0.116900 255 0 255
-0.236605 0.659436 0.328900 255 0 255
-0.157536 0.556752 0.110900 255 0 255
-0.234581 0.497008 0.282900 255 0 255
-0.133705 0.625295 0.118131 255 0 255
-0.249226 0.674386 0.342900 255 0 255
-0.192011 0.420953 0.160900 255 0 255
-0.206971 0.528411 0.182900 255 0 255
-0.245249 0.494920 0.372900 255 0 255
-0.158144 0.452603 0.109936 255 0 255
-0.229183 0.586294 0.262900 255 0 255
-0.203779 0.690021 0.232900 255 0 255
-0.222257 0.535750 0.241382 255 0 255
-0.174919 0.460258 0.112054 255 0 255
-0.129301 0.665253 0.117595 255 0 255
-0.171327 0.400199 0.117886 255 0 255
-0.188574 0.516322 0.148900 255 0 255
-0.048186 0.690950 0.117340 255 0 255
-0.255851 0.442701 0.364900 255 0 255
-0.221483 0.584657 0.270900 255 0 255
0.040821 0.590243 0.110050 255 0 255
0.049441 0.361451 0.110009 255 0 255
0.020502 0.629322 0.110020 255 0 255
-0.221728 0.384331 0.237934 255 0 255
0.076158 0.592956 0.109967 255 0 255
-0.203235 0.537840 0.202900 255 0 255
-0.257303 0.512529 0.370900 255 0 255
-0.177556 0.534427 0.109920 255 0 255
-0.193539 0.505109 0.168900 255 0 255
-0.193536 0.531689 0.168900 255 0 255
-0.207297 0.442604 0.183905 255 0 255
-0.230044 0.345205 0.339531 255 0 255
-0.209649 0.344959 0.222660 255 0 255
-0.013614 0.565010 0.107903 255 0 255
-0.116475 0.427388 0.107903 255 0 255
0.060716 0.385636 0.107907 255 0 255
-0.140235 0.604192 0.109936 255 0 255
-0.205086 0.626155 0.177590 255 0 255
-0.237032 0.596141 0.330900 255 0 255
-0.218729 0.383693 0.260900 255 0 255
-0.188565 0.434533 0.149483 255 0 255
-0.211532 0.688866 0.262900 255 0 255
-0.042590 0.616152 0.108900 255 0 255
-0.208690 0.518553 0.222900 255 0 255
-0.200698 0.478005 0.162900 255 0 255
-0.175929 0.362328 0.132900 255 0 255
-0.248307 0.629208 0.336900 255 0 255
-0.180665 0.471702 0.117913 255 0 255
-0.228242 0.680744 0.322900 255 0 255
-0.257253 0.496161 0.369727 255 0 255
-0.153358 0.576311 0.110900 255 0 255
0.017178 0.531884 0.108900 255 0 255
-0.193024 0.437525 0.128900 255 0 255
-0.188221 0.411968 0.124900 255 0 255
-0.205358 0.689598 0.240900 255 0 255
-0.257655 0.488067 0.380900 255 0 255
0.028470 0.541752 0.107974 255 0 255
-0.256647 0.573730 0.366900 255 0 255
-0.208847 0.588106 0.190900 255 0 255
-0.240475 0.455790 0.380900 255 0 255
-0.247543 0.651537 0.334900 255 0 255
-0.188735 0.452971 0.123976 255 0 255
-0.254482 0.355284 0.374900 255 0 255
-0.220156 0.473963 0.264900 255 0 255
-0.254382 0.503729 0.360900 255 0 255
-0.218763 0.400058 0.260900 255 0 255
-0.179891 0.388765 0.116900 255 0 255
-0.212851 0.376310 0.238900 255 0 255
-0.237025 0.630899 0.330900 255 0 255
-0.220930 0.453680 0.232900 255 0 255
-0.198915 0.459224 0.186900 255 0 255
-0.222751 0.509274 0.242900 255 0 255
-0.250449 0.605127 0.377945 255 0 255
-0.243559 0.493250 0.317907 255 0 255
-0.200959 0.337746 0.164900 255 0 255
-0.015297 0.653289 0.118882 255 0 255
-0.157275 0.687556 0.117805 255 0 255
-0.172169 0.655963 0.093066 255 0 255
-0.257820 0.416538 0.381350 255 0 255
-0.175162 0.601392 0.130900 255 0 255
-0.186441 0.528137 0.138900 255 0 255
0.054790 0.694437 0.114900 255 0 255
-0.253898 0.464777 0.356900 255 0 255
-0.112157 0.688190 0.117182 255 0 255
-0.215518 0.346207 0.242514 255 0 255
-0.195639 0.679354 0.138900 255 0 255
-0.254044 0.617074 0.376900 255 0 255
-0.015372 0.614456 0.117730 255 0 255
-0.206240 0.447574 0.214900 255 0 255
-0.188072 0.667720 0.146900 255 0 255
-0.198695 0.550407 0.152900 255 0 255
-0.216689 0.571567 0.254900 255 0 255
-0.231182 0.627613 0.270900 255 0 255
-0.197015 0.644886 0.142356 255 0 255
-0.239918 0.346851 0.330900 255 0 255
0.025487 0.344951 0.094900 255 0 255
0.071999 0.573393 0.118239 255 0 255
-0.116807 0.627838 0.118537 255 0 255
-0.235437 0.346351 0.314900 255 0 255
-0.204773 0.521810 0.209107 255 0 255
-0.239515 0.666188 0.338240 255 0 255
-0.126787 0.580887 0.117481 255 0 255
-0.132920 0.657844 0.117765 255 0 255
-0.248747 0.420744 0.384165 255 0 255
-0.247281 0.592186 0.368900 255 0 255
0.000543 0.535420 0.118648 255 0 255
-0.192564 0.656208 0.126473 255 0 255
-0.063438 0.369087 0.118357 255 0 255
-0.038773 0.658279 0.118288 255 0 255
-0.149799 0.559197 0.117991 255 0 255
-0.229519 0.338959 0.264900 255 0 255
0.011600 0.606678 0.118315 255 0 255
-0.206210 0.630483 0.213470 255 0 255
-0.129338 0.434212 0.117982 255 0 255
-0.001347 0.411096 0.117341 255 0 255
-0.122099 0.449030 0.118407 255 0 255
-0.083369 0.342654 0.118189 255 0 255
-0.226709 0.524428 0.252196 255 0 255
-0.234840 0.497530 0.320900 255 0 255
0.006222 0.648715 0.117827 255 0 255
-0.080393 0.654857 0.117751 255 0 255
-0.243709 0.683437 0.322900 255 0 255
0.069231 0.473792 0.117774 255 0 255
-0.153248 0.533349 0.118285 255 0 255
-0.144279 0.431254 0.117880 255 0 255
-0.153569 0.474122 0.118137 255 0 255
0.042437 0.626704 0.117885 255 0 255
-0.098992 0.413449 0.118051 255 0 255
-0.161253 0.389878 0.117929 255 0 255
-0.014002 0.630522 0.118080 255 0 255
-0.051379 0.425820 0.117828 255 0 255
-0.207126 0.337592 0.190900 255 0 255
-0.237994 0.688356 0.310900 255 0 255
0.017432 0.374389 0.117889 255 0 255
-0.120728 0.465097 0.117816 255 0 255
0.001696 0.598560 0.117959 255 0 255
-0.198261 0.342538 0.144900 255 0 255
0.052059 0.383387 0.118039 255 0 255
-0.147625 0.511707 0.118057 255 0 255
-0.073512 0.379407 0.118074 255 0 255
-0.046475 0.670139 0.117851 255 0 255
-0.029047 0.521263 0.110011 255 0 255
-0.109719 0.564990 0.109925 255 0 255
-0.085099 0.459568 0.117993 255 0 255
-0.071103 0.611989 0.117858 255 0 255
-0.089843 0.456487 0.109979 255 0 255
-0.051956 0.605874 0.109988 255 0 255
0.030359 0.666076 0.107904 255 0 255
-0.063496 0.657400 0.110048 255 0 255
0.012517 0.389747 0.117969 255 0 255
-0.093842 0.678163 0.109991 255 0 255
-0.037969 0.594723 0.107939 255 0 255
-0.207204 0.456897 0.188900 255 0 255
-0.055320 0.359183 0.117781 255 0 255
-0.229142 0.598553 0.262900 255 0 255
0.036730 0.445941 0.117980 255 0 255
-0.068145 0.597047 0.118178 255 0 255
-0.068636 0.556258 0.109952 255 0 255
0.061434 0.542924 0.109900 255 0 255
0.076205 0.564320 0.110000 255 0 255
-0.022233 0.370552 0.107961 255 0 255
-0.078881 0.585017 0.109969 255 0 255
-0.106401 0.417068 0.110000 255 0 255
-0.077681 0.619521 0.117993 255 0 255
-0.026231 0.592228 0.109986 255 0 255
-0.156698 0.507502 0.109945 255 0 255
-0.164079 0.578590 0.118677 255 0 255
-0.128894 0.503636 0.109977 255 0 255
-0.112761 0.377527 0.109974 255 0 255
-0.144846 0.351632 0.109955 255 0 255
0.026504 0.378595 0.118044 255 0 255
-0.152927 0.592577 0.109943 255 0 255
0.007112 0.364315 0.117975 255 0 255
0.006696 0.362359 0.107923 255 0 255
-0.036343 0.371507 0.110022 255 0 255
-0.119358 0.481163 0.109957 255 0 255
-0.075686 0.426897 0.107923 255 0 255
0.019841 0.606971 0.107920 255 0 255
-0.107366 0.662635 0.109931 255 0 255
-0.097054 0.509137 0.117763 255 0 255
0.002396 0.428702 0.107956 255 0 255
-0.140291 0.469255 0.109956 255 0 255
-0.089701 0.370580 0.107918 255 0 255
-0.017385 0.479935 0.117883 255 0 255
-0.125057 0.463972 0.109988 255 0 255
-0.001668 0.351868 0.117751 255 0 255
-0.089589 0.640454 0.109968 255 0 255
0.010438 0.379965 0.107918 255 0 255
-0.028745 0.676594 0.107925 255 0 255
-0.082169 0.377158 0.107930 255 0 255
-0.156773 0.468669 0.109940 255 0 255
-0.001584 0.554274 0.107941 255 0 255
-0.097281 0.392638 0.109975 255 0 255
-0.132731 0.543301 0.118055 255 0 255
-0.027563 0.383953 0.107920 255 0 255
-0.168039 0.608057 0.109949 255 0 255
0.025096 0.554737 0.107922 255 0 255
0.083520 0.617972 0.111982 255 0 255
-0.235079 0.350374 0.344900 255 0 255
-0.228088 0.422487 0.296900 255 0 255
-0.223811 0.624637 0.280900 255 0 255
-0.220538 0.678512 0.267560 255 0 255
-0.167878 0.426046 0.117687 255 0 255
-0.243615 0.358313 0.317929 255 0 255
0.068134 0.545589 0.117976 255 0 255
-0.257879 0.375657 0.374900 255 0 255
-0.240117 0.519065 0.340900 255 0 255
-0.257660 0.657777 0.381110 255 0 255
-0.252037 0.636135 0.350419 255 0 255
-0.185928 0.693647 0.166900 255 0 255
-0.201249 0.403718 0.194900 255 0 255
-0.206073 0.350333 0.232900 255 0 255
-0.010448 0.339422 0.118038 255 0 255
-0.252600 0.412240 0.368900 255 0 255
-0.172656 0.443419 0.122900 255 0 255
-0.221473 0.568298 0.269594 255 0 255
-0.113943 0.670167 0.117673 255 0 255
