ply
format ascii 1.0
element vertex 1196
property float x
property float y
property float z
property uchar red
property uchar green
property uchar blue
end_header
-2.010695 0.196700 -0.841224 134 125 131
-1.999394 0.224311 -0.842281 125 116 113
-2.009313 0.213169 -0.858526 133 122 126
-2.006263 0.209410 -0.848309 130 119 122
-1.958533 0.314491 -0.845518 119 106 96
-1.952323 0.332510 -0.853323 110 94 80
-1.983082 0.303441 -1.000448 67 65 78
-1.968187 0.320061 -1.024055 68 68 80
-1.983004 0.293233 -1.015929 68 67 82
-1.984783 0.312509 -1.088936 70 68 78
-1.994673 0.320700 -1.088936 73 70 79
-2.016513 0.298392 -1.092307 71 70 81
-1.966061 0.344523 -1.089013 65 65 75
-1.957273 0.362269 -1.090621 69 68 79
-1.975055 0.325158 -1.087780 72 71 81
-1.329647 -0.239799 -1.083905 43 31 16
-1.663538 -0.394482 -1.090201 83 72 64
-1.655977 -0.416155 -1.093542 76 66 59
-1.664791 -0.404862 -1.091995 82 71 64
-1.646880 -0.404683 -1.095332 64 56 53
-1.654391 -0.398654 -1.096112 72 63 61
-1.898749 -0.235612 -0.756137 157 153 165
-1.922402 -0.226917 -0.757185 161 159 173
-1.889243 -0.235876 -0.769168 182 188 215
-1.904879 -0.219818 -0.739591 118 107 102
-1.512845 0.013829 -0.710158 215 220 249
-1.540596 0.030113 -0.711115 217 225 251
-1.560240 -0.464203 -1.090014 78 65 54
-1.546207 -0.458353 -1.088565 73 61 47
-1.568301 -0.435067 -1.089510 75 61 51
-1.835065 0.079589 -0.712772 220 227 255
-1.816158 0.085189 -0.712341 222 228 254
-1.477167 -0.432645 -0.774179 128 118 128
-1.484270 -0.421067 -0.761914 138 129 139
-1.924797 0.131503 -0.713220 161 167 181
-1.379177 -0.351831 -1.082618 44 30 17
-1.351563 -0.333287 -1.082206 44 31 17
-1.368831 -0.322631 -1.080166 43 32 19
-1.325952 -0.202264 -0.753546 67 56 46
-1.335540 -0.219723 -0.751258 65 54 45
-1.332669 -0.195969 -0.738317 79 63 49
-1.289585 -0.110027 -0.770057 49 41 39
-1.391352 -0.283488 -1.038888 28 19 7
-1.400042 -0.313162 -1.025615 26 17 7
-1.262170 -0.042636 -0.783031 50 44 41
-1.269326 -0.039494 -0.799613 43 40 37
-1.264398 -0.049807 -0.775721 53 47 41
-1.917249 0.146661 -0.711594 203 210 224
-1.938079 0.152907 -0.713553 149 157 176
-1.351618 -0.265021 -0.801399 44 45 47
-1.351273 -0.271969 -0.787691 46 39 36
-1.357266 -0.289030 -0.781911 49 42 36
-1.344945 -0.257976 -0.786986 42 39 38
-1.641461 -0.471612 -1.091681 80 65 57
-1.560935 0.043290 -0.711316 217 224 252
-1.350534 -0.216846 -0.879321 39 31 24
-1.364134 -0.245113 -0.872685 35 26 17
-1.435210 -0.409254 -0.893577 61 46 30
-1.440751 -0.418364 -0.871098 104 90 72
-1.431193 -0.403982 -0.858106 110 97 79
-1.585281 -0.116708 -0.716256 227 236 254
-1.580817 -0.150042 -0.714033 228 237 255
-1.563294 -0.146967 -0.714450 227 237 254
-1.542691 -0.155679 -0.714162 228 237 254
-1.246819 0.163264 -1.085626 154 144 153
-1.432873 -0.353916 -0.715642 148 144 167
-1.426164 -0.318472 -0.713709 162 150 149
-1.455046 -0.007381 -0.708411 233 249 255
-1.422793 -0.007059 -0.707700 233 251 254
-1.494073 -0.430462 -1.068987 43 34 25
-1.487750 -0.427618 -1.084623 31 22 10
-1.500467 -0.438328 -1.087831 38 28 20
-1.257578 0.052772 -1.043455 17 9 1
-1.268303 0.032671 -1.051466 10 4 1
-1.248898 0.016950 -0.738596 83 67 56
-1.240251 0.017614 -0.755466 70 58 51
-1.235659 0.034441 -0.751732 68 58 48
-1.235467 0.028416 -0.767816 56 50 42
-1.305920 0.122436 -1.029251 47 44 41
-1.736867 0.133971 -0.713445 216 221 253
-1.721675 0.118264 -0.713907 215 223 252
-1.300541 -0.037813 -0.715536 129 114 115
-1.590183 -0.006753 -0.714177 222 232 253
-1.431714 -0.433480 -0.750632 124 114 125
-1.453913 -0.438898 -0.754068 125 115 124
-1.438479 -0.440401 -0.754629 140 129 141
-1.429088 -0.439714 -0.767578 140 129 141
-1.314385 -0.303151 -1.086959 45 34 19
-1.284814 -0.098347 -0.754261 62 54 42
-1.283517 -0.080876 -0.737190 69 59 46
-1.316891 -0.219032 -1.087065 43 31 16
-1.318246 -0.184762 -1.086439 43 32 19
-1.446835 -0.415372 -0.937689 55 39 24
-1.764592 -0.011788 -0.715710 222 233 255
-1.315515 -0.164923 -0.746840 72 58 49
-1.310744 -0.162704 -0.759418 60 51 43
-1.455609 -0.409347 -1.015770 33 24 15
-1.454902 -0.406165 -1.026952 32 24 13
-1.447821 -0.407073 -1.000401 46 34 24
-1.319494 -0.156585 -0.919656 26 21 13
-1.426908 -0.208100 -0.708840 216 230 255
-1.359890 -0.228065 -0.864424 35 29 17
-1.481665 -0.432489 -0.952605 46 35 24
-1.470372 -0.426253 -0.939053 44 32 19
-1.462600 -0.421297 -0.959697 49 37 27
-1.450922 -0.415824 -0.953534 48 37 30
-1.521570 -0.383557 -0.763471 132 126 134
-1.498936 -0.407858 -0.751931 138 135 145
-1.507801 -0.396822 -0.759315 137 133 142
-1.504755 -0.408990 -0.740355 139 133 146
-1.489919 -0.414690 -0.738447 136 131 144
-1.915971 -0.223721 -0.763909 158 154 165
-1.925053 -0.211765 -0.739460 104 93 82
-1.555701 -0.441235 -1.087311 65 54 48
-1.317884 -0.193588 -0.784716 44 42 42
-1.365502 0.029160 -0.708414 217 227 255
-1.358555 -0.162649 -0.713167 141 121 131
-1.332067 -0.159398 -0.719972 125 102 97
-1.326868 -0.188493 -0.728683 100 79 66
-1.324680 -0.169300 -0.736207 88 70 56
-1.342703 -0.178362 -0.719449 121 99 91
-1.325165 -0.165237 -0.723629 117 94 85
-1.289550 -0.064069 -0.998830 12 6 2
-1.315372 0.145029 -0.880404 35 35 38
-1.307623 0.141380 -0.859370 34 32 27
-1.322152 0.149075 -0.876536 33 31 28
-1.311715 0.144758 -0.888429 48 49 52
-1.243471 0.119072 -0.953763 164 157 163
-1.236407 0.112116 -0.962601 162 151 158
-1.233242 0.107212 -0.947716 178 175 194
-1.390540 -0.262665 -1.061429 29 20 10
-1.242191 0.042253 -0.896814 28 21 12
-1.234234 0.063345 -0.884331 30 23 13
-1.306950 0.116291 -0.896080 156 152 166
-1.306628 0.115335 -0.905504 175 174 200
-1.304291 0.119869 -0.926073 169 165 189
-1.312250 0.120660 -0.905575 178 175 200
-1.773577 -0.279614 -0.745961 166 170 199
-1.779739 -0.283584 -0.756117 167 173 203
-1.808453 -0.258420 -0.739085 163 169 199
-1.793296 -0.279860 -0.757623 166 172 201
-1.785354 -0.276971 -0.765489 170 176 203
-1.789245 -0.263860 -0.737502 170 174 195
-1.415795 -0.390978 -0.839417 183 179 171
-1.759304 0.084668 -0.713380 219 226 253
-1.380982 -0.221519 -1.080348 30 20 10
-1.371609 -0.212271 -1.089826 31 19 9
-1.358478 -0.245837 -1.080014 42 31 19
-1.351243 -0.229584 -1.082261 37 27 15
-1.365384 -0.229236 -1.087180 45 32 18
-1.314699 -0.181188 -0.794396 42 42 48
-1.310890 -0.168338 -0.793419 42 42 48
-1.312633 -0.174386 -0.782122 43 42 39
-1.272409 -0.079981 -1.088869 45 32 18
-1.684327 -0.316696 -0.761539 159 160 182
-1.675434 -0.318315 -0.741980 167 166 192
-1.694530 -0.312760 -0.743403 165 164 187
-1.709181 -0.304396 -0.742792 170 169 196
-1.716418 -0.060199 -0.717202 224 234 254
-1.721813 -0.082860 -0.716617 222 234 253
-1.444150 -0.445484 -0.798537 112 99 101
-1.772558 -0.279321 -0.763003 166 170 193
-1.746296 -0.292729 -0.761815 166 171 198
-1.763413 -0.285599 -0.761717 168 175 203
-1.741090 -0.294230 -0.745263 167 174 202
-1.762106 -0.285127 -0.746480 167 172 198
-1.751791 -0.295457 -0.756021 168 174 202
-1.765783 -0.291199 -0.756305 168 176 201
-1.368094 -0.262773 -0.961253 17 10 3
-1.376767 -0.279767 -0.964437 21 14 4
-1.322948 -0.199234 -0.769449 46 44 39
-1.329841 -0.213525 -0.766240 51 43 38
-1.326670 -0.206489 -0.795066 46 41 38
-1.326643 -0.195094 -0.804335 40 39 44
-1.390251 -0.269240 -1.049755 32 22 10
-1.389602 -0.262530 -1.083987 37 26 16
-1.392924 -0.284515 -1.083851 45 35 22
-1.293608 -0.091983 -0.907529 31 22 14
-1.761988 -0.269507 -0.733184 162 165 194
-1.288359 -0.093481 -0.727697 123 105 95
-1.292722 -0.065544 -0.721349 124 105 96
-1.452879 -0.434639 -0.848509 80 74 75
-1.460179 -0.440473 -0.834119 91 86 84
-1.468038 -0.441000 -0.849919 70 62 68
-1.474229 -0.439414 -0.859803 71 64 66
-1.530947 0.079561 -0.712499 210 215 248
-1.262672 0.013387 -1.013020 12 7 1
-1.264780 0.002178 -1.001148 11 6 2
-1.225280 0.095108 -0.988688 27 20 13
-1.227085 0.071151 -0.969374 33 24 15
-1.517061 -0.384044 -0.728354 154 151 169
-1.811932 -0.237768 -0.728830 158 153 165
-1.351120 -0.248564 -0.823426 193 199 219
-1.367179 -0.273049 -0.837144 183 192 198
-1.357538 -0.280087 -0.810272 203 209 223
-1.347042 -0.275268 -1.084638 42 32 17
-1.344019 -0.255467 -1.083122 40 30 17
-1.325108 -0.273983 -1.085544 43 31 18
-1.313911 -0.141142 -0.818452 75 77 87
-1.314088 -0.156985 -0.815159 122 125 138
-1.561941 -0.102296 -0.716303 226 235 253
-1.571750 -0.125137 -0.716236 227 238 255
-1.279478 -0.041747 -0.988608 19 12 8
-1.281903 -0.053305 -0.956163 20 12 6
-1.831604 -0.439456 -1.092836 73 61 55
-1.282503 -0.065632 -1.086697 46 33 20
-1.269487 -0.040945 -1.084448 46 32 17
-1.288763 -0.056237 -1.084100 37 27 18
-1.289217 0.139072 -1.034657 150 137 139
-1.661697 0.011234 -0.715114 222 228 254
-1.650829 0.020304 -0.714386 219 229 254
-1.308080 0.129834 -1.009400 156 146 154
-1.314556 0.134767 -1.026003 155 144 152
-1.302600 0.152275 -0.997676 163 152 160
-1.570826 -0.198937 -0.715783 221 238 255
-1.377605 -0.257797 -1.026664 28 18 8
-1.881568 0.007048 -0.712819 227 242 252
-1.833896 -0.256636 -0.746632 186 192 223
-1.840189 -0.259279 -0.756199 176 188 217
-1.834393 -0.256297 -0.765543 161 167 196
-1.839922 0.030068 -0.712848 223 231 253
-1.599426 0.040894 -0.713565 219 227 254
-1.582142 0.042529 -0.712466 218 224 253
-1.866007 -0.242803 -0.763991 169 178 205
-1.875665 -0.238872 -0.764430 171 178 206
-1.536067 -0.143117 -0.713540 232 251 254
-1.285016 0.016852 -0.713580 145 136 150
-1.283521 0.038190 -0.712698 144 133 145
-1.261972 0.128189 -0.908388 164 159 163
-1.609961 -0.055010 -0.714496 223 231 253
-1.634494 -0.055664 -0.716326 224 228 254
-1.928332 -0.339526 -1.091660 86 74 72
-1.927708 -0.327158 -1.086983 85 76 74
-1.913346 -0.333858 -1.090610 82 72 69
-1.713211 -0.231199 -0.722209 211 232 254
-1.720379 -0.216183 -0.719705 212 233 255
-1.293719 -0.118800 -1.088609 40 28 17
-1.322129 -0.096121 -1.088789 42 31 22
-1.310658 -0.113573 -1.086668 41 29 18
-1.332413 -0.120488 -1.089069 44 34 21
-1.509006 -0.401145 -0.751462 135 131 144
-1.532474 -0.385958 -0.736367 141 137 149
-1.515879 -0.387254 -0.768905 127 121 126
-1.513462 -0.400220 -0.742800 139 133 148
-1.524365 -0.387859 -0.753474 144 140 156
-1.538516 -0.381249 -0.751951 145 140 155
-1.531119 -0.377144 -0.756392 141 135 148
-1.286570 -0.050703 -1.006619 7 4 1
-1.277151 -0.023947 -1.009586 8 4 1
-1.278085 -0.032221 -0.994971 14 7 2
-1.287652 -0.039904 -1.022941 7 5 1
-1.471014 -0.355366 -0.715654 155 151 171
-1.476725 -0.344869 -0.714548 156 155 177
-1.259246 0.002608 -0.973691 21 14 5
-1.379682 -0.273462 -0.860201 115 115 114
-1.374107 -0.274974 -0.881598 57 46 36
-1.379156 -0.278554 -0.873636 41 33 20
-1.249637 0.037424 -0.828384 190 193 207
-1.782748 -0.368661 -1.090479 82 69 66
-1.786345 -0.351868 -1.089705 79 70 63
-1.801604 -0.357097 -1.091571 79 69 63
-1.385097 -0.238750 -1.084124 30 20 8
-1.387809 -0.245186 -1.075583 26 18 9
-1.387167 -0.246963 -1.063864 23 16 8
-1.248219 0.122967 -0.933221 166 155 163
-1.242137 0.115129 -0.918537 163 154 162
-1.236310 0.099105 -0.889684 185 186 211
-1.236790 0.007203 -1.086525 46 33 21
-1.247822 0.028660 -1.080557 46 33 21
-1.241799 0.028513 -1.084123 41 29 18
-1.257328 0.030503 -1.071965 41 31 18
-1.637242 0.034110 -0.713866 222 230 254
-1.333659 -0.132714 -1.043193 16 9 2
-1.340605 -0.145579 -1.049569 16 10 3
-1.337264 -0.129527 -1.061630 20 13 6
-1.282823 -0.032722 -0.847522 197 201 215
-1.285181 -0.036680 -0.855726 34 26 19
-1.824029 -0.263317 -0.771744 166 171 199
-1.223657 -0.087379 -1.088560 50 36 22
-1.488362 -0.417294 -0.746248 140 136 145
-1.865963 0.014942 -0.712346 223 236 253
-1.837318 -0.042797 -0.713975 221 234 253
-1.796296 -0.441215 -1.090060 98 84 78
-1.800670 -0.462223 -1.090071 95 79 72
-1.781664 -0.459992 -1.092134 95 80 73
-1.805469 -0.451076 -1.091148 78 66 61
-1.688679 -0.299413 -0.732458 165 159 172
-1.664235 -0.303888 -0.728945 164 156 156
-1.671871 -0.311495 -0.735090 166 163 181
-1.644069 -0.281958 -0.721563 173 173 184
-1.659505 -0.273759 -0.722265 171 171 182
-1.810030 0.133474 -0.711666 217 225 254
-1.833032 0.145948 -0.711266 219 224 255
-1.799507 0.156625 -0.711766 213 216 251
-1.607429 -0.354104 -0.756072 147 145 163
-1.316728 0.129641 -1.038566 33 28 21
-1.303965 0.126782 -1.031819 49 46 45
-1.277147 -0.030445 -1.081336 42 30 20
-1.288833 -0.020073 -1.085542 31 22 11
-1.275865 0.008674 -1.083271 24 17 7
-1.271209 -0.013298 -1.080892 40 28 21
-1.265096 0.003130 -1.078465 43 31 19
-1.416060 -0.420787 -0.816595 106 94 95
-1.414601 -0.129409 -0.710021 236 250 255
-1.434255 -0.074090 -0.709830 236 250 254
-1.254684 0.028854 -1.001217 8 5 1
-1.399402 -0.410993 -0.786595 114 104 109
-1.396276 -0.398252 -0.771870 133 125 132
-1.393113 -0.392957 -0.768943 139 129 139
-1.867518 -0.175497 -0.721985 209 231 255
-1.861296 -0.161521 -0.720140 211 231 254
-1.376510 0.123688 -0.755693 164 154 164
-1.401744 0.139973 -0.751613 164 154 164
-1.262882 0.011551 -0.836388 187 192 207
-1.479924 -0.281016 -0.711628 166 151 156
-1.468434 -0.264995 -0.710428 167 156 168
-1.476785 -0.250496 -0.710909 183 182 209
-1.233973 0.041113 -0.790872 46 44 45
-1.230886 0.059854 -0.797897 43 42 47
-1.226726 0.061644 -0.780156 47 42 39
-1.271175 -0.025086 -0.882484 29 21 14
-1.275953 -0.041982 -0.889333 29 21 14
-1.288033 -0.067659 -0.886268 28 21 14
-1.254027 0.001844 -0.952307 36 28 22
-1.725844 -0.469605 -1.093645 98 82 74
-1.728730 -0.457607 -1.094059 97 81 73
-1.735434 -0.279120 -0.731920 158 158 174
-1.229295 0.062520 -0.972901 37 28 18
-1.234602 0.052527 -0.964007 33 25 16
-1.233631 0.060414 -0.992420 35 26 17
-1.320437 0.095908 -0.861699 34 32 41
-1.350662 -0.228166 -0.941944 32 23 17
-1.500363 -0.160686 -0.711406 229 246 255
-1.527353 -0.125233 -0.712990 228 245 255
-1.592503 -0.016344 -0.713915 226 234 255
-1.577540 -0.052064 -0.716219 226 234 254
-1.597700 -0.040719 -0.715162 224 233 253
-1.421435 0.114870 -0.713135 211 224 253
-1.386649 0.106589 -0.712835 210 223 254
-1.410707 0.130998 -0.714006 207 218 253
-1.433272 -0.402323 -0.953735 57 42 26
-1.429492 -0.395147 -0.947394 56 44 27
-1.436876 -0.410144 -0.937793 56 42 27
-1.652532 -0.053903 -0.716453 227 230 254
-1.638265 -0.035231 -0.714934 224 232 254
-1.850263 -0.331983 -1.091318 83 74 71
-1.831997 -0.336798 -1.094317 81 73 69
-1.842270 -0.329339 -1.094347 84 72 70
-1.852665 -0.348685 -1.088277 85 73 71
-1.844046 -0.324762 -1.100175 78 66 67
-1.832079 -0.331342 -1.099308 81 69 68
-1.355551 -0.159640 -1.081347 25 18 7
-1.361924 -0.175713 -1.072790 23 14 6
-1.360563 -0.179294 -1.063545 26 18 7
-1.361961 -0.180925 -1.087356 25 16 6
-1.367192 -0.185740 -1.077029 29 20 11
-1.350387 -0.157350 -1.089193 25 18 7
-1.492930 -0.438205 -1.092546 41 31 17
-1.314341 0.130106 -0.959261 160 153 161
-1.310708 0.124752 -0.926862 162 152 162
-1.305112 0.123866 -0.965371 161 153 162
-1.314754 0.128897 -0.944534 161 153 162
-1.307205 0.124785 -0.947770 178 174 195
-1.924460 0.035214 -0.712072 235 253 253
-1.321176 0.047445 -0.709126 198 204 242
-1.340592 0.043159 -0.709269 207 216 252
-1.614807 -0.250979 -0.718062 217 236 254
-1.496977 -0.437533 -0.828782 100 89 88
-1.507172 -0.425773 -0.817232 104 90 90
-1.496340 -0.421776 -0.804794 122 111 117
-1.502499 -0.414493 -0.802570 107 96 96
-1.441310 -0.415650 -0.913783 60 46 30
-1.454418 -0.420947 -0.935050 60 45 30
-1.501106 -0.400816 -0.781992 90 73 60
-1.221993 0.079933 -0.773791 53 46 39
-1.221769 0.104477 -0.779776 54 48 40
-1.220476 0.090084 -0.784827 47 43 40
-1.878532 -0.386488 -1.094157 80 70 65
-1.867722 -0.380279 -1.093760 84 74 70
-1.326713 0.091449 -0.866220 94 96 104
-1.386515 -0.301448 -0.883610 60 47 33
-1.317128 -0.145895 -0.944238 23 15 9
-1.387509 0.156668 -0.858249 52 43 39
-1.396444 0.159902 -0.853768 51 42 39
-1.447178 -0.393863 -1.058779 48 33 19
-1.447218 -0.394817 -1.070794 46 31 16
-1.436626 -0.382581 -1.077451 47 31 17
-1.353734 -0.065240 -0.707072 218 227 254
-1.509948 -0.397729 -0.733810 138 135 150
-1.490241 -0.397350 -0.728760 144 140 158
-1.392235 -0.008234 -0.707402 226 242 254
-1.273487 0.024324 -1.079967 41 29 20
-1.265995 0.041544 -1.078344 28 21 9
-1.260484 0.017355 -1.075619 40 30 19
-1.274473 0.027412 -1.068005 27 18 8
-1.283771 0.009945 -1.080580 24 16 6
-1.750841 0.124992 -0.711205 216 223 253
-1.758155 0.149858 -0.713220 215 221 253
-1.900428 -0.129750 -0.716828 217 235 253
-1.923923 -0.111571 -0.714301 234 252 255
-1.912199 -0.109193 -0.713970 230 248 253
-1.353111 -0.223661 -0.847165 208 210 218
-1.361735 -0.236734 -0.852121 212 219 227
-1.298048 0.156636 -0.724136 185 172 179
-1.537078 0.060526 -0.711288 216 222 254
-1.509630 0.047173 -0.709864 213 218 251
-1.542953 0.043088 -0.711684 214 218 250
-1.359851 -0.254592 -0.915648 55 43 32
-1.224617 0.090177 -0.804098 65 66 77
-1.853203 0.143811 -0.712178 217 225 254
-1.870161 0.135884 -0.711614 220 228 254
-1.418069 -0.374040 -0.855462 162 151 137
-1.402217 -0.336609 -0.947138 41 28 18
-1.832724 0.118602 -0.712600 218 224 253
-1.391905 -0.304200 -0.861485 206 205 203
-1.398435 -0.126940 -0.709753 223 233 254
-1.467546 0.013688 -0.709368 231 248 253
-1.263852 -0.220976 -1.084715 44 33 19
-1.404439 0.157344 -1.061798 42 41 37
-1.391158 -0.315409 -0.926440 47 37 27
-1.390798 -0.318870 -0.898802 63 52 37
-1.667352 0.047230 -0.714666 219 225 252
-1.433807 -0.448207 -0.779842 138 128 136
-1.292642 -0.275836 -1.086247 44 33 18
-1.256904 0.117057 -1.049500 152 141 144
-1.238767 0.106520 -1.039173 29 22 16
-1.323698 -0.085518 -1.083691 25 16 8
-1.738360 -0.229910 -0.722103 199 213 243
-1.251211 -0.002933 -0.729562 97 79 65
-1.253876 -0.001792 -0.738268 92 75 62
-1.298138 0.119530 -0.824206 71 65 70
-1.294198 0.116200 -0.814310 49 41 34
-1.299243 0.114506 -0.799323 49 41 34
-1.305612 0.112358 -0.830251 44 38 32
-1.305883 0.113363 -0.819863 52 44 38
-1.324854 0.118709 -0.815161 52 42 39
-1.293686 0.111766 -0.830308 38 34 32
-1.321674 0.110892 -0.838359 48 40 35
-1.298916 0.127608 -0.815642 51 44 39
-1.682268 -0.163713 -0.717642 224 236 254
-1.413992 -0.331838 -1.042289 25 17 6
-1.411811 -0.317620 -1.051621 30 20 8
-1.323970 -0.178844 -0.817780 39 42 37
-1.842066 0.043109 -0.712355 223 231 253
-1.856289 0.058585 -0.712520 222 235 253
-1.304086 -0.142679 -0.789809 45 41 38
-1.302956 -0.144374 -0.777323 49 43 37
-1.436799 -0.419677 -0.855875 84 76 70
-1.423905 -0.411115 -0.842766 92 81 72
-1.436090 -0.430195 -0.838997 80 72 73
-1.619632 -0.261397 -0.717718 191 202 231
-1.914722 -0.165824 -0.718843 191 198 226
-1.879717 -0.063120 -0.713831 219 237 253
-1.389329 -0.353197 -0.732285 115 107 113
-1.407751 -0.308987 -0.715748 157 141 131
-1.387922 -0.341556 -0.727062 138 129 139
-1.424368 -0.333958 -0.715582 148 145 161
-1.403713 -0.331533 -0.719954 148 144 159
-1.357677 -0.237971 -0.952296 22 13 6
-1.354888 -0.243029 -0.931790 38 28 19
-1.560757 -0.052556 -0.715266 227 237 255
-1.584826 -0.081248 -0.715402 227 235 254
-1.553628 -0.085173 -0.714427 227 235 254
-1.321488 -0.051627 -0.711930 180 175 204
-1.329230 -0.033832 -0.710999 180 175 204
-1.350638 -0.048551 -0.706970 172 168 198
-1.325281 -0.069691 -0.711881 166 161 188
-1.536219 -0.376907 -0.762053 144 140 155
-1.544090 -0.378251 -0.746009 142 137 155
-1.355353 -0.224937 -1.000538 16 9 2
-1.773481 -0.251531 -0.728755 163 156 165
-1.792290 -0.250328 -0.731070 166 159 169
-1.777237 -0.241639 -0.727051 165 160 171
-1.666306 0.159955 -0.713768 213 217 253
-1.693608 0.134017 -0.713690 213 219 253
-1.830166 -0.104348 -0.715427 220 235 255
-1.821281 -0.085038 -0.715775 219 233 253
-1.839054 -0.125930 -0.716282 218 233 253
-1.811349 -0.111081 -0.716098 218 232 252
-1.294701 0.146992 -0.930803 165 159 162
-1.312698 0.154435 -0.946813 160 152 158
-1.289025 0.145098 -0.967471 162 153 159
-1.854685 -0.433918 -1.094612 80 69 65
-1.917685 -0.086109 -0.714216 235 253 255
-1.906345 -0.071263 -0.712973 225 243 254
-1.237107 0.138202 -0.765723 52 44 35
-1.248150 0.145861 -0.765835 52 44 37
-1.260808 0.153048 -0.758214 63 54 41
-1.227278 0.132552 -0.750659 54 46 38
-1.246619 0.151236 -0.750450 56 48 37
-1.232300 0.140061 -0.747476 70 58 43
-1.236292 0.142538 -0.756707 57 48 39
-1.243213 0.154198 -0.745402 78 62 46
-1.262345 0.163182 -0.746740 86 68 52
-1.399990 0.138661 -0.714404 209 211 241
-1.223627 0.084610 -0.736017 80 66 54
-1.224428 0.069902 -0.761456 62 51 45
-1.670699 -0.462565 -1.093122 91 75 65
-1.632358 -0.460265 -1.089257 77 66 59
-1.604339 -0.296647 -0.719841 184 192 217
-1.236711 0.050709 -0.930161 27 19 12
-1.894555 -0.145118 -0.717736 213 231 253
-1.381675 -0.136313 -0.711365 208 208 240
-1.359064 -0.148231 -0.715042 152 136 158
-1.367867 -0.137456 -0.712942 162 150 176
-1.510527 0.024785 -0.710422 223 234 251
-1.490004 0.026680 -0.709477 224 236 250
-1.338484 0.134615 -1.045233 41 40 35
-1.332064 0.140621 -1.037431 143 133 141
-1.346599 0.150163 -1.022372 154 146 155
-1.361130 0.156164 -1.026188 156 146 153
-1.344584 0.149333 -1.036360 157 145 155
-1.348552 0.153982 -1.055972 154 143 149
-1.711041 -0.248691 -0.724147 209 227 254
-1.415176 -0.365529 -0.994103 51 36 24
-1.413797 -0.358119 -0.969891 45 33 21
-1.252184 -0.155079 -1.088876 45 32 17
-1.332784 -0.111833 -1.072260 25 16 7
-1.329354 -0.112675 -1.058310 14 7 2
-1.329452 -0.104364 -1.083910 23 15 4
-1.323655 -0.093088 -1.069900 25 19 11
-1.512565 -0.175996 -0.711138 224 237 253
-1.536564 -0.186322 -0.711995 224 237 253
-1.547453 -0.168697 -0.712851 226 240 255
-1.333422 0.145325 -0.791018 78 64 54
-1.336958 0.133522 -0.770972 108 87 75
-1.343184 0.143540 -0.774170 119 99 86
-1.325607 0.135205 -0.775698 110 89 77
-1.337410 0.148949 -0.801068 70 58 47
-1.335805 0.144669 -0.782247 81 67 55
-1.358472 0.140150 -0.765013 126 105 95
-1.349905 0.155057 -0.802101 92 75 63
-1.382395 -0.361603 -0.791690 128 116 127
-1.385394 -0.358624 -0.778327 139 131 141
-1.728472 -0.377681 -1.085500 85 74 70
-1.594613 0.095527 -0.712759 217 223 255
-1.587047 0.073446 -0.713394 218 225 253
-1.628653 -0.410372 -1.096756 66 57 53
-1.550827 -0.309273 -0.716996 170 176 205
-1.420688 -0.379006 -0.901583 60 46 32
-1.614152 0.038331 -0.713104 218 227 253
-1.646858 0.056017 -0.713262 218 226 253
-1.903582 0.107287 -0.711684 232 250 254
-1.903641 0.128791 -0.711568 224 241 251
-1.783372 -0.214180 -0.722489 208 229 254
-1.426499 -0.247108 -0.710361 197 199 234
-1.298571 -0.044599 -1.045563 13 7 2
-1.300075 -0.036556 -1.062603 13 8 2
-1.459231 0.154596 -0.749519 195 192 217
-1.729514 -0.024183 -0.716190 224 232 255
-1.720188 -0.011277 -0.716810 223 231 254
-1.886460 0.038990 -0.712186 229 247 255
-1.920544 0.057491 -0.711810 216 232 251
-1.430215 -0.445631 -0.798113 111 99 101
-1.420813 -0.437105 -0.777705 135 124 132
-1.305571 0.160430 -1.087167 142 133 131
-1.321683 0.138275 -1.082418 135 124 125
-1.296038 0.137187 -1.085881 151 140 143
-1.309936 0.134606 -1.081565 92 82 82
-1.272371 0.141989 -1.087134 137 127 126
-1.248651 0.151353 -1.083611 136 127 124
-1.775436 -0.356687 -1.088246 73 63 61
-1.288045 0.137616 -0.884908 180 179 187
-1.613027 -0.343565 -0.762266 125 118 122
-1.939149 -0.052760 -0.712305 234 252 255
-1.248242 0.049313 -1.014588 35 25 17
-1.239381 0.062693 -1.016284 40 33 20
-1.248211 0.043248 -0.999447 32 23 15
-1.863555 -0.199165 -0.722979 208 225 255
-1.834648 -0.165654 -0.720914 214 232 252
-1.237148 0.066678 -0.817919 92 97 97
-1.675113 -0.127459 -0.717492 224 238 255
-1.640073 -0.159027 -0.716442 225 238 255
-1.692355 -0.137820 -0.716493 223 236 253
-1.389721 -0.093040 -0.707559 232 244 255
-1.434881 -0.101375 -0.708737 228 241 255
-1.400027 -0.118890 -0.709087 219 228 255
-1.758721 -0.360874 -1.086694 76 67 64
-1.744595 -0.368015 -1.088786 84 74 72
-1.229648 0.099832 -0.961051 141 133 140
-1.226554 0.088741 -0.947127 25 18 12
-1.229097 0.075129 -0.942564 26 16 10
-1.228235 0.095908 -0.938025 169 167 190
-1.221927 0.089165 -0.756021 70 58 48
-1.233454 0.072048 -0.740978 78 65 53
-1.323370 0.103447 -0.855714 36 29 31
-1.333783 0.114343 -0.840847 41 38 35
-1.326910 -0.184245 -0.741776 80 64 50
-1.349515 -0.214763 -0.975868 18 10 6
-1.336038 -0.185093 -0.980330 15 10 5
-1.263583 0.023486 -1.023631 15 9 2
-1.231086 0.113701 -0.727365 118 98 89
-1.222838 0.098833 -0.731686 117 99 89
-1.241407 0.107031 -0.723642 121 101 94
-1.257433 0.111118 -0.719651 141 128 142
-1.846328 -0.137262 -0.717898 213 229 252
-1.266279 0.014535 -0.850706 155 147 157
-1.248718 0.049057 -0.842813 195 191 204
-1.263779 0.002190 -0.871388 33 26 18
-1.927048 -0.356044 -1.090824 82 74 70
-1.891140 -0.362016 -1.090641 82 71 69
-1.918053 -0.381682 -1.095392 84 74 69
-1.301044 -0.112725 -0.728700 100 81 64
-1.318809 -0.088698 -0.716154 131 115 116
-1.305740 -0.123063 -0.727054 115 96 81
-1.298839 -0.095880 -0.723374 115 97 82
-1.313865 -0.110400 -0.720565 115 96 80
-1.303694 -0.113471 -0.736251 91 75 58
-1.481947 -0.431068 -1.089465 42 27 16
-1.301608 -0.263640 -1.086895 45 32 17
-1.371331 -0.279908 -0.918136 46 36 29
-1.364039 -0.255805 -0.886050 51 41 32
-1.367278 -0.269505 -0.932871 54 43 33
-1.225343 0.122996 -0.803064 41 37 33
-1.222172 0.113555 -0.781641 52 45 39
-1.226506 0.127581 -0.780059 46 39 32
-1.867888 -0.086533 -0.713740 220 239 252
-1.268331 -0.057057 -0.766155 55 49 40
-1.264901 -0.046018 -0.760566 59 52 42
-1.272251 -0.059191 -0.749727 65 57 46
-1.263117 -0.033254 -0.754510 64 56 46
-1.273237 -0.039175 -0.736941 80 66 55
-1.268301 -0.039742 -0.745876 69 59 48
-1.563752 -0.336224 -0.721841 164 161 174
-1.570608 -0.297983 -0.717652 188 191 204
-1.580797 -0.333160 -0.722787 161 157 176
-1.813953 -0.412431 -1.089896 80 68 63
-1.816326 -0.398221 -1.091684 77 65 59
-1.346847 -0.204223 -1.000178 11 8 3
-1.354543 -0.217243 -1.008389 22 15 8
-1.809966 -0.187476 -0.721487 209 229 254
-1.840664 -0.178700 -0.721210 209 227 254
-1.807606 -0.228579 -0.726421 190 199 226
-1.636603 0.068435 -0.712811 219 227 255
-1.609097 0.072661 -0.712783 217 225 253
-1.620384 0.087196 -0.713413 217 224 254
-1.633721 0.109858 -0.713477 216 223 253
-1.800903 -0.159583 -0.719646 218 234 255
-1.282158 0.142505 -0.931491 163 155 162
-1.379541 -0.301379 -0.840822 209 213 218
-1.367303 -0.294074 -0.828198 207 215 222
-1.247445 0.008856 -0.731950 98 79 69
-1.256372 0.015636 -0.722180 117 97 83
-1.242654 0.024074 -0.727566 108 90 76
-1.235409 0.035491 -0.731847 82 66 57
-1.313220 0.100854 -0.858006 37 31 36
-1.306051 0.104225 -0.852695 116 114 122
-1.308749 0.103931 -0.841447 41 33 34
-1.302948 0.115678 -0.855942 128 128 145
-1.317523 0.131078 -0.851853 125 124 137
-1.297536 0.108085 -0.838926 40 37 36
-1.296867 0.117296 -0.840277 124 121 134
-1.351278 -0.229887 -0.900002 47 35 27
-1.343926 -0.217410 -0.919106 43 33 26
-1.406434 -0.343507 -0.994870 52 40 28
-1.395982 -0.320951 -0.993132 32 22 12
-1.403677 -0.333668 -1.005152 29 20 10
-1.544197 -0.075907 -0.713727 232 246 253
-1.519338 -0.059571 -0.712628 236 251 253
-1.344192 -0.246883 -0.805836 210 214 235
-1.342789 -0.226531 -0.816435 39 44 43
-1.349186 -0.228827 -0.829036 69 76 72
-1.229334 0.060634 -0.751438 60 52 47
-1.229364 0.044071 -0.771075 59 53 42
-1.238002 0.040634 -0.739513 82 68 55
-1.234088 0.056090 -0.740147 75 62 51
-1.267088 -0.007845 -0.987188 15 10 4
-1.270952 -0.018617 -0.971502 17 11 5
-1.262317 -0.008620 -0.969907 26 19 13
-1.492090 -0.233403 -0.710696 190 195 227
-1.316542 -0.077790 -1.090278 34 25 16
-1.417331 -0.369736 -0.720160 143 136 152
-1.409886 -0.349020 -0.719375 143 137 158
-1.409958 -0.384299 -0.725569 136 129 141
-1.400969 -0.363604 -0.725950 138 131 148
-1.814265 0.055183 -0.712155 219 226 252
-1.622124 0.127615 -0.713712 213 217 252
-1.629197 0.154248 -0.714051 212 216 252
-1.444198 -0.443375 -0.764439 136 126 135
-1.459578 -0.444905 -0.776998 138 129 136
-1.668510 -0.003298 -0.715153 224 231 255
-1.666608 -0.031983 -0.715672 223 231 253
-1.426181 -0.382929 -0.868770 114 103 91
-1.422864 -0.379094 -0.883361 63 48 35
-1.232380 0.066471 -1.083838 43 32 20
-1.480211 -0.416934 -1.071246 25 16 7
-1.470993 -0.409478 -1.069649 28 18 8
-1.474264 -0.416597 -1.082355 31 21 9
-1.468287 -0.429062 -1.080114 45 33 16
-1.453867 -0.418927 -1.079639 57 40 24
-1.479502 -0.421127 -1.060022 37 27 21
-1.473346 -0.414043 -1.059158 30 19 8
-1.452412 -0.407792 -1.075966 50 37 20
-1.908666 -0.034201 -0.712662 228 246 254
-1.374873 -0.205325 -1.081862 27 17 6
-1.373410 -0.205257 -1.071355 17 9 5
-1.376314 -0.222052 -1.064245 17 10 4
-1.371846 -0.198633 -1.086921 29 20 9
-1.778613 -0.185117 -0.719072 215 235 255
-1.739666 -0.171646 -0.717521 218 233 254
-1.757501 -0.174354 -0.718529 215 232 253
-1.323601 -0.115795 -1.041584 34 25 15
-1.316487 -0.092911 -1.045745 22 14 7
-1.307071 -0.092564 -0.858660 200 196 206
-1.291660 -0.084047 -0.824997 215 223 235
-1.311720 -0.116356 -0.844747 208 212 225
-1.320451 -0.128973 -0.859110 208 208 217
-1.402909 -0.284316 -1.070091 30 21 11
-1.396625 -0.270891 -1.073400 34 24 14
-1.410772 -0.320675 -1.081107 34 23 12
-1.396919 -0.321058 -1.078506 48 33 23
-1.380726 -0.302902 -1.079010 44 32 18
-1.407505 -0.303969 -1.077920 40 28 16
-1.403599 -0.293368 -1.064242 31 22 11
-1.401149 -0.303007 -1.081946 40 30 17
-1.398802 -0.284189 -1.080984 36 25 13
-1.414701 -0.316907 -1.071887 33 23 12
-1.338411 -0.135612 -1.050653 22 16 6
-1.347770 -0.144008 -1.079268 28 19 9
-1.344110 -0.135988 -1.083300 28 19 10
-1.343012 -0.136833 -1.069265 27 21 11
-1.346656 -0.146366 -1.061733 18 12 4
-1.337733 -0.130737 -1.090106 26 17 7
-1.277592 -0.020169 -0.859381 31 22 16
-1.273429 -0.166658 -1.086792 46 35 22
-1.305181 -0.084834 -1.086333 46 35 24
-1.314701 -0.061013 -1.084973 20 12 4
-1.318961 -0.074093 -1.074962 24 16 7
-1.297104 -0.074490 -1.085451 43 32 20
-1.531117 -0.106663 -0.712765 232 246 254
-1.534930 -0.123145 -0.713210 232 247 255
-1.423473 -0.421224 -0.830245 123 111 104
-1.391107 -0.183173 -0.709294 209 214 246
-1.418072 -0.150638 -0.707852 217 222 251
-1.400452 -0.144977 -0.708748 215 219 249
-1.404698 -0.349153 -0.895131 68 53 36
-1.405687 -0.337690 -0.866118 165 160 155
-1.405073 -0.349340 -0.884565 69 54 44
-1.397188 -0.319220 -0.865191 60 48 33
-1.396991 -0.331829 -0.888375 62 49 35
-1.707363 -0.031049 -0.717986 223 231 254
-1.699347 -0.057781 -0.717430 225 233 253
-1.721620 -0.043986 -0.716797 222 232 254
-1.685398 -0.047617 -0.716834 225 233 254
-1.492552 0.165648 -0.716536 209 209 235
-1.465471 0.100798 -0.711764 219 233 250
-1.493600 0.120543 -0.712932 203 208 236
-1.356778 0.131792 -0.806470 53 45 34
-1.334911 0.122492 -0.793359 63 51 42
-1.344117 0.127478 -0.773245 107 86 73
-1.334132 0.122835 -0.778239 86 70 56
-1.349924 0.129495 -0.767985 117 96 85
-1.352522 0.126146 -0.787825 71 58 46
-1.674038 -0.467991 -1.094288 91 80 67
-1.697779 -0.461078 -1.093701 89 78 67
-1.397328 0.075018 -0.710392 214 224 255
-1.374946 0.098205 -0.711730 210 220 255
-1.777908 -0.097365 -0.715827 223 233 254
-1.517212 0.151042 -0.714953 204 207 237
-1.526490 0.168964 -0.715807 205 208 236
-1.250459 -0.007463 -0.754700 54 48 39
-1.259626 -0.033786 -0.775440 51 48 40
-1.254643 -0.017758 -0.785398 47 44 44
-1.244918 -0.000152 -0.785946 46 42 48
-1.631796 -0.210216 -0.716940 222 238 255
-1.614140 -0.204806 -0.716114 223 238 255
-1.608380 -0.180802 -0.717090 224 238 254
-1.263263 -0.126242 -1.088518 47 35 22
-1.440719 -0.390094 -1.035385 22 15 6
-1.434373 -0.389414 -1.023953 43 31 18
-1.447549 -0.394066 -1.025308 27 17 7
-1.435879 -0.380773 -1.037992 42 31 18
-1.458913 -0.112987 -0.709888 238 253 254
-1.484023 -0.098002 -0.710533 238 255 255
-1.232459 0.103573 -1.020406 127 115 116
-1.232535 0.077782 -1.016006 38 29 20
-1.229190 0.091472 -1.011680 44 33 21
-1.891108 -0.233175 -0.764066 183 188 216
-1.875828 -0.245326 -0.756021 181 183 211
-1.890254 -0.229127 -0.741840 155 151 160
-1.349300 0.143224 -1.051229 42 38 38
-1.364502 0.156392 -1.046911 156 144 154
-1.356815 0.151567 -1.047894 142 132 139
-1.653498 -0.103219 -0.716769 225 237 254
-1.634607 -0.097286 -0.717072 225 234 253
-1.620566 -0.086612 -0.716550 226 235 253
-1.362076 -0.199233 -1.045293 17 11 5
-1.229298 0.091498 -0.817607 197 198 228
-1.232791 0.079820 -0.825490 193 193 217
-1.316888 -0.142234 -0.886678 32 23 16
-1.324789 -0.157582 -0.879444 33 26 19
-1.313823 -0.140213 -0.903966 33 26 18
-1.311233 -0.120371 -0.877828 31 22 15
-1.862095 -0.239226 -0.741684 156 153 164
-1.853330 -0.256346 -0.756887 183 190 223
-1.851207 -0.250100 -0.764722 168 178 206
-1.910560 -0.415543 -1.094914 83 71 66
-1.322456 -0.157491 -0.834013 197 202 215
-1.336712 -0.168345 -0.860112 183 187 191
-1.332777 -0.159923 -0.854970 163 165 168
-1.919797 -0.320198 -1.088256 78 69 69
-1.917205 -0.310967 -1.080673 86 75 76
-1.265612 0.134843 -0.937836 165 156 163
-1.686289 -0.019277 -0.717050 223 228 253
-1.704908 -0.008544 -0.716466 224 228 254
-1.363229 0.143958 -0.865425 45 39 32
-1.364761 0.142264 -0.881925 41 36 36
-1.360215 0.147826 -0.899807 44 44 46
-1.372902 0.147760 -0.884396 44 38 32
-1.389959 0.156309 -0.886744 45 38 32
-1.374668 0.147520 -0.871396 44 39 31
-1.258736 -0.006548 -0.931934 40 32 23
-1.698606 -0.179279 -0.717793 220 236 254
-1.715010 -0.158810 -0.717377 220 236 255
-1.387390 -0.309830 -0.944956 49 37 28
-1.383822 -0.317851 -0.724245 109 90 77
-1.385608 -0.301983 -0.720621 120 100 89
-1.460414 -0.415850 -0.995466 39 30 23
-1.241897 0.098817 -0.854068 199 198 222
-1.249701 0.110382 -0.855108 186 185 206
-1.239705 0.100313 -0.843899 204 201 215
-1.319818 0.127018 -0.927315 177 175 196
-1.642863 -0.340014 -0.756480 158 161 187
-1.639615 -0.333485 -0.759140 154 156 177
-1.647816 -0.331087 -0.741534 164 167 190
-1.641945 -0.340607 -0.752421 159 164 192
-1.659588 -0.324761 -0.759928 159 163 188
-1.353807 -0.164535 -1.062335 24 15 8
-1.328666 -0.174870 -1.085412 41 29 13
-1.324930 -0.147342 -1.086103 38 27 13
-1.246384 0.101758 -1.064152 41 31 23
-1.242871 0.077923 -1.058717 49 36 23
-1.250141 0.103080 -1.079309 44 33 24
-1.242254 0.065821 -1.075659 50 37 25
-1.238155 0.073308 -1.080976 51 39 26
-1.242524 0.087675 -1.065828 48 35 24
-1.240605 0.086829 -1.079414 51 42 24
-1.232186 0.087950 -1.085174 55 43 26
-1.222594 0.111837 -0.769286 60 49 45
-1.223969 0.107195 -0.738047 83 67 55
-1.217725 0.125829 -0.736681 65 55 44
-1.227138 0.107604 -0.751045 60 51 43
-1.374104 -0.318957 -0.731987 82 64 52
-1.373706 -0.311037 -0.728251 98 79 67
-1.364697 -0.294181 -0.730165 96 76 62
-1.369742 -0.304385 -0.740148 82 64 52
-1.891185 -0.222430 -0.736408 129 119 115
-1.868146 -0.228870 -0.735186 144 135 137
-1.881608 -0.405983 -1.095592 78 66 60
-1.903210 -0.402857 -1.095219 80 69 64
-1.781475 -0.065787 -0.716008 225 231 255
-1.356119 0.126889 -0.761145 108 92 83
-1.378048 0.123825 -0.761858 102 90 91
-1.362262 0.125198 -0.762471 134 118 117
-1.489131 -0.423116 -0.778226 116 112 121
-1.496384 -0.410059 -0.775743 102 90 92
-1.487571 -0.433311 -0.808133 129 118 127
-1.496839 -0.413789 -0.789061 100 94 95
-1.840889 0.092283 -0.712644 224 233 254
-1.847598 0.065546 -0.711697 222 235 253
-1.361391 -0.240904 -0.986009 15 8 1
-1.360371 -0.242329 -0.968410 20 14 7
-1.371094 0.158567 -0.966990 163 157 165
-1.366695 0.154154 -0.942199 169 159 169
-1.350989 0.145891 -0.932675 169 159 169
-1.351808 0.149295 -0.949278 166 160 168
-1.379159 0.160109 -0.925695 171 178 189
-1.262050 0.127973 -1.030319 153 141 146
-1.523321 -0.097035 -0.713008 229 237 255
-1.311274 0.136548 -0.791644 56 46 40
-1.320999 0.138636 -0.838766 51 43 39
-1.307710 0.137935 -0.818965 53 44 40
-1.306539 0.158167 -0.811015 49 45 36
-1.228406 0.129328 -0.798137 46 38 32
-1.330060 0.135889 -0.926211 171 171 183
-1.320738 0.156179 -0.909350 174 172 179
-1.335743 0.137949 -0.915825 181 187 201
-1.323391 0.131297 -0.905801 151 155 164
-1.337904 0.137577 -0.895074 107 112 118
-1.262979 -0.013125 -0.805326 49 49 52
-1.357965 0.148702 -0.773471 121 106 97
-1.376945 0.154004 -0.768126 136 127 124
-1.364776 0.154037 -0.781111 124 104 95
-1.355118 0.149003 -0.784765 97 81 68
-1.277186 -0.059565 -0.811548 189 195 217
-1.277498 -0.047136 -0.819883 148 153 168
-1.325846 -0.168467 -0.938001 24 18 13
-1.340409 -0.195366 -0.959661 24 14 11
-1.332991 -0.184192 -0.934546 23 15 11
-1.301321 0.137776 -0.717891 165 156 181
-1.246581 0.128036 -0.723285 133 115 116
-1.555297 -0.368146 -0.756240 136 129 143
-1.573756 -0.359267 -0.758078 135 124 132
-1.558906 -0.372804 -0.749844 142 140 157
-1.239748 0.141085 -0.776652 52 44 35
-1.253406 0.145551 -0.788273 45 41 31
-1.243203 0.140270 -0.795552 46 38 32
-1.254233 0.148302 -0.769014 53 44 36
-1.324408 -0.142787 -0.721763 122 99 87
-1.343950 -0.140481 -0.716712 130 109 115
-1.312669 -0.134882 -0.728302 115 94 79
-1.806275 0.007155 -0.714082 225 233 254
-1.802535 0.016154 -0.713745 222 229 253
-1.803403 0.032986 -0.714209 224 231 255
-1.389820 -0.267049 -0.716011 124 106 102
-1.419319 0.018328 -0.708420 221 237 253
-1.384737 0.021640 -0.708865 218 232 254
-1.537495 0.096807 -0.712460 210 213 248
-1.491926 -0.442718 -0.895072 62 47 35
-1.482793 -0.437197 -0.925849 51 42 35
-1.562318 -0.351478 -0.726779 155 149 161
-1.555306 -0.371829 -0.736647 153 150 170
-1.337963 -0.198065 -0.893574 42 32 25
-1.344161 -0.210146 -1.086612 46 33 21
-1.361416 -0.196506 -1.089865 44 31 21
-1.445383 -0.173113 -0.710014 224 238 255
-1.423570 -0.167240 -0.709276 221 232 254
-1.464672 -0.438792 -0.764648 137 127 136
-1.478178 -0.428034 -0.752277 130 125 130
-1.472706 -0.422332 -0.738724 137 133 142
-1.449941 -0.422315 -0.736807 132 122 131
-1.587723 -0.278300 -0.716844 174 183 210
-1.294712 -0.110476 -0.750838 63 54 44
-1.294552 -0.095130 -0.736241 73 61 47
-1.300611 -0.127148 -0.750260 68 55 46
-1.306443 -0.122032 -0.737311 85 68 54
-1.330107 0.132807 -0.860707 43 36 35
-1.329155 0.150311 -0.860002 47 42 39
-1.351710 0.144064 -0.854769 45 39 35
-1.355087 0.138938 -0.869143 43 38 34
-1.354969 0.164772 -0.845035 50 42 37
-1.336786 0.141480 -0.848137 48 42 38
-1.325729 0.144004 -0.830366 50 42 36
-1.333355 0.144353 -0.837927 50 42 39
-1.345786 0.149887 -0.836338 51 43 38
-1.498358 0.074767 -0.710274 222 238 253
-1.329728 -0.178342 -0.890034 31 22 17
-1.332047 -0.185097 -0.911905 39 29 21
-1.322887 -0.160302 -0.903902 28 20 15
-1.799352 -0.344468 -1.093444 73 62 58
-1.820919 -0.339082 -1.094854 81 71 67
-1.669444 -0.446145 -1.091768 91 79 69
-1.693455 -0.430357 -1.091493 88 75 68
-1.385855 -0.033029 -0.705738 227 241 255
-1.413327 -0.045515 -0.707253 226 240 253
-1.462460 -0.017320 -0.707408 238 254 254
-1.667014 -0.435332 -1.092759 89 77 70
-1.627515 -0.446076 -1.088964 80 67 58
-1.672806 -0.422718 -1.092209 88 76 68
-1.274865 0.142327 -1.008487 149 138 141
-1.283284 0.143953 -1.016850 147 136 137
-1.270310 0.139452 -0.991394 156 148 150
-1.253413 0.131870 -0.997464 166 161 175
-1.289517 0.147385 -1.001580 158 150 154
-1.636296 -0.021731 -0.715575 226 234 255
-1.635125 -0.000203 -0.714934 224 232 254
-1.619608 -0.006108 -0.714323 223 233 253
-1.296706 -0.068418 -0.853653 207 207 220
-1.287644 -0.044823 -0.847557 201 198 211
-1.291007 -0.049748 -0.858227 33 26 18
-1.279765 0.127009 -1.050161 155 140 146
-1.314048 0.151391 -1.030103 150 139 142
-1.260829 0.048980 -0.716336 147 134 147
-1.261716 0.026434 -0.718814 131 111 113
-1.269371 0.067174 -0.715650 148 136 153
-1.606561 -0.323832 -0.725170 162 159 173
-1.592820 -0.315931 -0.721959 171 158 158
-1.600360 -0.336890 -0.728698 159 156 172
-1.553349 -0.290352 -0.716308 212 229 253
-1.314535 0.113375 -0.715223 189 194 231
-1.358717 0.120935 -0.712783 195 202 240
-1.308795 0.125199 -0.715616 179 178 205
-1.354486 0.134322 -0.714996 194 199 239
-1.351248 0.138761 -0.886261 46 49 51
-1.344455 0.136793 -0.865420 43 37 34
-1.339432 0.131410 -0.874954 41 40 40
-1.327733 0.152604 -0.894861 32 32 36
-1.335992 0.132305 -0.886027 50 53 55
-1.350471 0.143966 -0.897092 47 48 49
-1.678262 -0.405412 -1.091699 89 75 68
-1.699465 -0.399818 -1.091754 90 78 72
-1.675620 -0.391414 -1.089080 86 75 67
-1.705023 -0.388565 -1.090610 91 80 73
-1.364510 0.062690 -0.710220 217 228 255
-1.746480 -0.374875 -1.088078 86 75 70
-1.529366 -0.265191 -0.712476 169 159 156
-1.548088 -0.279662 -0.714453 184 182 198
-1.416199 -0.366974 -0.931359 58 45 32
-1.422693 -0.379914 -0.921355 68 52 37
-1.410892 -0.355316 -0.931195 57 44 32
-1.414041 -0.362642 -0.914050 67 51 37
-1.414703 -0.363429 -0.906632 67 53 39
-1.705743 -0.203339 -0.719115 217 236 252
-1.699614 0.008096 -0.715369 221 228 254
-1.691296 0.023186 -0.715010 221 230 255
-1.682219 0.034598 -0.714126 222 227 254
-1.500689 -0.275570 -0.711461 176 172 183
-1.504150 -0.254927 -0.712530 173 164 177
-1.786486 -0.121864 -0.715441 218 232 254
-1.808808 -0.133052 -0.716586 218 231 253
-1.397404 0.047663 -0.708939 220 234 255
-1.376011 0.052664 -0.708470 219 232 254
-1.431987 0.076572 -0.710564 221 233 255
-1.245662 -0.137352 -1.089090 48 34 22
-1.800697 -0.076052 -0.716601 220 233 255
-1.816122 -0.060914 -0.714962 222 233 254
-1.289785 -0.110497 -0.788599 47 41 43
-1.336807 -0.230926 -0.761400 54 46 39
-1.343356 -0.249593 -0.757954 62 53 43
-1.340968 -0.212433 -0.738389 72 59 50
-1.457482 -0.241239 -0.710514 200 204 239
-1.473381 -0.241025 -0.709890 199 205 239
-1.442058 -0.419114 -0.889647 66 50 36
-1.404406 0.157165 -0.869817 51 40 38
-1.412126 0.160641 -0.875838 51 40 38
-1.399561 0.158980 -0.885266 45 41 31
-1.391098 0.153892 -0.871004 51 42 36
-1.382569 -0.277466 -1.020139 28 20 7
-1.368626 -0.257025 -0.991951 19 12 2
-1.375338 -0.267411 -1.009194 27 19 9
-1.367113 -0.248016 -1.004676 18 12 4
-1.697602 0.054458 -0.714664 221 227 254
-1.252972 0.010526 -0.962224 31 21 15
-1.243319 0.038187 -0.979388 33 24 16
-1.243902 0.032067 -0.951854 30 20 14
-1.254922 0.024488 -0.989761 19 13 6
-1.251541 0.021589 -0.973328 33 24 15
-1.363849 -0.081022 -0.708202 216 222 253
-1.313539 -0.123251 -0.997297 10 4 1
-1.762293 -0.155920 -0.717690 219 232 254
-1.339349 -0.244369 -0.780897 47 40 37
-1.335964 -0.229070 -0.780032 45 42 42
-1.337727 -0.227072 -0.793836 43 39 38
-1.249425 0.075431 -1.051981 30 23 16
-1.245261 0.066828 -1.049453 46 34 21
-1.239725 0.093750 -1.051515 40 30 21
-1.253578 0.074119 -1.056834 18 11 5
-1.240716 0.075060 -1.044682 43 32 21
-1.244674 0.068956 -1.041731 43 32 20
-1.237575 0.077593 -1.036554 42 32 20
-1.501032 -0.017586 -0.711417 232 248 254
-1.487926 -0.005566 -0.708993 234 250 254
-1.241039 0.065615 -0.843225 31 24 15
-1.238124 0.078196 -0.841917 202 201 215
-1.235226 0.079056 -0.852975 30 23 14
-1.255379 0.019730 -0.816082 204 207 234
-1.244323 0.027355 -0.802377 81 83 92
-1.469332 -0.434456 -0.894666 67 53 41
-1.448986 -0.427461 -0.861421 61 56 60
-1.453544 -0.427059 -0.889022 60 57 58
-1.463369 -0.436249 -0.864792 63 57 55
-1.513960 0.107428 -0.711684 208 211 245
-1.487981 0.094035 -0.710660 213 223 246
-1.338595 -0.299986 -1.084154 42 30 18
-1.303584 -0.110926 -0.892838 33 24 17
-1.241388 0.122037 -0.986445 164 159 174
-1.246706 0.122811 -0.967799 152 144 148
-1.221929 -0.027713 -1.087422 50 35 22
-1.245426 -0.013478 -1.086802 48 35 19
-1.252977 -0.001808 -1.084800 47 34 20
-1.422661 -0.342670 -1.059651 30 21 8
-1.430952 -0.360555 -1.054907 33 21 10
-1.318822 0.124807 -0.865231 103 102 111
-1.310179 0.112540 -0.866545 125 122 133
-1.317019 0.110403 -0.892826 178 182 193
-1.309382 0.113506 -0.883767 181 180 196
-1.320079 0.101986 -0.880512 149 151 162
-1.384857 -0.376610 -0.781016 139 130 142
-1.388638 -0.380545 -0.803370 112 99 101
-1.327310 -0.191069 -0.732427 95 78 62
-1.349720 -0.202165 -0.719962 112 98 87
-1.340887 -0.208168 -0.725940 104 87 72
-1.726395 0.090197 -0.714064 219 226 254
-1.672840 -0.284378 -0.724983 168 167 182
-1.681170 -0.251220 -0.721861 194 202 228
-1.823119 -0.382031 -1.091259 84 71 65
-1.795562 -0.373268 -1.090121 82 70 64
-1.347965 0.076594 -0.710543 207 216 252
-1.306996 0.076903 -0.712690 195 200 241
-1.352935 0.093232 -0.711616 198 206 244
-1.402687 -0.075142 -0.708001 233 248 255
-1.379164 -0.070481 -0.706939 226 242 254
-1.259011 -0.052742 -1.085925 46 33 20
-1.227968 -0.056646 -1.087054 49 35 22
-1.261664 -0.031959 -1.086156 48 34 20
-1.236793 -0.029111 -1.087618 49 34 21
-1.403662 -0.341850 -0.975482 32 22 12
-1.535974 -0.341272 -0.719696 163 159 177
-1.539760 -0.326403 -0.719528 164 163 189
-1.289364 0.117129 -0.716040 175 170 203
-1.302114 0.027249 -0.710947 173 171 203
-1.744140 -0.075118 -0.717330 223 234 253
-1.472970 -0.056785 -0.711208 238 255 255
-1.466582 -0.078783 -0.710427 237 254 253
-1.224764 0.106874 -0.801031 59 58 62
-1.591295 -0.183113 -0.716296 225 238 254
-1.602346 -0.156207 -0.715167 226 239 255
-1.571537 -0.172863 -0.714249 227 238 254
-1.441902 -0.270846 -0.710959 185 187 218
-1.444059 -0.284411 -0.710737 158 144 148
-1.409933 -0.266107 -0.712007 161 151 164
-1.243951 0.044696 -0.871159 28 21 11
-1.252894 0.020509 -0.879524 30 22 12
-1.729694 -0.187132 -0.718738 219 237 254
-1.376987 -0.161115 -0.710634 201 198 229
-1.359598 -0.175606 -0.714444 154 139 158
-1.422542 0.058618 -0.710128 220 234 254
-1.268701 -0.021737 -0.959983 22 17 11
-1.273425 -0.038541 -0.956321 33 25 16
-1.275218 -0.043482 -0.947927 33 24 17
-1.281992 -0.064481 -0.939166 36 27 20
-1.299980 -0.242709 -1.088290 42 30 16
-1.387479 -0.253534 -0.715907 134 119 126
-1.373279 -0.248506 -0.719638 122 104 102
-1.348809 -0.234925 -0.726362 112 91 80
-1.364976 -0.288782 -0.739677 67 54 44
-1.355868 -0.269762 -0.747045 65 54 40
-1.357152 -0.257208 -0.738798 74 61 44
-1.274093 -0.073630 -0.750265 60 52 42
-1.283656 -0.097849 -0.769876 54 47 39
-1.279743 -0.058576 -0.736515 77 63 54
-1.377789 -0.337364 -0.772846 43 40 31
-1.369728 -0.322454 -0.790411 45 41 35
-1.772022 0.125593 -0.710952 215 221 253
-1.216601 0.034593 -1.090505 42 31 19
-1.827159 -0.363453 -1.090294 83 73 69
-1.853238 -0.374321 -1.092360 86 74 69
-1.842052 -0.355587 -1.090264 85 74 69
-1.319450 -0.141307 -0.839897 205 202 216
-1.316848 -0.158630 -0.728406 97 79 65
-1.318843 -0.156710 -0.737329 95 76 62
-1.482854 -0.441720 -0.823777 94 86 88
-1.467366 -0.439464 -0.791978 120 110 117
-1.471554 -0.442936 -0.810032 117 106 111
-1.471199 -0.443361 -0.830083 103 92 94
-1.451033 -0.442020 -0.805992 95 86 92
-1.451592 -0.438013 -0.834089 92 85 89
-1.261565 -0.023458 -0.728651 101 85 70
-1.256490 -0.010339 -0.728855 97 81 67
-1.264265 -0.000237 -0.720904 117 99 84
-1.267619 -0.012292 -0.722537 123 107 96
-1.295837 0.000500 -0.714399 131 117 119
-1.289811 -0.003291 -1.078496 19 13 3
-1.297114 -0.029294 -1.085400 25 16 6
-1.288004 -0.005972 -1.085668 23 15 4
-1.285595 0.003673 -1.066798 18 11 2
-1.421145 -0.332112 -1.065524 32 22 10
-1.425131 -0.352554 -1.075114 34 23 10
-1.453121 -0.351786 -0.714621 158 155 177
-1.443752 -0.334242 -0.713897 161 161 184
-1.473919 -0.307187 -0.712888 166 161 182
-1.461542 0.033981 -0.708683 229 246 252
-1.445329 0.039972 -0.709558 229 243 253
-1.449748 0.062541 -0.709964 224 239 253
-1.268940 -0.187053 -1.087011 46 34 19
-1.290506 -0.190533 -1.085608 43 31 20
-1.285535 -0.209333 -1.086751 42 31 17
-1.265364 -0.211083 -1.085350 45 33 23
-1.388277 -0.297974 -1.010378 22 13 3
-1.404406 -0.360905 -0.848251 187 184 179
-1.411694 -0.372744 -0.840451 199 201 196
-1.289474 0.085666 -0.713652 162 153 180
-1.265567 0.094184 -0.716210 158 149 171
-1.534942 -0.452018 -1.083851 76 62 54
-1.257571 0.065323 -1.065128 20 13 7
-1.261651 0.053184 -1.076167 33 22 13
-1.263827 0.055558 -1.070567 23 14 6
-1.269021 0.042149 -1.073571 26 17 6
-1.501397 -0.026378 -0.710976 235 249 254
-1.523608 0.000392 -0.711308 228 242 254
-1.463036 -0.403717 -0.727661 136 131 140
-1.407612 0.152465 -0.756776 182 174 190
-1.411436 0.139020 -0.751913 171 164 190
-1.384285 0.134200 -0.755360 170 163 175
-1.397738 0.150647 -0.760623 169 163 175
-1.398130 0.131606 -0.758034 167 157 170
-1.412770 0.161336 -0.764708 170 164 176
-1.388155 0.153710 -0.763260 162 156 162
-1.236256 -0.105543 -1.086058 47 34 17
-1.236659 -0.084267 -1.087759 47 34 19
-1.398008 -0.329776 -0.855751 205 202 194
-1.386731 -0.331112 -0.831409 208 213 212
-1.396249 -0.347084 -0.841619 214 219 219
-1.646057 -0.068587 -0.715371 226 235 255
-1.645109 -0.083463 -0.716208 226 236 255
-1.671869 -0.069141 -0.717371 227 235 255
-1.435884 -0.400455 -0.997593 54 41 26
-1.439291 -0.396812 -1.009817 50 38 23
-1.376108 -0.218483 -0.715353 134 121 128
-1.373659 -0.193076 -0.712345 165 165 194
-1.413673 -0.366865 -0.888696 70 54 45
-1.411742 -0.361322 -0.876989 69 54 41
-1.413410 -0.357282 -0.863212 61 47 32
-1.792575 0.052443 -0.712563 223 228 254
-1.787997 0.064524 -0.713356 219 224 252
-1.868870 -0.028110 -0.712929 224 237 254
