ply
format ascii 1.0
element vertex 1247
property float x
property float y
property float z
property uchar red
property uchar green
property uchar blue
end_header
-0.442873 -0.297095 -0.064506 255 255 0
-0.428279 -0.307273 -0.039394 255 255 0
-0.477739 -0.337034 -0.153461 255 255 0
-0.415108 -0.305337 -0.048505 255 255 0
-0.453716 -0.299317 -0.150505 255 255 0
-0.408456 -0.337906 -0.044505 255 255 0
-0.432479 -0.361941 -0.098505 255 255 0
-0.409676 -0.347596 -0.035518 255 255 0
-0.448935 -0.362839 -0.124506 255 255 0
-0.427065 -0.365965 -0.144506 255 255 0
-0.433433 -0.297255 -0.080505 255 255 0
-0.436903 -0.292744 -0.036506 255 255 0
-0.449541 -0.360856 -0.064506 255 255 0
-0.467025 -0.351554 -0.090505 255 255 0
-0.479517 -0.310693 -0.100505 255 255 0
-0.453721 -0.299303 -0.082505 255 255 0
-0.470491 -0.312856 -0.144506 255 255 0
-0.440153 -0.288955 -0.146505 255 255 0
-0.467099 -0.296586 -0.100505 255 255 0
-0.416267 -0.332879 -0.033578 255 255 0
-0.473146 -0.317851 -0.084505 255 255 0
-0.423944 -0.293399 -0.078506 255 255 0
-0.441082 -0.313278 -0.041484 255 255 0
-0.471032 -0.299430 -0.090505 255 255 0
-0.471306 -0.358073 -0.108297 255 255 0
-0.482717 -0.340647 -0.076505 255 255 0
-0.474431 -0.334170 -0.034505 255 255 0
-0.446635 -0.288274 -0.086505 255 255 0
-0.468867 -0.348961 -0.120506 255 255 0
-0.479650 -0.348076 -0.114505 255 255 0
-0.434464 -0.369130 -0.048505 255 255 0
-0.465331 -0.363933 -0.062505 255 255 0
-0.439328 -0.319016 -0.033233 255 255 0
-0.441447 -0.353127 -0.039491 255 255 0
-0.444797 -0.335328 -0.033069 255 255 0
-0.473183 -0.345093 -0.132505 255 255 0
-0.432604 -0.341007 -0.040505 255 255 0
-0.480232 -0.310608 -0.134506 255 255 0
-0.417546 -0.308174 -0.033808 255 255 0
-0.460341 -0.366576 -0.054505 255 255 0
-0.436541 -0.297250 -0.108505 255 255 0
-0.478725 -0.349884 -0.090505 255 255 0
-0.468128 -0.361284 -0.098505 255 255 0
-0.479146 -0.308184 -0.086505 255 255 0
-0.483940 -0.328473 -0.134506 255 255 0
-0.470870 -0.297936 -0.048505 255 255 0
-0.476291 -0.338682 -0.068505 255 255 0
-0.410877 -0.354237 -0.048505 255 255 0
-0.458137 -0.312219 -0.039434 255 255 0
-0.448946 -0.369641 -0.082505 255 255 0
-0.483675 -0.326300 -0.048505 255 255 0
-0.471643 -0.299617 -0.062505 255 255 0
-0.406376 -0.308942 -0.136505 255 255 0
-0.443262 -0.299305 -0.047472 255 255 0
-0.450596 -0.288999 -0.060701 255 255 0
-0.448213 -0.358359 -0.046506 255 255 0
-0.424943 -0.291613 -0.144506 255 255 0
-0.407911 -0.315685 -0.076505 255 255 0
-0.475182 -0.321612 -0.060506 255 255 0
-0.414641 -0.307286 -0.068505 255 255 0
-0.415951 -0.297230 -0.056506 255 255 0
-0.422919 -0.359004 -0.072505 255 255 0
-0.447770 -0.352968 -0.033349 255 255 0
-0.451805 -0.298729 -0.122505 255 255 0
-0.419532 -0.361066 -0.056506 255 255 0
-0.476120 -0.335486 -0.112505 255 255 0
-0.465932 -0.307246 -0.118505 255 255 0
-0.456334 -0.290754 -0.072170 255 255 0
-0.467555 -0.319280 -0.032506 255 255 0
-0.401550 -0.326290 -0.049468 255 255 0
-0.474695 -0.354926 -0.142505 255 255 0
-0.408856 -0.305517 -0.128505 255 255 0
-0.446496 -0.288730 -0.104505 255 255 0
-0.456990 -0.329655 -0.040505 255 255 0
-0.460769 -0.303610 -0.110506 255 255 0
-0.455642 -0.299859 -0.058505 255 255 0
-0.417174 -0.305969 -0.126505 255 255 0
-0.458200 -0.291491 -0.114505 255 255 0
-0.458948 -0.357452 -0.068505 255 255 0
-0.438595 -0.369297 -0.090505 255 255 0
-0.411114 -0.329213 -0.041220 255 255 0
-0.460318 -0.298245 -0.037956 255 255 0
-0.471965 -0.345726 -0.098505 255 255 0
-0.417092 -0.295976 -0.118505 255 255 0
-0.419028 -0.303327 -0.140505 255 255 0
-0.447990 -0.297522 -0.144506 255 255 0
-0.417632 -0.297744 -0.102506 255 255 0
-0.479776 -0.309848 -0.058505 255 255 0
-0.442633 -0.362931 -0.072505 255 255 0
-0.469731 -0.349544 -0.036506 255 255 0
-0.467850 -0.307815 -0.098505 255 255 0
-0.476252 -0.328214 -0.081479 255 255 0
-0.477125 -0.325358 -0.152506 255 255 0
-0.444767 -0.369629 -0.060506 255 255 0
-0.470913 -0.349586 -0.082505 255 255 0
-0.471370 -0.357863 -0.086505 255 255 0
-0.483493 -0.336702 -0.108505 255 255 0
-0.435125 -0.353285 -0.034046 255 255 0
-0.423064 -0.351690 -0.043456 255 255 0
-0.482485 -0.317572 -0.072505 255 255 0
-0.445991 -0.365630 -0.034505 255 255 0
-0.476080 -0.332345 -0.058505 255 255 0
-0.446424 -0.288967 -0.128505 255 255 0
-0.430813 -0.367388 -0.124506 255 255 0
-0.467403 -0.340148 -0.042506 255 255 0
-0.483451 -0.324140 -0.092506 255 255 0
-0.424818 -0.345951 -0.033347 255 255 0
-0.458689 -0.366763 -0.070505 255 255 0
-0.456465 -0.290325 -0.088506 255 255 0
-0.449882 -0.298176 -0.074506 255 255 0
-0.482660 -0.340630 -0.124506 255 255 0
-0.412127 -0.308609 -0.076505 255 255 0
-0.446284 -0.344148 -0.039360 255 255 0
-0.483598 -0.336734 -0.060506 255 255 0
-0.456005 -0.353394 -0.033072 255 255 0
-0.436039 -0.288732 -0.129876 255 255 0
-0.467019 -0.363035 -0.080505 255 255 0
-0.471373 -0.303129 -0.146505 255 255 0
-0.471176 -0.299474 -0.126505 255 255 0
-0.440097 -0.364386 -0.116506 255 255 0
-0.464508 -0.339263 -0.033592 255 255 0
-0.472540 -0.343810 -0.140505 255 255 0
-0.458696 -0.365116 -0.146505 255 255 0
-0.432489 -0.361906 -0.066505 255 255 0
-0.466737 -0.352493 -0.065498 255 255 0
-0.408115 -0.309474 -0.120506 255 255 0
-0.465548 -0.363225 -0.114505 255 255 0
-0.427051 -0.366013 -0.080505 255 255 0
-0.427379 -0.306997 -0.160505 255 255 0
-0.476722 -0.347179 -0.040505 255 255 0
-0.472968 -0.356489 -0.124506 255 255 0
-0.466896 -0.358816 -0.041380 255 255 0
-0.455224 -0.359430 -0.120506 255 255 0
-0.403601 -0.316459 -0.048505 255 255 0
-0.433162 -0.363141 -0.138506 255 255 0
-0.456190 -0.368090 -0.130506 255 255 0
-0.437306 -0.339312 -0.033578 255 255 0
-0.444766 -0.369636 -0.112505 255 255 0
-0.460202 -0.291783 -0.136505 255 255 0
-0.478792 -0.339448 -0.040505 255 255 0
-0.415414 -0.349350 -0.043325 255 255 0
-0.443562 -0.298326 -0.094505 255 255 0
-0.459464 -0.301037 -0.066505 255 255 0
-0.407363 -0.309243 -0.062505 255 255 0
-0.476968 -0.351438 -0.072505 255 255 0
-0.473860 -0.302386 -0.074506 255 255 0
-0.455648 -0.299840 -0.050506 255 255 0
-0.413928 -0.340530 -0.039387 255 255 0
-0.411224 -0.308333 -0.041642 255 255 0
-0.463928 -0.354843 -0.074506 255 255 0
-0.482236 -0.315483 -0.116506 255 255 0
-0.471110 -0.358714 -0.058505 255 255 0
-0.447030 -0.362230 -0.080505 255 255 0
-0.473187 -0.345081 -0.064506 255 255 0
-0.440728 -0.362321 -0.098505 255 255 0
-0.449902 -0.311792 -0.041493 255 255 0
-0.436314 -0.363080 -0.080505 255 255 0
-0.455157 -0.287765 -0.046506 255 255 0
-0.406545 -0.323633 -0.035509 255 255 0
-0.479018 -0.312328 -0.151483 255 255 0
-0.446978 -0.321356 -0.033511 255 255 0
-0.461159 -0.357061 -0.135511 255 255 0
-0.473770 -0.343173 -0.074506 255 255 0
-0.432475 -0.361951 -0.148506 255 255 0
-0.483751 -0.326324 -0.068505 255 255 0
-0.446457 -0.304465 -0.032506 255 255 0
-0.411205 -0.301554 -0.064506 255 255 0
-0.417204 -0.358263 -0.098505 255 255 0
-0.415135 -0.305346 -0.090505 255 255 0
-0.424551 -0.360509 -0.039994 255 255 0
-0.403584 -0.316454 -0.068505 255 255 0
-0.431085 -0.366689 -0.060506 255 255 0
-0.481074 -0.344328 -0.106506 255 255 0
-0.470879 -0.349576 -0.146505 255 255 0
-0.473818 -0.356697 -0.050506 255 255 0
-0.422193 -0.292975 -0.130506 255 255 0
-0.469986 -0.321347 -0.158505 255 255 0
-0.417767 -0.297785 -0.082505 255 255 0
-0.431803 -0.288905 -0.142505 255 255 0
-0.483744 -0.324230 -0.142892 255 255 0
-0.472054 -0.307742 -0.038505 255 255 0
-0.457394 -0.307809 -0.033270 255 255 0
-0.441935 -0.296808 -0.123491 255 255 0
-0.465267 -0.354135 -0.052505 255 255 0
-0.467822 -0.352825 -0.112505 255 255 0
-0.443023 -0.303415 -0.158505 255 255 0
-0.402878 -0.328786 -0.042466 255 255 0
-0.470504 -0.299132 -0.110506 255 255 0
-0.442631 -0.362934 -0.132505 255 255 0
-0.453191 -0.342077 -0.041497 255 255 0
-0.462214 -0.357385 -0.102506 255 255 0
-0.442507 -0.370182 -0.044989 255 255 0
-0.425513 -0.323158 -0.041502 255 255 0
-0.427661 -0.298718 -0.132505 255 255 0
-0.403890 -0.318638 -0.106116 255 255 0
-0.480484 -0.312777 -0.066505 255 255 0
-0.436144 -0.288385 -0.116506 255 255 0
-0.436879 -0.347547 -0.041506 255 255 0
-0.435322 -0.297914 -0.068505 255 255 0
-0.439740 -0.297145 -0.134506 255 255 0
-0.407717 -0.309351 -0.082505 255 255 0
-0.450755 -0.295322 -0.035441 255 255 0
-0.465931 -0.307248 -0.082505 255 255 0
-0.433426 -0.297278 -0.146505 255 255 0
-0.465255 -0.354131 -0.144506 255 255 0
-0.474493 -0.317219 -0.092506 255 255 0
-0.480273 -0.346174 -0.060506 255 255 0
-0.475071 -0.318396 -0.142505 255 255 0
-0.442350 -0.363859 -0.147506 255 255 0
-0.433915 -0.364083 -0.040505 255 255 0
-0.414636 -0.357478 -0.090505 255 255 0
-0.425246 -0.337716 -0.039437 255 255 0
-0.420141 -0.361252 -0.108742 255 255 0
-0.462698 -0.304143 -0.048505 255 255 0
-0.423512 -0.293267 -0.104505 255 255 0
-0.442625 -0.362955 -0.054505 255 255 0
-0.478529 -0.349824 -0.134506 255 255 0
-0.407996 -0.309438 -0.100505 255 255 0
-0.451437 -0.361497 -0.092506 255 255 0
-0.464192 -0.326618 -0.039452 255 255 0
-0.415427 -0.299161 -0.130506 255 255 0
-0.451395 -0.368472 -0.074506 255 255 0
-0.451449 -0.361456 -0.136505 255 255 0
-0.475536 -0.337396 -0.086505 255 255 0
-0.444349 -0.329953 -0.040505 255 255 0
-0.422926 -0.358983 -0.132505 255 255 0
-0.475509 -0.323804 -0.119503 255 255 0
-0.462040 -0.302955 -0.132505 255 255 0
-0.423775 -0.293348 -0.116506 255 255 0
-0.459148 -0.302071 -0.093511 255 255 0
-0.478504 -0.324720 -0.038505 255 255 0
-0.451202 -0.369104 -0.056506 255 255 0
-0.483000 -0.321911 -0.112505 255 255 0
-0.471424 -0.357686 -0.070505 255 255 0
-0.471819 -0.315350 -0.108505 255 255 0
-0.446758 -0.363116 -0.107499 255 255 0
-0.479809 -0.343942 -0.149472 255 255 0
-0.448528 -0.288926 -0.120506 255 255 0
-0.418423 -0.305306 -0.098505 255 255 0
-0.417051 -0.358216 -0.146505 255 255 0
-0.483452 -0.322050 -0.056506 255 255 0
-0.446603 -0.288377 -0.142505 255 255 0
-0.427207 -0.365503 -0.093856 255 255 0
-0.483764 -0.334693 -0.080505 255 255 0
-0.413497 -0.300662 -0.074506 255 255 0
-0.455530 -0.334427 -0.033844 255 255 0
-0.419239 -0.350519 -0.032834 255 255 0
-0.459989 -0.360887 -0.037820 255 255 0
-0.433748 -0.323585 -0.033682 255 255 0
-0.433054 -0.346378 -0.033718 255 255 0
-0.481736 -0.342439 -0.054505 255 255 0
-0.483505 -0.336706 -0.092506 255 255 0
-0.430574 -0.361330 -0.118505 255 255 0
-0.476064 -0.332339 -0.072505 255 255 0
-0.449901 -0.298112 -0.136505 255 255 0
-0.430935 -0.312267 -0.033608 255 255 0
-0.429327 -0.290162 -0.084505 255 255 0
-0.411682 -0.313672 -0.046506 255 255 0
-0.426634 -0.292130 -0.047381 255 255 0
-0.452270 -0.362709 -0.144506 255 255 0
-0.471101 -0.310859 -0.124506 255 255 0
-0.477347 -0.328549 -0.114505 255 255 0
-0.423921 -0.294163 -0.070505 255 255 0
-0.419022 -0.303348 -0.064506 255 255 0
-0.430924 -0.298620 -0.088506 255 255 0
-0.439747 -0.297125 -0.056506 255 255 0
-0.451338 -0.368660 -0.118505 255 255 0
-0.420836 -0.338459 -0.033679 255 255 0
-0.403890 -0.318638 -0.091484 255 255 0
-0.455221 -0.359429 -0.060506 255 255 0
-0.435462 -0.355479 -0.042506 255 255 0
-0.412410 -0.338654 -0.032506 255 255 0
-0.462083 -0.302968 -0.142505 255 255 0
-0.465972 -0.334477 -0.038505 255 255 0
-0.483554 -0.324172 -0.128505 255 255 0
-0.411571 -0.310531 -0.114505 255 255 0
-0.411747 -0.354504 -0.153454 255 255 0
-0.421875 -0.294016 -0.058505 255 255 0
-0.478483 -0.307236 -0.094505 255 255 0
-0.417119 -0.316410 -0.033365 255 255 0
-0.462758 -0.353368 -0.156505 255 255 0
-0.476258 -0.338673 -0.126505 255 255 0
-0.462072 -0.292508 -0.050856 255 255 0
-0.475077 -0.318375 -0.052505 255 255 0
-0.442162 -0.290603 -0.040505 255 255 0
-0.460239 -0.356780 -0.126505 255 255 0
-0.429021 -0.298006 -0.054505 255 255 0
-0.457742 -0.358108 -0.078506 255 255 0
-0.472543 -0.343811 -0.052505 255 255 0
-0.436601 -0.368978 -0.110506 255 255 0
-0.469774 -0.308359 -0.052505 255 255 0
-0.416696 -0.358836 -0.062505 255 255 0
-0.434397 -0.362508 -0.050506 255 255 0
-0.415991 -0.357892 -0.076505 255 255 0
-0.420235 -0.302722 -0.106506 255 255 0
-0.417161 -0.305965 -0.082505 255 255 0
-0.419602 -0.301448 -0.052505 255 255 0
-0.464108 -0.361095 -0.148506 255 255 0
-0.465922 -0.307276 -0.146505 255 255 0
-0.434688 -0.368395 -0.076505 255 255 0
-0.467700 -0.315143 -0.155913 255 255 0
-0.419033 -0.303309 -0.120506 255 255 0
-0.432111 -0.297987 -0.100505 255 255 0
-0.451912 -0.366782 -0.037664 255 255 0
-0.421805 -0.294242 -0.096506 255 255 0
-0.468506 -0.309115 -0.060506 255 255 0
-0.420937 -0.307120 -0.044505 255 255 0
-0.476206 -0.353296 -0.084505 255 255 0
-0.442585 -0.287843 -0.114505 255 255 0
-0.458346 -0.359421 -0.054505 255 255 0
-0.409878 -0.303738 -0.106506 255 255 0
-0.422967 -0.297283 -0.039376 255 255 0
-0.404096 -0.320794 -0.130506 255 255 0
-0.419051 -0.357977 -0.124506 255 255 0
-0.434974 -0.309320 -0.040505 255 255 0
-0.466214 -0.306322 -0.091489 255 255 0
-0.462061 -0.365702 -0.094505 255 255 0
-0.484416 -0.330710 -0.118505 255 255 0
-0.436629 -0.368887 -0.056506 255 255 0
-0.429631 -0.299321 -0.124506 255 255 0
-0.414601 -0.307273 -0.148506 255 255 0
-0.410815 -0.329122 -0.032506 255 255 0
-0.448684 -0.288414 -0.074794 255 255 0
-0.442568 -0.370200 -0.138506 255 255 0
-0.475541 -0.353093 -0.110506 255 255 0
-0.442361 -0.288573 -0.092129 255 255 0
-0.432794 -0.289830 -0.060506 255 255 0
-0.434653 -0.368510 -0.084505 255 255 0
-0.432584 -0.289767 -0.094505 255 255 0
-0.471466 -0.347665 -0.126505 255 255 0
-0.471072 -0.358837 -0.138506 255 255 0
-0.475145 -0.321601 -0.134506 255 255 0
-0.441123 -0.363484 -0.038505 255 255 0
-0.476272 -0.338677 -0.138506 255 255 0
-0.413740 -0.300104 -0.114505 255 255 0
-0.475685 -0.340589 -0.096506 255 255 0
-0.423442 -0.316251 -0.039429 255 255 0
-0.428818 -0.367075 -0.068505 255 255 0
-0.446079 -0.296937 -0.080505 255 255 0
-0.433150 -0.363138 -0.112505 255 255 0
-0.446068 -0.296971 -0.108505 255 255 0
-0.431629 -0.289475 -0.106125 255 255 0
-0.421524 -0.302006 -0.134506 255 255 0
-0.413321 -0.300608 -0.138506 255 255 0
-0.471090 -0.310894 -0.116506 255 255 0
-0.438221 -0.288434 -0.072505 255 255 0
-0.475218 -0.321623 -0.068505 255 255 0
-0.474291 -0.302518 -0.044505 255 255 0
-0.424589 -0.364703 -0.086505 255 255 0
-0.444883 -0.369252 -0.102506 255 255 0
-0.433446 -0.297213 -0.136505 255 255 0
-0.409202 -0.309806 -0.054505 255 255 0
-0.425708 -0.298122 -0.064506 255 255 0
-0.463646 -0.294200 -0.072505 255 255 0
-0.449162 -0.368938 -0.138506 255 255 0
-0.467226 -0.296174 -0.115542 255 255 0
-0.405894 -0.315068 -0.042506 255 255 0
-0.465410 -0.349996 -0.031493 255 255 0
-0.448493 -0.295879 -0.152506 255 255 0
-0.479142 -0.310274 -0.050506 255 255 0
-0.453629 -0.368006 -0.050506 255 255 0
-0.483797 -0.326338 -0.104505 255 255 0
-0.456334 -0.290754 -0.131346 255 255 0
-0.481497 -0.315177 -0.140505 255 255 0
-0.481563 -0.338203 -0.146917 255 255 0
-0.480894 -0.313029 -0.082505 255 255 0
-0.479383 -0.352176 -0.048353 255 255 0
-0.421512 -0.361672 -0.116506 255 255 0
-0.438523 -0.368964 -0.122505 255 255 0
-0.475118 -0.342507 -0.082505 255 255 0
-0.465281 -0.306038 -0.104505 255 255 0
-0.437573 -0.324754 -0.039393 255 255 0
-0.470465 -0.299257 -0.133775 255 255 0
-0.459136 -0.291611 -0.096506 255 255 0
-0.475806 -0.322834 -0.100505 255 255 0
-0.436027 -0.364018 -0.093485 255 255 0
-0.426463 -0.361094 -0.127495 255 255 0
-0.476681 -0.330436 -0.088506 255 255 0
-0.424924 -0.364805 -0.138506 255 255 0
-0.451139 -0.368638 -0.126505 255 255 0
-0.430511 -0.291224 -0.070505 255 255 0
-0.476698 -0.330442 -0.098505 255 255 0
-0.483382 -0.339097 -0.102506 255 255 0
-0.476647 -0.306401 -0.150505 255 255 0
-0.456119 -0.292779 -0.040505 255 255 0
-0.461297 -0.302728 -0.032506 255 255 0
-0.460160 -0.291923 -0.083481 255 255 0
-0.412157 -0.308618 -0.140505 255 255 0
-0.437315 -0.301669 -0.154505 255 255 0
-0.415765 -0.299264 -0.046506 255 255 0
-0.435993 -0.288718 -0.052505 255 255 0
-0.467255 -0.296076 -0.086505 255 255 0
-0.433228 -0.363162 -0.130506 255 255 0
-0.433957 -0.288700 -0.122505 255 255 0
-0.436196 -0.295054 -0.152144 255 255 0
-0.477062 -0.351467 -0.120506 255 255 0
-0.475619 -0.302924 -0.141634 255 255 0
-0.472170 -0.300524 -0.104505 255 255 0
-0.423664 -0.293314 -0.138506 255 255 0
-0.414175 -0.298676 -0.144506 255 255 0
-0.466412 -0.353560 -0.096506 255 255 0
-0.458454 -0.324864 -0.033507 255 255 0
-0.483903 -0.330553 -0.141714 255 255 0
-0.449904 -0.298105 -0.102506 255 255 0
-0.434649 -0.334317 -0.039405 255 255 0
-0.429019 -0.298011 -0.112505 255 255 0
-0.423418 -0.302648 -0.090505 255 255 0
-0.483112 -0.332403 -0.074506 255 255 0
-0.482231 -0.317493 -0.130506 255 255 0
-0.474459 -0.317209 -0.126505 255 255 0
-0.415549 -0.355665 -0.042506 255 255 0
-0.446890 -0.369528 -0.088506 255 255 0
-0.480509 -0.346246 -0.074506 255 255 0
-0.458990 -0.295748 -0.149369 255 255 0
-0.461962 -0.313388 -0.033321 255 255 0
-0.430776 -0.305944 -0.033194 255 255 0
-0.480796 -0.320195 -0.152506 255 255 0
-0.449000 -0.301059 -0.045442 255 255 0
-0.483976 -0.334758 -0.132505 255 255 0
-0.483633 -0.336745 -0.046506 255 255 0
-0.451437 -0.347815 -0.033104 255 255 0
-0.454626 -0.289499 -0.142505 255 255 0
-0.424502 -0.333306 -0.033284 255 255 0
-0.444956 -0.341651 -0.033583 255 255 0
-0.428595 -0.319918 -0.033264 255 255 0
-0.436611 -0.362105 -0.033682 255 255 0
-0.464015 -0.306676 -0.074506 255 255 0
-0.417964 -0.295754 -0.074506 255 255 0
-0.460123 -0.302369 -0.126505 255 255 0
-0.442995 -0.313863 -0.033670 255 255 0
-0.437836 -0.296533 -0.088506 255 255 0
-0.469344 -0.330285 -0.033147 255 255 0
-0.449884 -0.298167 -0.088506 255 255 0
-0.430082 -0.328738 -0.033473 255 255 0
-0.455638 -0.299873 -0.114505 255 255 0
-0.472414 -0.313406 -0.138506 255 255 0
-0.444639 -0.329006 -0.033364 255 255 0
-0.476665 -0.330431 -0.126505 255 255 0
-0.455635 -0.299883 -0.100505 255 255 0
-0.426515 -0.299360 -0.076505 255 255 0
-0.449911 -0.298079 -0.060506 255 255 0
-0.418606 -0.325229 -0.033410 255 255 0
-0.457199 -0.360033 -0.114505 255 255 0
-0.472538 -0.343810 -0.104505 255 255 0
-0.459468 -0.301027 -0.080505 255 255 0
-0.476097 -0.332349 -0.050506 255 255 0
-0.437415 -0.318432 -0.039463 255 255 0
-0.437504 -0.289179 -0.082505 255 255 0
-0.471100 -0.310861 -0.082505 255 255 0
-0.424836 -0.359576 -0.096506 255 255 0
-0.439732 -0.297172 -0.080505 255 255 0
-0.460024 -0.292369 -0.126505 255 255 0
-0.433753 -0.290124 -0.042506 255 255 0
-0.421914 -0.293885 -0.122505 255 255 0
-0.431787 -0.295798 -0.034548 255 255 0
-0.422138 -0.293153 -0.084505 255 255 0
-0.435679 -0.289908 -0.136505 255 255 0
-0.456446 -0.358793 -0.100505 255 255 0
-0.469566 -0.359631 -0.064506 255 255 0
-0.468744 -0.359614 -0.092506 255 255 0
-0.473099 -0.356530 -0.102506 255 255 0
-0.476702 -0.330442 -0.146505 255 255 0
-0.465460 -0.295109 -0.064506 255 255 0
-0.480477 -0.346237 -0.120506 255 255 0
-0.482661 -0.341454 -0.064506 255 255 0
-0.475800 -0.319710 -0.106506 255 255 0
-0.456005 -0.353394 -0.043440 255 255 0
-0.473128 -0.314710 -0.074506 255 255 0
-0.427172 -0.297212 -0.146505 255 255 0
-0.419584 -0.296249 -0.142505 255 255 0
-0.478433 -0.314241 -0.040514 255 255 0
-0.438179 -0.363817 -0.086505 255 255 0
-0.470540 -0.299014 -0.078506 255 255 0
-0.414678 -0.334485 -0.040505 255 255 0
-0.472726 -0.326065 -0.046506 255 255 0
-0.469519 -0.350235 -0.152506 255 255 0
-0.466371 -0.362837 -0.056506 255 255 0
-0.476601 -0.324138 -0.086505 255 255 0
-0.412710 -0.317153 -0.041394 255 255 0
-0.468509 -0.309116 -0.132505 255 255 0
-0.476721 -0.349272 -0.148506 255 255 0
-0.469413 -0.359584 -0.128505 255 255 0
-0.462659 -0.292687 -0.102506 255 255 0
-0.479943 -0.309302 -0.106506 255 255 0
-0.470481 -0.309718 -0.070505 255 255 0
-0.414358 -0.357392 -0.052505 255 255 0
-0.425226 -0.365140 -0.108505 255 255 0
-0.461451 -0.356107 -0.088506 255 255 0
-0.428366 -0.365858 -0.038505 255 255 0
-0.439580 -0.342099 -0.040505 255 255 0
-0.446235 -0.316945 -0.041503 255 255 0
-0.476044 -0.332334 -0.138506 255 255 0
-0.450961 -0.328847 -0.041502 255 255 0
-0.441421 -0.363575 -0.066505 255 255 0
-0.452614 -0.289240 -0.066505 255 255 0
-0.476576 -0.324130 -0.146505 255 255 0
-0.415928 -0.306626 -0.104505 255 255 0
-0.412718 -0.354800 -0.112505 255 255 0
-0.451863 -0.368859 -0.100505 255 255 0
-0.408377 -0.313736 -0.140505 255 255 0
-0.434600 -0.296657 -0.074506 255 255 0
-0.461635 -0.365572 -0.140505 255 255 0
-0.470493 -0.299167 -0.054505 255 255 0
-0.417571 -0.297725 -0.124506 255 255 0
-0.457236 -0.301486 -0.155128 255 255 0
-0.424835 -0.359581 -0.050506 255 255 0
-0.475886 -0.305097 -0.060506 255 255 0
-0.429041 -0.291096 -0.128505 255 255 0
-0.470198 -0.313814 -0.049488 255 255 0
-0.462728 -0.365608 -0.126505 255 255 0
-0.468285 -0.313230 -0.033498 255 255 0
-0.466645 -0.304912 -0.036506 255 255 0
-0.445832 -0.362832 -0.094505 255 255 0
-0.415631 -0.299224 -0.108505 255 255 0
-0.476724 -0.333513 -0.064506 255 255 0
-0.428991 -0.366510 -0.100505 255 255 0
-0.423869 -0.308016 -0.033006 255 255 0
-0.409622 -0.303661 -0.046506 255 255 0
-0.410361 -0.311151 -0.132505 255 255 0
-0.442558 -0.287930 -0.052505 255 255 0
-0.458929 -0.343832 -0.039387 255 255 0
-0.479611 -0.348063 -0.096506 255 255 0
-0.457052 -0.290974 -0.108505 255 255 0
-0.471098 -0.310869 -0.104505 255 255 0
-0.425671 -0.329481 -0.039361 255 255 0
-0.442622 -0.362968 -0.122505 255 255 0
-0.406311 -0.313104 -0.090505 255 255 0
-0.455262 -0.348985 -0.039360 255 255 0
-0.404260 -0.341757 -0.042506 255 255 0
-0.467273 -0.323378 -0.043504 255 255 0
-0.465317 -0.309257 -0.156505 255 255 0
-0.738031 0.018395 -0.138506 255 0 0
-0.683569 0.007858 0.119422 255 0 0
-0.572600 0.058515 -0.040505 255 0 0
-0.783816 -0.054162 0.003262 255 0 0
-0.624711 0.095808 -0.162506 255 0 0
-0.687578 0.025454 -0.004506 255 0 0
-0.771938 -0.086174 -0.154505 255 0 0
-0.633304 0.000783 -0.110506 255 0 0
-0.549827 0.032015 -0.154505 255 0 0
-0.722215 -0.036751 -0.064506 255 0 0
-0.618491 0.054942 0.027220 255 0 0
-0.726014 -0.013485 0.053495 255 0 0
-0.685777 -0.038828 -0.154505 255 0 0
-0.647760 0.061747 -0.062505 255 0 0
-0.678720 0.060404 -0.128505 255 0 0
-0.594045 0.098114 -0.096506 255 0 0
-0.709230 0.030226 -0.074506 255 0 0
-0.744569 -0.004679 -0.012505 255 0 0
-0.770522 -0.001878 -0.086505 255 0 0
-0.580499 0.033283 -0.098505 255 0 0
-0.658962 0.023141 0.063495 255 0 0
-0.658437 0.000901 -0.053135 255 0 0
-0.737174 -0.049386 -0.122505 255 0 0
-0.605627 0.012865 -0.161452 255 0 0
-0.786515 -0.000611 -0.162506 255 0 0
-0.619363 0.030430 -0.024505 255 0 0
-0.686376 -0.017162 -0.102506 255 0 0
-0.574724 0.080871 -0.146505 255 0 0
-0.631699 0.070780 -0.114505 255 0 0
-0.648182 -0.008511 -0.156505 255 0 0
-0.699601 -0.014948 -0.028506 255 0 0
-0.616391 0.020711 -0.070505 255 0 0
-0.704827 0.043187 -0.163484 255 0 0
-0.593837 0.076909 -0.004506 255 0 0
-0.607946 0.082015 -0.056506 255 0 0
-0.759738 -0.023469 0.025495 255 0 0
-0.648583 0.023396 0.017494 255 0 0
-0.741908 0.007136 -0.054505 255 0 0
-0.718338 -0.002772 0.095494 255 0 0
-0.692196 -0.004966 0.027494 255 0 0
-0.680517 0.038919 -0.044505 255 0 0
-0.658608 0.069865 -0.163449 255 0 0
-0.673530 0.043429 -0.090505 255 0 0
-0.705456 0.031562 -0.116506 255 0 0
-0.723672 -0.052505 -0.161478 255 0 0
-0.734448 0.010102 -0.098505 255 0 0
-0.770204 -0.002918 -0.126505 255 0 0
-0.655276 0.045288 -0.014506 255 0 0
-0.578898 0.067047 -0.078506 255 0 0
-0.583291 0.032242 -0.136505 255 0 0
-0.590651 0.114376 -0.154505 255 0 0
-0.776117 -0.024620 -0.019301 255 0 0
-0.694192 -0.012121 -0.065463 255 0 0
-0.712204 0.019431 -0.036506 255 0 0
-0.622140 0.066876 -0.026505 255 0 0
-0.660411 0.027883 0.099495 255 0 0
-0.725431 -0.017489 0.015495 255 0 0
-0.606224 0.090063 -0.131494 255 0 0
-0.573374 0.064702 -0.114505 255 0 0
-0.658152 0.009354 -0.016505 255 0 0
-0.745881 -0.055113 -0.088533 255 0 0
-0.713054 -0.039354 -0.098505 255 0 0
-0.666706 -0.022540 -0.130506 255 0 0
-0.660349 0.000317 -0.087447 255 0 0
-0.772499 -0.056976 -0.029467 255 0 0
-0.588393 0.038579 -0.062505 255 0 0
-0.608838 0.023368 -0.114505 255 0 0
-0.760817 -0.072226 -0.126505 255 0 0
-0.584729 0.053958 0.017494 255 0 0
-0.627539 0.077695 -0.082505 255 0 0
-0.707729 -0.036248 -0.130506 255 0 0
-0.749567 -0.036217 -0.004506 255 0 0
-0.715308 0.009062 -0.000506 255 0 0
-0.678099 0.024169 0.030326 255 0 0
-0.592955 0.046663 -0.016505 255 0 0
-0.758972 0.015070 -0.162506 255 0 0
-0.759798 -0.016434 -0.044505 255 0 0
-0.557512 0.035940 -0.120506 255 0 0
-0.641828 0.083390 -0.140505 255 0 0
-0.626940 0.007331 -0.140505 255 0 0
-0.637933 0.022763 -0.048505 255 0 0
-0.751484 -0.064148 -0.158505 255 0 0
-0.629848 0.044201 0.001495 255 0 0
-0.653094 0.065512 -0.092506 255 0 0
-0.724367 -0.029712 -0.034898 255 0 0
-0.589326 0.082681 -0.033723 255 0 0
-0.688554 -0.003199 -0.002505 255 0 0
-0.561667 0.055584 -0.142505 255 0 0
-0.580020 0.024876 -0.163467 255 0 0
-0.730139 0.030209 -0.162506 255 0 0
-0.639530 0.048509 -0.037489 255 0 0
-0.680178 0.003607 -0.034505 255 0 0
-0.681133 0.054613 -0.155491 255 0 0
-0.720308 0.039097 -0.138506 255 0 0
-0.648201 0.035826 0.041494 255 0 0
-0.637507 0.014530 -0.086505 255 0 0
-0.779195 -0.028234 0.007495 255 0 0
-0.566502 0.043648 -0.078506 255 0 0
-0.603869 0.044773 -0.040505 255 0 0
-0.752895 0.015714 -0.116506 255 0 0
-0.728728 -0.001766 -0.033489 255 0 0
-0.669882 0.010973 0.009494 255 0 0
-0.622458 0.061075 -0.052505 255 0 0
-0.724960 0.009843 -0.074506 255 0 0
-0.664709 0.041940 -0.064506 255 0 0
-0.660795 -0.005065 -0.112505 255 0 0
-0.616688 0.088955 -0.104505 255 0 0
-0.652443 0.063384 -0.127492 255 0 0
-0.607406 0.056239 0.003495 255 0 0
-0.713902 -0.016056 -0.007499 255 0 0
-0.716668 -0.000170 0.031776 255 0 0
-0.601544 0.013194 -0.136505 255 0 0
-0.604847 0.030832 -0.090505 255 0 0
-0.601103 0.080154 -0.080505 255 0 0
-0.698053 0.041553 -0.094505 255 0 0
-0.644012 -0.009328 -0.130506 255 0 0
-0.695068 0.041987 -0.136505 255 0 0
-0.640135 0.023128 -0.006505 255 0 0
-0.669371 -0.021264 -0.160505 255 0 0
-0.625968 0.031512 0.023494 255 0 0
-0.685887 0.029121 -0.066505 255 0 0
-0.746752 -0.001003 -0.078506 255 0 0
-0.584489 0.086251 -0.120506 255 0 0
-0.731549 0.027982 -0.116506 255 0 0
-0.672667 0.026924 -0.024505 255 0 0
-0.597269 0.074457 0.019495 255 0 0
-0.697749 -0.027849 -0.083896 255 0 0
-0.713159 -0.011646 0.073722 255 0 0
-0.696355 0.015476 0.015495 255 0 0
-0.666757 0.034957 0.003495 255 0 0
-0.584506 0.073698 -0.056506 255 0 0
-0.761527 0.016587 -0.138506 255 0 0
-0.681748 0.042948 -0.112505 255 0 0
-0.699010 0.010480 -0.018506 255 0 0
-0.733395 -0.061752 -0.142260 255 0 0
-0.711697 -0.016429 -0.050506 255 0 0
-0.757941 -0.015666 0.003495 255 0 0
-0.719520 0.029681 -0.096506 255 0 0
-0.676616 -0.014886 -0.080505 255 0 0
-0.695496 -0.001017 0.101494 255 0 0
-0.590675 0.107365 -0.132505 255 0 0
-0.562331 0.049106 -0.101698 255 0 0
-0.765338 -0.006685 -0.064506 255 0 0
-0.687005 -0.030837 -0.122505 255 0 0
-0.772085 -0.044651 0.021495 255 0 0
-0.583716 0.078008 -0.098505 255 0 0
-0.732461 -0.037440 -0.084505 255 0 0
-0.668512 0.061217 -0.108505 255 0 0
-0.749864 -0.062604 -0.109439 255 0 0
-0.709660 0.014520 -0.058505 255 0 0
-0.615790 0.025582 -0.048505 255 0 0
-0.654005 0.013769 0.083494 255 0 0
-0.659119 0.037334 -0.038505 255 0 0
-0.604153 0.096971 -0.153466 255 0 0
-0.618272 0.013181 -0.096806 255 0 0
-0.639895 0.008661 -0.064994 255 0 0
-0.739212 -0.032160 0.023494 255 0 0
-0.761980 -0.002455 -0.106506 255 0 0
-0.628737 -0.000476 -0.161424 255 0 0
-0.600179 0.066814 -0.022506 255 0 0
-0.638450 0.079179 -0.162506 255 0 0
-0.706228 -0.047998 -0.148506 255 0 0
-0.576572 0.061483 -0.019548 255 0 0
-0.781360 0.006211 -0.142505 255 0 0
-0.642771 0.045428 0.023023 255 0 0
-0.644573 0.023963 -0.027534 255 0 0
-0.691787 0.021059 -0.046506 255 0 0
-0.665232 0.071012 -0.142505 255 0 0
-0.730478 -0.050767 -0.102506 255 0 0
-0.570992 0.056915 -0.061502 255 0 0
-0.626677 0.088556 -0.126505 255 0 0
-0.679018 -0.000187 -0.056506 255 0 0
-0.636944 0.055574 -0.014506 255 0 0
-0.767188 -0.046987 -0.007500 255 0 0
-0.754797 -0.019110 -0.024505 255 0 0
-0.704531 -0.009008 0.009494 255 0 0
-0.676503 0.012110 0.100499 255 0 0
-0.588363 0.024802 -0.116506 255 0 0
-0.660311 0.013873 -0.036506 255 0 0
-0.733037 -0.023998 -0.002505 255 0 0
-0.590137 0.090799 -0.066505 255 0 0
-0.749257 -0.001768 -0.034505 255 0 0
-0.611498 0.038911 -0.006505 255 0 0
-0.589392 0.041850 -0.082505 255 0 0
-0.742222 -0.012355 0.025495 255 0 0
-0.720176 0.011306 -0.019931 255 0 0
-0.732897 -0.001811 0.003495 255 0 0
-0.692539 0.028121 -0.026505 255 0 0
-0.607959 0.041013 0.017494 255 0 0
-0.621525 0.085385 -0.145477 255 0 0
-0.677831 0.009612 -0.013479 255 0 0
-0.661946 0.012377 0.027695 255 0 0
-0.655630 0.049862 -0.080505 255 0 0
-0.602824 0.099468 -0.114311 255 0 0
-0.618635 0.007528 -0.122505 255 0 0
-0.717029 -0.046872 -0.116506 255 0 0
-0.563768 0.033287 -0.140505 255 0 0
-0.601997 0.069400 -0.042506 255 0 0
-0.689231 -0.014663 -0.046506 255 0 0
-0.702159 -0.027106 -0.109487 255 0 0
-0.579971 0.052078 -0.001503 255 0 0
-0.638629 0.059242 -0.079499 255 0 0
-0.714955 -0.019454 0.033495 255 0 0
-0.723791 -0.045277 -0.136505 255 0 0
-0.655733 0.033099 0.079754 255 0 0
-0.614648 0.069736 -0.070505 255 0 0
-0.753341 0.010332 -0.094505 255 0 0
-0.785121 -0.037830 -0.008505 255 0 0
-0.682130 -0.024211 -0.142505 255 0 0
-0.765536 -0.069487 -0.146505 255 0 0
-0.746677 0.028300 -0.152506 255 0 0
-0.576164 0.039626 -0.116506 255 0 0
-0.648885 0.044906 0.003495 255 0 0
-0.607266 0.035368 -0.062505 255 0 0
-0.650820 0.071759 -0.110506 255 0 0
-0.584281 0.096772 -0.150505 255 0 0
-0.662424 0.034464 0.027494 255 0 0
-0.709902 -0.022299 -0.070505 255 0 0
-0.668317 -0.014668 -0.097884 255 0 0
-0.634371 0.065839 -0.096506 255 0 0
-0.789891 -0.039288 0.019495 255 0 0
-0.576288 0.060553 -0.096506 255 0 0
-0.584264 0.044492 -0.044505 255 0 0
-0.574630 0.066260 -0.134506 255 0 0
-0.589591 0.015137 -0.150505 255 0 0
-0.725468 0.014933 -0.048505 255 0 0
-0.619134 0.063886 -0.008505 255 0 0
-0.657543 0.052701 -0.048505 255 0 0
-0.682463 0.045285 -0.074506 255 0 0
-0.657304 0.007522 -0.070505 255 0 0
-0.646535 -0.003826 -0.098782 255 0 0
-0.748790 -0.059278 -0.132505 255 0 0
-0.738072 -0.046451 -0.069695 255 0 0
-0.758316 -0.034960 0.011495 255 0 0
-0.631755 0.070964 -0.064506 255 0 0
-0.726614 -0.005302 -0.014506 255 0 0
-0.658116 -0.020669 -0.146505 255 0 0
-0.565513 0.035585 -0.162506 255 0 0
-0.654971 0.016927 0.001495 255 0 0
-0.685798 -0.005373 -0.020005 255 0 0
-0.565271 0.052390 -0.124506 255 0 0
-0.717286 -0.014999 -0.026505 255 0 0
-0.676833 -0.014174 -0.118505 255 0 0
-0.609245 0.045220 -0.023502 255 0 0
-0.679955 0.025694 0.011495 255 0 0
-0.576034 0.046045 -0.028506 255 0 0
-0.697797 0.054394 -0.148506 255 0 0
-0.697647 0.047063 -0.118505 255 0 0
-0.679158 0.007115 0.023786 255 0 0
-0.666352 -0.007412 -0.068505 255 0 0
-0.602146 0.057847 0.021495 255 0 0
-0.749477 -0.009145 -0.056506 255 0 0
-0.714114 -0.035886 -0.080505 255 0 0
-0.692328 -0.038740 -0.138174 255 0 0
-0.739969 0.014479 -0.082505 255 0 0
-0.701043 0.030812 -0.058505 255 0 0
-0.703693 0.025797 -0.090505 255 0 0
-0.614763 0.001705 -0.151121 255 0 0
-0.675601 0.022841 0.113712 255 0 0
-0.692974 0.011257 0.032797 255 0 0
-0.721390 0.001593 0.015495 255 0 0
-0.612579 0.076645 -0.092506 255 0 0
-0.570459 0.041487 -0.054505 255 0 0
-0.648171 0.069930 -0.148506 255 0 0
-0.623069 0.057726 0.009494 255 0 0
-0.725537 -0.025887 -0.051468 255 0 0
-0.644530 0.078546 -0.124506 255 0 0
-0.635074 -0.007110 -0.144506 255 0 0
-0.699934 0.007037 0.115495 255 0 0
-0.702526 -0.005383 -0.014506 255 0 0
-0.638750 0.063388 -0.048505 255 0 0
-0.774581 0.011402 -0.156862 255 0 0
-0.586600 0.064692 -0.032506 255 0 0
-0.649515 0.020360 0.035495 255 0 0
-0.719385 0.042918 -0.154661 255 0 0
-0.687057 0.032951 -0.084505 255 0 0
-0.723337 0.024978 -0.130506 255 0 0
-0.629252 0.021735 -0.034505 255 0 0
-0.593294 0.088818 -0.048505 255 0 0
-0.634089 0.029259 0.007495 255 0 0
-0.762827 -0.074932 -0.163387 255 0 0
-0.745389 -0.022519 0.011495 255 0 0
-0.586974 0.088666 -0.136505 255 0 0
-0.592024 0.064138 0.005495 255 0 0
-0.670843 0.024297 -0.008505 255 0 0
-0.625564 0.030189 -0.008505 255 0 0
-0.700913 0.016707 -0.000506 255 0 0
-0.715381 -0.001868 0.057495 255 0 0
-0.655277 0.038451 0.059494 255 0 0
-0.596427 0.023815 -0.102506 255 0 0
-0.631592 0.022547 -0.064506 255 0 0
-0.659377 0.051862 -0.098505 255 0 0
-0.636514 0.004439 -0.126505 255 0 0
-0.646461 0.009616 -0.044505 255 0 0
-0.660422 0.010751 0.099495 255 0 0
-0.780576 -0.051080 -0.016567 255 0 0
-0.617738 0.073000 -0.042506 255 0 0
-0.771065 -0.020621 -0.004506 255 0 0
-0.660209 -0.006984 -0.128505 255 0 0
-0.747358 -0.070803 -0.144506 255 0 0
-0.727082 0.027052 -0.146505 255 0 0
-0.775964 -0.007842 -0.112505 255 0 0
-0.550429 0.044380 -0.143634 255 0 0
-0.646094 0.001574 -0.080505 255 0 0
-0.723962 0.023688 -0.082505 255 0 0
-0.756074 0.005591 -0.128505 255 0 0
-0.641896 0.042569 -0.022506 255 0 0
-0.702476 -0.039750 -0.161467 255 0 0
-0.612419 0.082966 -0.118505 255 0 0
-0.672690 0.068040 -0.156505 255 0 0
-0.630529 0.080636 -0.100505 255 0 0
-0.648653 0.023624 0.051494 255 0 0
-0.598391 0.030239 -0.074506 255 0 0
-0.729030 -0.008133 0.037494 255 0 0
-0.735126 -0.062930 -0.158505 255 0 0
-0.627762 0.051062 -0.026505 255 0 0
-0.575402 0.023452 -0.148506 255 0 0
-0.600957 0.086517 -0.104505 255 0 0
-0.737528 0.013334 -0.118505 255 0 0
-0.709041 0.043289 -0.128505 255 0 0
-0.666697 0.041601 -0.024505 255 0 0
-0.748476 -0.019262 -0.008505 255 0 0
-0.671291 0.056624 -0.142505 255 0 0
-0.705570 0.038776 -0.147501 255 0 0
-0.606592 0.091269 -0.090505 255 0 0
-0.595181 0.094990 -0.080505 255 0 0
-0.617327 0.037453 -0.038505 255 0 0
-0.575976 0.045851 -0.090505 255 0 0
-0.654541 0.049725 -0.030505 255 0 0
-0.710929 0.001584 0.082686 255 0 0
-0.566425 0.062495 -0.155439 255 0 0
-0.655013 0.023907 -0.012505 255 0 0
-0.750174 0.013654 -0.148506 255 0 0
-0.723481 0.018660 -0.106506 255 0 0
-0.624112 0.021853 -0.084505 255 0 0
-0.596084 0.026239 -0.130506 255 0 0
-0.633117 0.013854 -0.102506 255 0 0
-0.716217 0.005196 -0.040505 255 0 0
-0.665641 0.055166 -0.122505 255 0 0
-0.685042 0.012676 0.003495 255 0 0
-0.615205 0.098919 -0.142505 255 0 0
-0.689652 0.000393 0.013494 255 0 0
-0.579713 0.047976 -0.072505 255 0 0
-0.680450 0.052384 -0.100505 255 0 0
-0.588712 0.064046 -0.010505 255 0 0
-0.721187 0.021453 -0.065647 255 0 0
-0.691395 -0.014430 -0.086505 255 0 0
-0.706554 0.007790 0.023494 255 0 0
-0.707421 -0.009891 0.024651 255 0 0
-0.666541 0.000047 -0.040505 255 0 0
-0.725647 -0.005007 0.068644 255 0 0
-0.670185 0.053011 -0.078506 255 0 0
-0.753191 0.003001 -0.064506 255 0 0
-0.744763 -0.048496 -0.106506 255 0 0
-0.736220 0.002217 -0.067491 255 0 0
-0.597184 0.046817 -0.002108 255 0 0
-0.794344 -0.036466 0.005495 255 0 0
-0.635449 0.089885 -0.152506 255 0 0
-0.766225 0.004590 -0.146505 255 0 0
-0.699248 -0.022948 -0.056506 255 0 0
-0.586367 0.081494 -0.082505 255 0 0
-0.640257 0.030367 0.029495 255 0 0
-0.645807 -0.006208 -0.114505 255 0 0
-0.681591 0.025193 -0.036506 255 0 0
-0.679165 -0.013802 -0.064506 255 0 0
-0.767151 0.007618 -0.116506 255 0 0
-0.720220 -0.055632 -0.146505 255 0 0
-0.698273 0.014906 -0.034505 255 0 0
-0.719159 0.035340 -0.120506 255 0 0
-0.654810 0.057442 -0.112505 255 0 0
-0.648528 0.030057 0.003495 255 0 0
-0.776360 -0.030666 0.023494 255 0 0
-0.628782 0.012059 -0.074506 255 0 0
-0.738745 -0.010046 -0.026505 255 0 0
-0.652080 0.014310 -0.058505 255 0 0
-0.592266 0.051252 -0.030505 255 0 0
-0.738615 -0.003629 -0.044505 255 0 0
-0.768899 -0.014027 -0.026505 255 0 0
-0.623358 0.050337 -0.012505 255 0 0
-0.692402 -0.004294 -0.036506 255 0 0
-0.669477 0.002809 -0.024505 255 0 0
-0.677901 0.044045 -0.058505 255 0 0
-0.623218 0.043039 0.014903 255 0 0
-0.708773 -0.025994 -0.094505 255 0 0
-0.684403 0.037950 -0.098505 255 0 0
-0.667363 0.036940 -0.050506 255 0 0
-0.590066 0.078271 -0.018506 255 0 0
-0.631928 0.023646 -0.020324 255 0 0
-0.685570 0.059530 -0.142505 255 0 0
-0.562369 0.035548 -0.096506 255 0 0
-0.644551 0.037571 -0.008505 255 0 0
-0.655231 0.038299 0.015495 255 0 0
-0.606824 0.071507 -0.010505 255 0 0
-0.598068 0.036027 -0.050506 255 0 0
-0.760222 -0.008203 -0.078506 255 0 0
-0.708650 -0.001902 0.107495 255 0 0
-0.599299 0.108458 -0.144506 255 0 0
-0.666483 0.008899 -0.004506 255 0 0
-0.711564 -0.023707 -0.037951 255 0 0
-0.633321 0.062403 -0.034505 255 0 0
-0.713818 -0.009757 0.045494 255 0 0
-0.719041 -0.006091 0.003495 255 0 0
-0.621354 0.016422 -0.111468 255 0 0
-0.750217 0.020636 -0.130506 255 0 0
-0.726139 -0.037598 -0.106506 255 0 0
-0.644248 0.050261 -0.054505 255 0 0
-0.609949 0.074883 -0.030505 255 0 0
-0.745933 0.006625 -0.106506 255 0 0
-0.614598 0.083252 -0.076505 255 0 0
-0.745487 -0.008518 0.001495 255 0 0
-0.704622 -0.039572 -0.116506 255 0 0
-0.682919 0.046778 -0.130506 255 0 0
-0.696579 0.036728 -0.072505 255 0 0
-0.760812 -0.013115 -0.012505 255 0 0
-0.689413 0.013293 0.107495 255 0 0
-0.723132 0.007290 -0.060506 255 0 0
-0.693178 -0.029118 -0.098505 255 0 0
-0.757568 -0.003203 -0.092506 255 0 0
-0.667724 0.038122 -0.010505 255 0 0
-0.620481 0.075132 -0.056506 255 0 0
-0.653601 -0.008077 -0.141500 255 0 0
-0.651889 0.047888 -0.066505 255 0 0
-0.731116 -0.021319 0.028026 255 0 0
-0.739782 0.020709 -0.106506 255 0 0
-0.732175 -0.038374 -0.054446 255 0 0
-0.582736 0.067964 0.015586 255 0 0
-0.705802 -0.008347 0.091495 255 0 0
-0.569713 0.032209 -0.126803 255 0 0
-0.770579 -0.042733 0.007495 255 0 0
-0.711941 -0.029314 -0.056506 255 0 0
-0.630959 0.075198 -0.128505 255 0 0
-0.693970 0.035037 -0.108505 255 0 0
-0.654114 0.075691 -0.134506 255 0 0
-0.649952 0.082600 -0.154505 255 0 0
-0.563784 0.053859 -0.088506 255 0 0
-0.583852 0.061350 -0.048505 255 0 0
-0.601339 0.108288 -0.161316 255 0 0
-0.598621 0.078876 -0.066505 255 0 0
-0.615396 0.014060 -0.134506 255 0 0
-0.708577 0.007568 -0.028506 255 0 0
-0.633944 0.057599 -0.060506 255 0 0
-0.619967 0.059771 -0.038505 255 0 0
-0.707482 0.038192 -0.104250 255 0 0
-0.673504 -0.031903 -0.152506 255 0 0
-0.631029 0.053199 0.021495 255 0 0
-0.592824 0.018870 -0.163481 255 0 0
-0.580081 0.072959 -0.123649 255 0 0
-0.702996 0.002998 0.001495 255 0 0
-0.771561 -0.008587 -0.098505 255 0 0
-0.715539 -0.017545 0.061495 255 0 0
-0.583796 0.050910 -0.057481 255 0 0
-0.612572 0.025381 -0.100505 255 0 0
-0.652194 0.062570 -0.076505 255 0 0
-0.595184 0.047115 0.011495 255 0 0
-0.733881 -0.005433 0.016724 255 0 0
-0.766349 -0.022368 0.013494 255 0 0
-0.771858 0.009334 -0.132505 255 0 0
-0.595056 0.094579 -0.124506 255 0 0
-0.663961 0.022217 0.087495 255 0 0
-0.680580 0.031777 -0.014506 255 0 0
-0.736386 0.002756 -0.022506 255 0 0
-0.659760 0.031868 0.047495 255 0 0
-0.730987 0.022640 -0.094505 255 0 0
-0.663405 -0.017052 -0.118505 255 0 0
-0.645249 0.060378 -0.102506 255 0 0
-0.604201 0.069768 0.002694 255 0 0
-0.779763 -0.005854 -0.136505 255 0 0
-0.641845 0.069763 -0.134506 255 0 0
-0.686807 0.018450 -0.018506 255 0 0
-0.665207 0.067848 -0.128505 255 0 0
-0.755699 -0.002477 -0.046506 255 0 0
-0.642126 0.070681 -0.086505 255 0 0
-0.610170 0.020881 -0.082505 255 0 0
-0.714755 0.000414 -0.011499 255 0 0
-0.713406 0.016523 -0.076505 255 0 0
-0.613338 0.058609 -0.019481 255 0 0
-0.679585 0.056395 -0.114505 255 0 0
-0.692983 0.048899 -0.160505 255 0 0
-0.626793 0.064952 -0.076505 255 0 0
-0.698196 -0.033227 -0.150505 255 0 0
-0.598561 0.017116 -0.120677 255 0 0
-0.681121 -0.020673 -0.129440 255 0 0
-0.738939 -0.043614 -0.094505 255 0 0
-0.677723 -0.007087 -0.042506 255 0 0
-0.578801 0.048254 -0.015575 255 0 0
-0.687725 -0.019592 -0.074506 255 0 0
-0.707554 0.024746 -0.048505 255 0 0
-0.703963 -0.010926 -0.040505 255 0 0
-0.589531 0.035465 -0.108505 255 0 0
-0.723954 -0.044745 -0.092506 255 0 0
-0.556752 0.044538 -0.131859 255 0 0
-0.725300 -0.054024 -0.126505 255 0 0
-0.603263 0.018812 -0.148506 255 0 0
-0.706125 0.020069 -0.024505 255 0 0
-0.590412 0.092806 -0.110506 255 0 0
-0.733945 0.008455 -0.040505 255 0 0
-0.702220 0.020978 -0.067486 255 0 0
-0.620820 0.076241 -0.108505 255 0 0
-0.629540 0.056875 -0.002505 255 0 0
-0.636164 0.003294 -0.094505 255 0 0
-0.733634 -0.033605 -0.070505 255 0 0
-0.711936 0.025393 -0.106506 255 0 0
-0.761876 -0.036997 0.025096 255 0 0
-0.681483 0.028397 -0.052505 255 0 0
-0.737533 0.027034 -0.128505 255 0 0
-0.742844 0.003361 -0.090505 255 0 0
-0.686927 0.046206 -0.088506 255 0 0
-0.672181 -0.005393 -0.088506 255 0 0
-0.717813 0.017257 -0.092506 255 0 0
-0.627629 0.030103 -0.044505 255 0 0
-0.755919 -0.077004 -0.152403 255 0 0
-0.617168 0.046981 0.003495 255 0 0
-0.586425 0.073189 -0.042506 255 0 0
-0.629486 0.084060 -0.114505 255 0 0
-0.723197 -0.004259 0.081495 255 0 0
-0.591808 0.029637 -0.090505 255 0 0
-0.683338 -0.027099 -0.110506 255 0 0
-0.596902 0.097096 -0.138506 255 0 0
-0.721572 -0.032018 -0.090505 255 0 0
-0.552618 0.044699 -0.156505 255 0 0
-0.670428 0.040121 -0.076505 255 0 0
-0.613026 0.102623 -0.162506 255 0 0
-0.714004 -0.032818 -0.110506 255 0 0
-0.626242 0.018725 -0.052505 255 0 0
-0.654706 0.036586 -0.024505 255 0 0
-0.583911 0.075971 -0.070505 255 0 0
-0.581866 0.061957 -0.066505 255 0 0
-0.663640 0.058964 -0.088506 255 0 0
-0.777104 -0.000870 -0.152506 255 0 0
-0.656738 -0.018337 -0.160505 255 0 0
-0.586890 0.019984 -0.138506 255 0 0
-0.641748 0.055765 -0.026505 255 0 0
-0.699771 -0.009645 -0.002505 255 0 0
-0.569839 0.050994 -0.112505 255 0 0
-0.606084 0.034882 -0.032506 255 0 0
-0.782956 -0.050134 0.015495 255 0 0
-0.744994 -0.058015 -0.146505 255 0 0
-0.691933 0.047128 -0.104505 255 0 0
-0.667793 0.031503 0.016160 255 0 0
-0.756403 -0.061740 -0.120506 255 0 0
-0.722017 -0.010037 0.025495 255 0 0
-0.649168 0.011630 -0.030505 255 0 0
-0.621320 0.029990 -0.062505 255 0 0
-0.761876 -0.036997 -0.000951 255 0 0
-0.732196 -0.051989 -0.150505 255 0 0
-0.752467 -0.006208 -0.022506 255 0 0
-0.708809 0.015168 -0.010505 255 0 0
-0.721278 -0.019295 0.003495 255 0 0
-0.724515 0.011817 -0.032506 255 0 0
-0.580425 0.074946 -0.110506 255 0 0
-0.666873 0.004596 -0.062505 255 0 0
-0.670865 0.048393 -0.108505 255 0 0
-0.707340 -0.016997 -0.018506 255 0 0
-0.741959 -0.061099 -0.120506 255 0 0
-0.757920 0.004786 -0.082505 255 0 0
-0.671233 -0.018808 -0.146505 255 0 0
-0.705482 0.004287 0.095494 255 0 0
-0.677831 0.036973 -0.030505 255 0 0
-0.710939 0.008455 0.011495 255 0 0
-0.710563 -0.047500 -0.136505 255 0 0
-0.735097 -0.015138 0.007495 255 0 0
-0.618776 0.042193 0.027494 255 0 0
-0.735015 -0.012054 -0.006505 255 0 0
-0.613998 0.094968 -0.122505 255 0 0
-0.733653 0.014342 -0.064506 255 0 0
-0.758924 0.009916 -0.106506 255 0 0
-0.610625 0.063413 0.013494 255 0 0
-0.611011 0.037313 -0.050506 255 0 0
-0.711466 0.030699 -0.129502 255 0 0
-0.589636 0.076851 0.007495 255 0 0
-0.659170 0.016980 0.013494 255 0 0
-0.637553 0.048884 0.011495 255 0 0
-0.697451 -0.028820 -0.130506 255 0 0
-0.660975 0.063930 -0.152506 255 0 0
-0.725781 0.002276 -0.048505 255 0 0
-0.697363 0.025613 -0.078506 255 0 0
-0.604677 0.050800 -0.011486 255 0 0
-0.677850 -0.004006 -0.072505 255 0 0
-0.740461 0.022927 -0.162506 255 0 0
-0.667081 0.022338 0.003495 255 0 0
-0.587217 0.027895 -0.148506 255 0 0
-0.662326 0.054668 -0.068505 255 0 0
-0.651404 0.021874 0.073494 255 0 0
-0.608328 0.069583 -0.054505 255 0 0
-0.726435 0.004413 -0.006505 255 0 0
-0.578010 0.079866 -0.134399 255 0 0
-0.630847 0.054310 -0.044505 255 0 0
-0.669594 0.044237 -0.040505 255 0 0
-0.601606 0.081799 -0.040505 255 0 0
-0.699790 0.026714 -0.038505 255 0 0
-0.738516 -0.051840 -0.136505 255 0 0
-0.760492 -0.007322 -0.034505 255 0 0
-0.575698 0.055477 -0.082505 255 0 0
-0.719568 0.022996 -0.118505 255 0 0
-0.645339 0.005944 -0.106506 255 0 0
-0.738505 0.030211 -0.142505 255 0 0
-0.594619 0.086307 -0.092506 255 0 0
-0.677989 0.003289 -0.001150 255 0 0
-0.647825 0.007234 -0.092506 255 0 0
-0.563739 0.040311 -0.110506 255 0 0
-0.666931 0.015004 0.109495 255 0 0
-0.698139 0.021312 -0.012505 255 0 0
-0.616824 0.083691 -0.132505 255 0 0
-0.690282 0.036658 -0.056506 255 0 0
-0.614760 0.090624 -0.154505 255 0 0
-0.679403 -0.019449 -0.092506 255 0 0
-0.713650 -0.044244 -0.158505 255 0 0
-0.760529 0.020161 -0.150505 255 0 0
-0.641334 0.074934 -0.102506 255 0 0
-0.782099 -0.025575 -0.008505 255 0 0
-0.686930 0.018852 0.023494 255 0 0
-0.671959 0.023955 0.101494 255 0 0
-0.727889 -0.052396 -0.114505 255 0 0
-0.719239 -0.039648 -0.126505 255 0 0
-0.657190 -0.010016 -0.100505 255 0 0
-0.707827 0.011953 -0.046506 255 0 0
-0.617144 0.071057 -0.082505 255 0 0
-0.596126 0.077555 -0.054505 255 0 0
-0.623475 0.071243 -0.094505 255 0 0
-0.716175 0.032421 -0.148506 255 0 0
-0.668716 0.007160 -0.050506 255 0 0
-0.687324 0.047502 -0.144506 255 0 0
-0.568783 0.045043 -0.066505 255 0 0
-0.630988 0.088979 -0.138506 255 0 0
-0.610497 0.032290 -0.074506 255 0 0
-0.648191 0.056318 -0.041425 255 0 0
-0.672936 -0.020081 -0.108505 255 0 0
-0.656936 -0.004008 -0.076505 255 0 0
-0.699693 -0.017986 -0.076505 255 0 0
-0.720832 -0.027596 -0.072505 255 0 0
-0.644799 0.017860 -0.016505 255 0 0
-0.573449 0.068713 -0.146505 255 0 0
-0.620889 0.035424 0.001495 255 0 0
-0.635954 0.077858 -0.150505 255 0 0
-0.570556 0.034965 -0.150505 255 0 0
-0.728730 0.011921 -0.086505 255 0 0
-0.650798 0.037483 0.029495 255 0 0
-0.702778 0.036485 -0.084505 255 0 0
-0.583865 0.034157 -0.124506 255 0 0
-0.755493 0.003689 -0.116506 255 0 0
-0.670012 0.031923 -0.038505 255 0 0
-0.766067 -0.078015 -0.137850 255 0 0
-0.760371 -0.014557 -0.056506 255 0 0
-0.601814 0.089320 -0.072038 255 0 0
-0.709339 -0.024142 -0.082505 255 0 0
-0.744709 0.009461 -0.072505 255 0 0
-0.767833 0.003009 -0.097368 255 0 0
-0.629406 0.035917 -0.018506 255 0 0
-0.575427 0.044056 -0.102506 255 0 0
-0.644169 0.050000 -0.006505 255 0 0
-0.715657 -0.010319 0.014984 255 0 0
-0.583321 0.069877 -0.089509 255 0 0
-0.661086 0.067016 -0.116506 255 0 0
-0.698887 -0.010444 -0.052505 255 0 0
-0.608256 0.021465 -0.126505 255 0 0
-0.610404 0.062691 -0.030505 255 0 0
-0.660490 0.076022 -0.152506 255 0 0
-0.587708 0.056863 -0.020505 255 0 0
-0.654941 0.064712 -0.139498 255 0 0
-0.655086 -0.016896 -0.133123 255 0 0
-0.644504 0.064780 -0.118505 255 0 0
-0.718876 0.000213 -0.024505 255 0 0
-0.647905 0.055378 -0.088506 255 0 0
-0.656452 0.042293 -0.054505 255 0 0
-0.751109 -0.029523 0.019495 255 0 0
-0.648815 0.044673 -0.044505 255 0 0
-0.758469 -0.065235 -0.136505 255 0 0
-0.737156 -0.049446 -0.082505 255 0 0
-0.755387 -0.017177 0.015495 255 0 0
-0.692687 0.010320 -0.006505 255 0 0
-0.702110 0.000098 0.031973 255 0 0
-0.616518 0.007443 -0.161502 255 0 0
-0.628301 -0.001899 -0.132505 255 0 0
-0.750226 -0.013539 -0.036506 255 0 0
-0.693193 0.053017 -0.132235 255 0 0
-0.783193 -0.039331 0.009494 255 0 0
-0.730107 0.036949 -0.152506 255 0 0
-0.587365 0.110469 -0.143566 255 0 0
-0.597601 0.041337 -0.026505 255 0 0
-0.631453 0.042614 0.026985 255 0 0
-0.598818 0.079522 -0.026505 255 0 0
-0.636923 0.026302 0.018826 255 0 0
-0.603559 0.101870 -0.128505 255 0 0
-0.664770 -0.012587 -0.138506 255 0 0
-0.640021 0.015913 -0.074506 255 0 0
-0.704386 0.048585 -0.140505 255 0 0
-0.680694 -0.028908 -0.161470 255 0 0
-0.691179 0.032747 -0.044505 255 0 0
-0.626351 0.010712 -0.088506 255 0 0
-0.753888 -0.008404 -0.068505 255 0 0
-0.655738 0.019435 -0.024505 255 0 0
-0.641671 0.000786 -0.136505 255 0 0
-0.629747 0.009673 -0.117436 255 0 0
-0.700086 -0.001375 0.019495 255 0 0
-0.722050 0.031115 -0.108505 255 0 0
-0.661445 0.037626 0.069494 255 0 0
-0.640967 0.066893 -0.070861 255 0 0
-0.666641 0.014055 -0.026505 255 0 0
-0.708680 0.048950 -0.152506 255 0 0
-0.744773 -0.010854 0.012981 255 0 0
-0.627561 0.084607 -0.160505 255 0 0
-0.658086 0.040794 -0.002505 255 0 0
-0.639909 0.015549 -0.036506 255 0 0
-0.666813 0.048820 -0.054505 255 0 0
-0.599661 0.061757 -0.004506 255 0 0
-0.713590 0.030805 -0.086505 255 0 0
-0.661044 0.023110 0.032211 255 0 0
-0.622366 0.083037 -0.092506 255 0 0
-0.659117 0.064690 -0.102506 255 0 0
-0.634256 0.044942 -0.010505 255 0 0
-0.584030 0.055021 -0.038505 255 0 0
-0.665794 -0.002396 -0.098505 255 0 0
-0.689799 0.000872 0.111494 255 0 0
-0.696809 -0.003558 -0.024505 255 0 0
-0.718065 -0.043483 -0.146505 255 0 0
-0.625501 -0.004216 -0.150505 255 0 0
