ply
format ascii 1.0
element vertex 1311
property float x
property float y
property float z
property uchar red
property uchar green
property uchar blue
end_header
0.857076 0.294506 -0.229451 255 0 0
0.928600 0.216702 -0.233841 255 0 0
0.914087 0.244957 -0.244471 255 0 0
0.944755 0.231091 -0.233899 255 0 0
0.885328 0.309037 -0.232471 255 0 0
0.832931 0.197199 -0.271472 255 0 0
0.792182 0.236913 -0.247472 255 0 0
0.803136 0.268748 -0.229647 255 0 0
0.891377 0.266002 -0.251189 255 0 0
0.790369 0.251807 -0.230021 255 0 0
0.847135 0.311286 -0.229472 255 0 0
0.906601 0.243906 -0.266876 255 0 0
0.906020 0.207471 -0.253471 255 0 0
0.876634 0.160927 -0.250471 255 0 0
0.843186 0.156227 -0.232626 255 0 0
0.900883 0.155247 -0.225667 255 0 0
0.907470 0.286440 -0.220472 255 0 0
0.865233 0.150237 -0.240041 255 0 0
0.813655 0.267197 -0.253471 255 0 0
0.874435 0.278769 -0.246798 255 0 0
0.909460 0.288227 -0.241471 255 0 0
0.937047 0.199713 -0.236971 255 0 0
0.804201 0.202249 -0.256472 255 0 0
0.785958 0.205744 -0.241471 255 0 0
0.931383 0.250418 -0.247472 255 0 0
0.867829 0.261107 -0.262471 255 0 0
0.844793 0.209457 -0.274471 255 0 0
0.811534 0.230545 -0.255004 255 0 0
0.806331 0.181342 -0.249169 255 0 0
0.858352 0.177648 -0.262471 255 0 0
0.873929 0.296874 -0.229472 255 0 0
0.915882 0.220974 -0.247220 255 0 0
0.788094 0.187868 -0.232471 255 0 0
0.885670 0.295495 -0.247472 255 0 0
0.915749 0.178811 -0.229472 255 0 0
0.828200 0.176626 -0.250471 255 0 0
0.818311 0.225438 -0.269193 255 0 0
0.831631 0.248517 -0.268471 255 0 0
0.915834 0.199761 -0.241363 255 0 0
0.826951 0.293302 -0.236955 255 0 0
0.917488 0.274211 -0.247472 255 0 0
0.808462 0.160435 -0.232471 255 0 0
0.943086 0.242974 -0.222506 255 0 0
0.775451 0.219415 -0.226471 255 0 0
0.920651 0.239822 -0.259471 255 0 0
0.802943 0.183896 -0.229595 255 0 0
0.920667 0.273148 -0.228833 255 0 0
0.803505 0.244563 -0.256943 255 0 0
0.894132 0.236094 -0.262471 255 0 0
0.940901 0.215402 -0.242900 255 0 0
0.792664 0.235479 -0.229472 255 0 0
0.901640 0.249267 -0.253471 255 0 0
0.919688 0.215451 -0.260899 255 0 0
0.924716 0.231304 -0.235471 255 0 0
0.800645 0.210838 -0.244471 255 0 0
0.811213 0.275942 -0.241211 255 0 0
0.929823 0.174462 -0.226471 255 0 0
0.916747 0.260479 -0.238472 255 0 0
0.943102 0.188446 -0.229472 255 0 0
0.889755 0.299098 -0.222488 255 0 0
0.856241 0.300447 -0.242956 255 0 0
0.801536 0.226110 -0.244471 255 0 0
0.861277 0.286169 -0.241471 255 0 0
0.795416 0.280569 -0.226471 255 0 0
0.897561 0.297166 -0.238472 255 0 0
0.840914 0.298294 -0.229472 255 0 0
0.820909 0.256099 -0.259471 255 0 0
0.893513 0.272361 -0.263882 255 0 0
0.898572 0.257925 -0.266863 255 0 0
0.784166 0.226699 -0.241471 255 0 0
0.935185 0.229746 -0.223471 255 0 0
0.891838 0.176494 -0.250471 255 0 0
0.801452 0.172952 -0.238472 255 0 0
0.938027 0.257410 -0.234033 255 0 0
0.910261 0.174743 -0.245731 255 0 0
0.889656 0.278248 -0.244471 255 0 0
0.840504 0.283088 -0.248136 255 0 0
0.790690 0.206410 -0.226566 255 0 0
0.882512 0.285962 -0.257958 255 0 0
0.830050 0.163469 -0.234019 255 0 0
0.882577 0.263949 -0.262471 255 0 0
0.912550 0.190211 -0.253471 255 0 0
0.829311 0.211837 -0.272951 255 0 0
0.922337 0.261265 -0.251940 255 0 0
0.865522 0.277516 -0.257231 255 0 0
0.905549 0.168020 -0.232471 255 0 0
0.832651 0.188070 -0.261234 255 0 0
0.938572 0.242340 -0.238472 255 0 0
0.844296 0.169881 -0.250471 255 0 0
0.849962 0.151120 -0.243122 255 0 0
0.886248 0.168338 -0.241471 255 0 0
0.858742 0.304210 -0.220472 255 0 0
0.935795 0.208626 -0.226058 255 0 0
0.813789 0.192951 -0.250471 255 0 0
0.821009 0.292466 -0.225123 255 0 0
0.904095 0.261730 -0.246051 255 0 0
0.911149 0.233095 -0.250471 255 0 0
0.825971 0.235604 -0.272636 255 0 0
0.779099 0.253252 -0.223471 255 0 0
0.931623 0.183803 -0.235471 255 0 0
0.857708 0.290008 -0.253471 255 0 0
0.864551 0.305989 -0.232471 255 0 0
0.924746 0.201014 -0.231914 255 0 0
0.791670 0.264107 -0.234159 255 0 0
0.816667 0.170676 -0.250471 255 0 0
0.819142 0.161936 -0.241471 255 0 0
0.800310 0.245744 -0.241471 255 0 0
0.928600 0.216702 -0.248798 255 0 0
0.810330 0.260670 -0.243039 255 0 0
0.823410 0.198890 -0.259471 255 0 0
0.916150 0.251307 -0.262471 255 0 0
0.865791 0.167826 -0.259471 255 0 0
0.809148 0.215063 -0.253471 255 0 0
0.928757 0.194029 -0.244471 255 0 0
0.785680 0.242059 -0.238117 255 0 0
0.899011 0.282223 -0.229472 255 0 0
0.866144 0.143755 -0.229472 255 0 0
0.905396 0.274031 -0.257936 255 0 0
0.917327 0.296914 -0.225006 255 0 0
0.894699 0.156141 -0.238472 255 0 0
0.789438 0.215322 -0.249471 255 0 0
0.848776 0.288899 -0.238472 255 0 0
0.876045 0.288870 -0.238472 255 0 0
0.920988 0.227751 -0.260920 255 0 0
0.794497 0.200885 -0.249297 255 0 0
0.877249 0.301855 -0.241471 255 0 0
0.920308 0.211032 -0.241471 255 0 0
0.817486 0.285912 -0.238472 255 0 0
0.940176 0.220556 -0.229472 255 0 0
0.844952 0.186770 -0.269096 255 0 0
0.864933 0.162313 -0.247472 255 0 0
0.920306 0.189494 -0.232471 255 0 0
0.800223 0.267918 -0.241471 255 0 0
0.841749 0.144895 -0.229472 255 0 0
0.928948 0.278897 -0.235471 255 0 0
0.832025 0.151629 -0.238472 255 0 0
0.811582 0.251758 -0.252369 255 0 0
0.798979 0.233658 -0.256472 255 0 0
0.915589 0.201502 -0.256472 255 0 0
0.797001 0.183060 -0.242233 255 0 0
0.876202 0.309312 -0.225231 255 0 0
0.823757 0.272906 -0.253471 255 0 0
0.816716 0.182801 -0.244471 255 0 0
0.878658 0.270274 -0.253247 255 0 0
0.854178 0.151713 -0.232471 255 0 0
0.837822 0.288771 -0.235471 255 0 0
0.842885 0.158370 -0.250471 255 0 0
0.781644 0.214226 -0.235471 255 0 0
0.939231 0.227285 -0.242923 255 0 0
0.784798 0.226787 -0.227057 255 0 0
0.790229 0.252804 -0.241471 255 0 0
0.790301 0.194237 -0.241471 255 0 0
0.900514 0.179431 -0.243358 255 0 0
0.830756 0.287777 -0.245854 255 0 0
0.910920 0.277837 -0.226719 255 0 0
0.919414 0.282060 -0.239935 255 0 0
0.921872 0.243022 -0.236959 255 0 0
0.899502 0.294409 -0.220563 255 0 0
0.907531 0.280390 -0.248873 255 0 0
0.801835 0.256447 -0.236991 255 0 0
0.836729 0.234086 -0.271472 255 0 0
0.810923 0.218341 -0.265471 255 0 0
0.911145 0.190014 -0.242646 255 0 0
0.826053 0.170348 -0.241471 255 0 0
0.870211 0.287263 -0.257890 255 0 0
0.850317 0.170153 -0.259471 255 0 0
0.922349 0.174956 -0.238472 255 0 0
0.885353 0.157973 -0.244471 255 0 0
0.835403 0.168490 -0.256472 255 0 0
0.932824 0.208207 -0.242909 255 0 0
0.890300 0.165878 -0.251860 255 0 0
0.873311 0.157431 -0.240008 255 0 0
0.918997 0.285031 -0.222474 255 0 0
0.937464 0.196742 -0.225627 255 0 0
0.903485 0.179849 -0.254970 255 0 0
0.799642 0.189490 -0.250471 255 0 0
0.928231 0.240886 -0.251961 255 0 0
0.807728 0.236069 -0.263218 255 0 0
0.820447 0.231798 -0.260983 255 0 0
0.913959 0.169988 -0.223471 255 0 0
0.914258 0.167860 -0.238472 255 0 0
0.844920 0.198883 -0.274471 255 0 0
0.808467 0.187701 -0.240059 255 0 0
0.848511 0.161448 -0.241471 255 0 0
0.926143 0.255740 -0.237619 255 0 0
0.821651 0.201672 -0.269412 255 0 0
0.813156 0.197449 -0.261032 255 0 0
0.794296 0.264476 -0.223471 255 0 0
0.794625 0.197873 -0.232471 255 0 0
0.807311 0.239040 -0.249049 255 0 0
0.909586 0.214031 -0.262471 255 0 0
0.818583 0.158828 -0.231385 255 0 0
0.867000 0.180781 -0.266890 255 0 0
0.806380 0.202555 -0.246049 255 0 0
0.906825 0.156082 -0.233907 255 0 0
0.895088 0.304262 -0.229472 255 0 0
0.896741 0.292500 -0.247472 255 0 0
0.950450 0.222803 -0.232471 255 0 0
0.904262 0.237518 -0.256472 255 0 0
0.797268 0.234599 -0.238472 255 0 0
0.846911 0.302165 -0.236609 255 0 0
0.857541 0.312748 -0.227795 255 0 0
0.918774 0.230469 -0.244471 255 0 0
0.780943 0.211099 -0.225450 255 0 0
0.804854 0.278078 -0.232789 255 0 0
0.866488 0.292206 -0.235471 255 0 0
0.792998 0.224910 -0.250471 255 0 0
0.910824 0.235411 -0.263815 255 0 0
0.848376 0.291738 -0.250471 255 0 0
0.924008 0.249381 -0.254964 255 0 0
0.782292 0.244612 -0.229124 255 0 0
0.938861 0.251469 -0.225478 255 0 0
0.895600 0.257507 -0.254137 255 0 0
0.899872 0.270225 -0.242534 255 0 0
0.848758 0.181245 -0.261010 255 0 0
0.783030 0.196244 -0.233519 255 0 0
0.858527 0.154843 -0.247472 255 0 0
0.868124 0.302118 -0.222567 255 0 0
0.831850 0.301552 -0.232471 255 0 0
0.892070 0.153292 -0.229472 255 0 0
0.836875 0.179575 -0.254995 255 0 0
0.915191 0.290555 -0.233899 255 0 0
0.823955 0.185275 -0.253471 255 0 0
0.849882 0.302583 -0.224247 255 0 0
0.909354 0.181204 -0.238472 255 0 0
0.796215 0.210216 -0.254294 255 0 0
0.809231 0.172661 -0.244471 255 0 0
0.814637 0.240070 -0.256472 255 0 0
0.906889 0.295448 -0.235471 255 0 0
0.827641 0.223721 -0.267105 255 0 0
0.922611 0.194655 -0.251951 255 0 0
0.887797 0.301853 -0.238472 255 0 0
0.871122 0.151448 -0.232471 255 0 0
0.796668 0.246633 -0.250471 255 0 0
0.795005 0.207016 -0.235471 255 0 0
0.932072 0.238397 -0.226471 255 0 0
0.948143 0.228538 -0.225128 255 0 0
0.877768 0.168830 -0.256472 255 0 0
0.906722 0.253011 -0.262471 255 0 0
0.894300 0.245207 -0.258422 255 0 0
0.801642 0.171595 -0.228567 255 0 0
0.909379 0.159471 -0.224702 255 0 0
0.908319 0.253236 -0.246969 255 0 0
0.908452 0.216900 -0.253471 255 0 0
0.907104 0.198535 -0.250471 255 0 0
0.896410 0.165521 -0.235471 255 0 0
0.885247 0.277259 -0.262471 255 0 0
0.839188 0.163119 -0.241471 255 0 0
0.819049 0.177070 -0.256941 255 0 0
0.796359 0.273855 -0.233604 255 0 0
0.827846 0.179150 -0.259471 255 0 0
0.837163 0.306855 -0.225078 255 0 0
0.869746 0.269021 -0.255661 255 0 0
0.840810 0.151574 -0.241471 255 0 0
0.796067 0.219283 -0.241471 255 0 0
0.794592 0.243312 -0.233988 255 0 0
0.873231 0.308893 -0.233965 255 0 0
0.912951 0.208445 -0.247472 255 0 0
0.896853 0.248595 -0.266595 255 0 0
0.895649 0.278720 -0.237276 255 0 0
0.865372 0.300141 -0.241471 255 0 0
0.908414 0.295662 -0.222369 255 0 0
0.900501 0.265747 -0.262471 255 0 0
0.926575 0.166445 -0.229472 255 0 0
0.943825 0.203695 -0.226471 255 0 0
0.821698 0.266004 -0.259471 255 0 0
0.816175 0.219079 -0.258039 255 0 0
0.789438 0.215322 -0.225030 255 0 0
0.865109 0.280464 -0.247472 255 0 0
0.826499 0.167182 -0.250471 255 0 0
0.891794 0.263031 -0.263620 255 0 0
0.901101 0.212838 -0.259471 255 0 0
0.784314 0.260044 -0.226471 255 0 0
0.808516 0.208914 -0.260858 255 0 0
0.936335 0.183222 -0.226471 255 0 0
0.828203 0.284389 -0.235936 255 0 0
0.825874 0.193177 -0.266039 255 0 0
0.878706 0.291486 -0.251897 255 0 0
0.840729 0.195265 -0.267334 255 0 0
0.807891 0.227004 -0.262471 255 0 0
0.809720 0.178788 -0.234048 255 0 0
0.943586 0.206691 -0.235471 255 0 0
0.934591 0.238751 -0.245944 255 0 0
0.819564 0.216526 -0.269646 255 0 0
0.855406 0.306389 -0.233811 255 0 0
0.928696 0.259129 -0.245956 255 0 0
0.917648 0.251517 -0.239480 255 0 0
0.806528 0.193488 -0.256472 255 0 0
0.806428 0.223768 -0.252106 255 0 0
0.819044 0.284885 -0.229472 255 0 0
0.829921 0.293719 -0.228514 255 0 0
0.882889 0.283282 -0.241471 255 0 0
0.930319 0.226033 -0.230904 255 0 0
0.779273 0.222981 -0.233732 255 0 0
0.833117 0.206312 -0.267038 255 0 0
0.791900 0.179314 -0.232471 255 0 0
0.822946 0.300232 -0.229472 255 0 0
0.817456 0.274640 -0.247472 255 0 0
0.814360 0.167323 -0.231358 255 0 0
0.858262 0.156726 -0.238472 255 0 0
0.894122 0.290624 -0.226471 255 0 0
0.925074 0.273768 -0.241471 255 0 0
0.824943 0.156692 -0.237285 255 0 0
0.812534 0.201878 -0.253471 255 0 0
0.790584 0.271829 -0.226471 255 0 0
0.924994 0.220811 -0.256472 255 0 0
0.872994 0.267461 -0.265471 255 0 0
0.924794 0.222227 -0.239411 255 0 0
0.924473 0.267624 -0.234401 255 0 0
0.804806 0.256864 -0.254301 255 0 0
0.911955 0.270471 -0.253471 255 0 0
0.945340 0.216026 -0.235471 255 0 0
0.887993 0.160748 -0.235471 255 0 0
0.809306 0.267961 -0.238472 255 0 0
0.806524 0.266195 -0.248684 255 0 0
0.811856 0.185149 -0.254847 255 0 0
0.805641 0.250923 -0.246195 255 0 0
0.849416 0.284341 -0.254696 255 0 0
0.813767 0.279331 -0.233759 255 0 0
0.835373 0.168703 -0.247472 255 0 0
0.852487 0.284050 -0.244471 255 0 0
0.809022 0.166573 -0.238472 255 0 0
0.786049 0.217875 -0.241822 255 0 0
0.847549 0.146738 -0.235471 255 0 0
0.937373 0.251260 -0.241471 255 0 0
0.920523 0.209509 -0.254866 255 0 0
0.912152 0.182850 -0.247472 255 0 0
0.925553 0.281495 -0.226471 255 0 0
0.836505 0.203759 -0.275427 255 0 0
0.901508 0.172354 -0.238472 255 0 0
0.880843 0.297846 -0.224765 255 0 0
0.824300 0.247486 -0.264548 255 0 0
0.909989 0.241352 -0.251059 255 0 0
0.887835 0.259445 -0.256472 255 0 0
0.859166 0.171856 -0.256472 255 0 0
0.812000 0.248788 -0.260109 255 0 0
0.800217 0.235013 -0.247472 255 0 0
0.924280 0.182771 -0.225177 255 0 0
0.795103 0.261242 -0.241471 255 0 0
0.793917 0.226567 -0.235471 255 0 0
0.796167 0.189002 -0.231301 255 0 0
0.916547 0.266510 -0.232471 255 0 0
0.834273 0.154974 -0.231310 255 0 0
0.892472 0.279759 -0.259471 255 0 0
0.935119 0.191873 -0.235471 255 0 0
0.903519 0.287387 -0.247472 255 0 0
0.936004 0.260156 -0.241471 255 0 0
0.935597 0.220715 -0.247472 255 0 0
0.780991 0.232312 -0.236475 255 0 0
0.823272 0.168575 -0.234011 255 0 0
0.885802 0.274306 -0.250471 255 0 0
0.813501 0.259665 -0.256472 255 0 0
0.845052 0.164501 -0.256472 255 0 0
0.899358 0.230770 -0.259391 255 0 0
0.817876 0.293199 -0.232471 255 0 0
0.795444 0.258807 -0.229472 255 0 0
0.840331 0.186120 -0.262471 255 0 0
0.835677 0.295877 -0.238472 255 0 0
0.901349 0.173490 -0.248612 255 0 0
0.861892 0.149767 -0.232471 255 0 0
0.881678 0.291904 -0.230828 255 0 0
0.865769 0.297321 -0.229472 255 0 0
0.928392 0.207585 -0.229472 255 0 0
0.804437 0.281048 -0.225537 255 0 0
0.785449 0.200589 -0.226471 255 0 0
0.869505 0.162955 -0.253799 255 0 0
0.905572 0.164995 -0.239770 255 0 0
0.895408 0.172654 -0.243268 255 0 0
0.822679 0.280583 -0.248845 255 0 0
0.926095 0.234527 -0.257969 255 0 0
0.875597 0.281961 -0.259471 255 0 0
0.780990 0.205046 -0.232471 255 0 0
0.790161 0.245718 -0.244471 255 0 0
0.843453 0.175873 -0.256472 255 0 0
0.931459 0.271635 -0.235471 255 0 0
0.932427 0.254141 -0.229472 255 0 0
0.835621 0.188488 -0.268296 255 0 0
0.916813 0.257459 -0.257944 255 0 0
0.854234 0.163838 -0.245977 255 0 0
0.858533 0.294711 -0.247472 255 0 0
0.853988 0.187145 -0.268471 255 0 0
0.833393 0.282089 -0.241471 255 0 0
0.812950 0.177359 -0.250471 255 0 0
0.881007 0.161542 -0.238472 255 0 0
0.881629 0.270691 -0.266936 255 0 0
0.888254 0.288220 -0.253471 255 0 0
0.922951 0.267410 -0.247472 255 0 0
0.848164 0.293253 -0.232247 255 0 0
0.805544 0.208497 -0.252106 255 0 0
0.815437 0.267447 -0.246046 255 0 0
0.928087 0.177247 -0.233939 255 0 0
0.809115 0.193851 -0.244471 255 0 0
0.900048 0.161189 -0.230316 255 0 0
0.802829 0.214175 -0.259471 255 0 0
0.912911 0.220556 -0.260485 255 0 0
0.943406 0.197577 -0.230937 255 0 0
0.822021 0.177488 -0.246166 255 0 0
0.875160 0.316718 -0.226471 255 0 0
0.941367 0.233645 -0.225486 255 0 0
0.910081 0.226218 -0.253471 255 0 0
0.870340 0.157014 -0.247196 255 0 0
0.856496 0.147740 -0.238472 255 0 0
0.884839 0.304467 -0.226471 255 0 0
0.774767 0.228407 -0.226471 255 0 0
0.910015 0.262718 -0.241471 255 0 0
0.901076 0.240100 -0.263424 255 0 0
0.818263 0.204225 -0.258097 255 0 0
0.818254 0.192106 -0.256472 255 0 0
0.858746 0.282622 -0.254358 255 0 0
0.797703 0.178067 -0.226471 255 0 0
0.814443 0.231403 -0.265471 255 0 0
0.797976 0.249846 -0.235471 255 0 0
0.799330 0.274272 -0.225363 255 0 0
0.928552 0.195489 -0.227904 255 0 0
0.876523 0.263914 -0.258076 255 0 0
0.814360 0.167323 -0.243672 255 0 0
0.914951 0.184489 -0.234210 255 0 0
0.923911 0.206955 -0.236403 255 0 0
0.922383 0.291565 -0.223471 255 0 0
0.901872 0.299105 -0.226471 255 0 0
0.832210 0.148099 -0.229472 255 0 0
0.783697 0.253898 -0.232471 255 0 0
0.831135 0.230271 -0.268471 255 0 0
0.922563 0.173441 -0.225438 255 0 0
0.870580 0.284643 -0.244471 255 0 0
0.877205 0.151280 -0.238472 255 0 0
0.828271 0.172307 -0.256472 255 0 0
0.892917 0.255040 -0.262471 255 0 0
0.914262 0.241953 -0.262471 255 0 0
0.927775 0.189321 -0.238472 255 0 0
0.786932 0.233146 -0.243701 255 0 0
0.943037 0.221761 -0.239881 255 0 0
0.832603 0.166857 -0.240027 255 0 0
0.802787 0.217198 -0.250471 255 0 0
0.905620 0.186208 -0.247644 255 0 0
0.902007 0.276585 -0.234035 255 0 0
0.913684 0.279723 -0.244471 255 0 0
0.899036 0.276167 -0.260911 255 0 0
0.782784 0.219556 -0.226471 255 0 0
0.930687 0.201848 -0.245952 255 0 0
0.940703 0.248698 -0.235471 255 0 0
0.801279 0.226074 -0.259471 255 0 0
0.926767 0.237652 -0.232471 255 0 0
0.879816 0.305147 -0.235471 255 0 0
0.801000 0.262389 -0.232565 255 0 0
0.826293 0.190206 -0.258312 255 0 0
0.866823 0.289817 -0.251788 255 0 0
0.829057 0.199683 -0.265471 255 0 0
0.927834 0.274155 -0.229472 255 0 0
0.910261 0.174743 -0.231907 255 0 0
0.933744 0.244772 -0.223471 255 0 0
0.910386 0.162641 -0.232471 255 0 0
0.905203 0.189178 -0.254502 255 0 0
0.807726 0.171419 -0.232471 255 0 0
0.919736 0.236663 -0.240903 255 0 0
0.800021 0.204691 -0.240101 255 0 0
0.820005 0.278052 -0.238472 255 0 0
0.931807 0.202006 -0.226471 255 0 0
0.897512 0.265461 -0.247472 255 0 0
0.814170 0.294535 -0.226471 255 0 0
0.827359 0.257005 -0.262471 255 0 0
0.825923 0.214390 -0.267146 255 0 0
0.820211 0.234794 -0.268471 255 0 0
0.912958 0.155561 -0.229472 255 0 0
0.824398 0.289913 -0.231227 255 0 0
0.943503 0.240003 -0.233885 255 0 0
0.790308 0.206356 -0.247472 255 0 0
0.846992 0.150703 -0.229587 255 0 0
0.837244 0.155392 -0.246287 255 0 0
0.840556 0.286125 -0.241471 255 0 0
0.870900 0.303923 -0.238472 255 0 0
0.849151 0.156896 -0.247472 255 0 0
0.803581 0.190044 -0.235471 255 0 0
0.828346 0.218703 -0.274471 255 0 0
0.939863 0.233433 -0.238472 255 0 0
0.902689 0.293291 -0.241471 255 0 0
0.843523 0.304719 -0.230935 255 0 0
0.914163 0.211644 -0.257618 255 0 0
0.850716 0.296641 -0.245928 255 0 0
0.824614 0.288374 -0.241471 255 0 0
0.881565 0.279771 -0.247472 255 0 0
0.897125 0.181985 -0.249041 255 0 0
0.920009 0.170053 -0.233947 255 0 0
0.838496 0.146479 -0.235541 255 0 0
0.934959 0.214567 -0.231640 255 0 0
0.774627 0.207181 -0.223471 255 0 0
0.893513 0.272361 -0.244842 255 0 0
0.941318 0.212431 -0.228171 255 0 0
0.813301 0.261089 -0.249385 255 0 0
0.882676 0.164807 -0.253471 255 0 0
0.869641 0.312883 -0.229472 255 0 0
0.813812 0.206629 -0.265471 255 0 0
0.854440 0.291699 -0.235471 255 0 0
0.917874 0.163694 -0.222624 255 0 0
0.924904 0.188918 -0.247472 255 0 0
0.820296 0.265101 -0.250471 255 0 0
0.917687 0.186575 -0.250471 255 0 0
0.789553 0.257621 -0.235471 255 0 0
0.847826 0.144762 -0.226088 255 0 0
0.916669 0.193820 -0.237873 255 0 0
0.793340 0.252224 -0.247638 255 0 0
0.857144 0.143128 -0.232471 255 0 0
0.868911 0.274963 -0.251763 255 0 0
0.824157 0.183847 -0.262957 255 0 0
0.816766 0.225222 -0.262471 255 0 0
0.889055 0.282517 -0.238472 255 0 0
0.860176 0.164674 -0.255998 255 0 0
0.805689 0.272136 -0.242741 255 0 0
0.834787 0.194430 -0.263972 255 0 0
0.908731 0.201792 -0.256472 255 0 0
0.887618 0.292739 -0.225953 255 0 0
0.901953 0.255413 -0.250471 255 0 0
0.789855 0.212350 -0.231170 255 0 0
0.885141 0.268156 -0.253471 255 0 0
0.849345 0.155511 -0.235471 255 0 0
0.877037 0.303370 -0.228472 255 0 0
0.822117 0.219915 -0.264318 255 0 0
0.847088 0.193129 -0.270254 255 0 0
0.915776 0.264837 -0.253471 255 0 0
0.871223 0.172286 -0.258303 255 0 0
0.900338 0.288468 -0.224741 255 0 0
0.924471 0.181417 -0.238472 255 0 0
0.912607 0.201167 -0.247472 255 0 0
0.904319 0.260139 -0.262471 255 0 0
0.835028 0.300495 -0.226088 255 0 0
0.924008 0.249381 -0.235956 255 0 0
0.922386 0.282478 -0.233862 255 0 0
0.788651 0.242476 -0.230038 255 0 0
0.819515 0.195313 -0.265153 255 0 0
0.805593 0.229710 -0.248982 255 0 0
0.890214 0.241603 -0.262471 255 0 0
0.923173 0.255323 -0.248827 255 0 0
0.827914 0.157109 -0.243719 255 0 0
0.809864 0.242428 -0.260885 255 0 0
0.836633 0.159741 -0.235471 255 0 0
0.893889 0.161904 -0.244471 255 0 0
0.786033 0.199696 -0.238472 255 0 0
0.816615 0.280612 -0.244471 255 0 0
0.874901 0.297010 -0.245885 255 0 0
0.805497 0.187283 -0.252945 255 0 0
0.809816 0.221215 -0.258541 255 0 0
0.933755 0.244692 -0.242904 255 0 0
0.916252 0.196790 -0.251485 255 0 0
0.856322 0.170534 -0.262471 255 0 0
0.905299 0.231605 -0.263408 255 0 0
0.846622 0.174887 -0.263415 255 0 0
0.928279 0.262100 -0.237225 255 0 0
0.823145 0.298825 -0.222903 255 0 0
0.797263 0.213392 -0.238472 255 0 0
0.809447 0.245399 -0.251997 255 0 0
0.898061 0.153771 -0.232471 255 0 0
0.841208 0.170302 -0.259471 255 0 0
0.846863 0.280952 -0.248424 255 0 0
0.814039 0.212720 -0.258292 255 0 0
0.935329 0.190383 -0.225379 255 0 0
0.807728 0.236069 -0.255216 255 0 0
0.784542 0.257046 -0.220472 255 0 0
0.915191 0.290555 -0.222281 255 0 0
0.887988 0.268556 -0.263732 255 0 0
0.842448 0.290804 -0.247472 255 0 0
0.926047 0.213315 -0.254968 255 0 0
0.833904 0.179158 -0.263678 255 0 0
0.864319 0.307642 -0.222443 255 0 0
0.916773 0.178687 -0.238472 255 0 0
0.804806 0.256864 -0.243176 255 0 0
0.917183 0.233275 -0.260783 255 0 0
0.864190 0.157657 -0.241471 255 0 0
0.823787 0.208031 -0.269296 255 0 0
0.932406 0.211179 -0.248932 255 0 0
0.901590 0.279556 -0.254867 255 0 0
0.836923 0.200789 -0.267056 255 0 0
0.845131 0.163940 -0.247472 255 0 0
0.853613 0.168258 -0.253471 255 0 0
0.889171 0.152358 -0.238472 255 0 0
0.823836 0.229244 -0.269430 255 0 0
0.803778 0.177954 -0.243993 255 0 0
0.910493 0.247482 -0.262471 255 0 0
0.803994 0.165866 -0.232471 255 0 0
0.817592 0.187447 -0.250471 255 0 0
0.871733 0.276439 -0.259471 255 0 0
0.938765 0.209043 -0.239953 255 0 0
0.799502 0.198559 -0.253471 255 0 0
0.914356 0.296496 -0.230959 255 0 0
0.908301 0.167138 -0.226471 255 0 0
0.915047 0.226916 -0.263806 255 0 0
0.795582 0.173772 -0.232471 255 0 0
0.900659 0.243071 -0.256002 255 0 0
0.860740 0.192018 -0.271472 255 0 0
0.789389 0.194109 -0.234908 255 0 0
0.917470 0.278758 -0.226471 255 0 0
0.827914 0.157109 -0.231408 255 0 0
0.913746 0.214615 -0.250278 255 0 0
0.790782 0.188246 -0.238472 255 0 0
0.785381 0.248075 -0.235471 255 0 0
0.943824 0.194606 -0.225088 255 0 0
0.802670 0.250506 -0.254260 255 0 0
0.850694 0.199695 -0.271472 255 0 0
0.783545 0.235700 -0.227470 255 0 0
0.911755 0.271896 -0.231279 255 0 0
0.811938 0.191218 -0.259471 255 0 0
0.879058 0.159654 -0.244471 255 0 0
0.839226 0.162843 -0.253471 255 0 0
0.786785 0.266450 -0.226471 255 0 0
0.786885 0.211933 -0.244280 255 0 0
0.894262 0.159247 -0.232471 255 0 0
0.890173 0.296127 -0.242878 255 0 0
0.937561 0.239169 -0.223155 255 0 0
0.893464 0.251147 -0.256059 255 0 0
0.858746 0.282622 -0.246224 255 0 0
0.808638 0.196814 -0.250471 255 0 0
0.834739 0.173216 -0.252017 255 0 0
0.841387 0.298360 -0.236840 255 0 0
0.923189 0.215943 -0.238472 255 0 0
0.930640 0.180636 -0.228081 255 0 0
0.921775 0.200596 -0.254959 255 0 0
0.907756 0.192566 -0.248195 255 0 0
0.793248 0.231323 -0.250471 255 0 0
0.795785 0.188948 -0.244471 255 0 0
0.900123 0.300556 -0.232471 255 0 0
0.906987 0.246990 -0.250471 255 0 0
0.811437 0.188119 -0.246117 255 0 0
0.933289 0.226450 -0.245838 255 0 0
0.900465 0.158218 -0.236667 255 0 0
0.827513 0.267745 -0.253471 255 0 0
0.904144 0.282943 -0.225752 255 0 0
0.879172 0.309729 -0.230859 255 0 0
0.872560 0.292113 -0.253471 255 0 0
0.929112 0.222833 -0.250471 255 0 0
0.822165 0.241128 -0.266832 255 0 0
0.928343 0.196978 -0.250471 255 0 0
0.824108 0.162634 -0.245382 255 0 0
0.935562 0.223740 -0.226471 255 0 0
0.864611 0.154668 -0.235471 255 0 0
0.805337 0.262999 -0.238472 255 0 0
0.936849 0.233009 -0.244471 255 0 0
0.794450 0.194820 -0.247472 255 0 0
0.812273 0.182177 -0.240004 255 0 0
0.811373 0.272935 -0.247472 255 0 0
0.925430 0.228375 -0.256472 255 0 0
0.804987 0.244772 -0.247472 255 0 0
0.794860 0.228202 -0.241471 255 0 0
0.797981 0.240758 -0.252217 255 0 0
0.817941 0.249622 -0.258298 255 0 0
0.856241 0.300447 -0.224809 255 0 0
0.902377 0.252400 -0.266937 255 0 0
0.836523 0.289857 -0.244471 255 0 0
0.802574 0.208080 -0.257993 255 0 0
0.915980 0.177160 -0.244471 255 0 0
0.896114 0.296963 -0.225424 255 0 0
0.824196 0.162002 -0.232471 255 0 0
0.930305 0.232089 -0.229472 255 0 0
0.822636 0.204840 -0.262471 255 0 0
0.803874 0.220380 -0.260146 255 0 0
0.942325 0.226831 -0.226471 255 0 0
0.852564 0.175722 -0.261364 255 0 0
0.869991 0.310386 -0.223471 255 0 0
0.788185 0.224234 -0.245488 255 0 0
0.831730 0.237738 -0.271472 255 0 0
0.842864 0.292509 -0.235471 255 0 0
0.774791 0.213263 -0.226471 255 0 0
0.946008 0.222178 -0.228202 255 0 0
0.864816 0.153207 -0.245714 255 0 0
0.789068 0.239506 -0.242813 255 0 0
0.863901 0.310612 -0.227818 255 0 0
0.860464 0.291952 -0.234227 255 0 0
0.796432 0.267806 -0.232471 255 0 0
0.881939 0.258617 -0.259471 255 0 0
0.786981 0.254360 -0.225430 255 0 0
0.913194 0.284216 -0.220472 255 0 0
0.794499 0.216032 -0.253471 255 0 0
0.835931 0.294067 -0.229472 255 0 0
0.814039 0.212720 -0.265482 255 0 0
0.906456 0.180266 -0.248681 255 0 0
0.810378 0.281884 -0.228498 255 0 0
0.922508 0.195384 -0.232471 255 0 0
0.813670 0.236904 -0.261568 255 0 0
0.788603 0.221263 -0.226662 255 0 0
0.816995 0.273725 -0.241471 255 0 0
0.810460 0.281295 -0.238472 255 0 0
0.871175 0.151072 -0.239009 255 0 0
0.906642 0.219675 -0.259471 255 0 0
0.876750 0.283855 -0.244471 255 0 0
0.843523 0.304719 -0.224882 255 0 0
0.782410 0.262806 -0.220472 255 0 0
0.930222 0.183606 -0.222845 255 0 0
0.905299 0.231605 -0.255928 255 0 0
0.851122 0.142866 -0.232471 255 0 0
0.915047 0.226916 -0.247769 255 0 0
0.817884 0.271587 -0.253471 255 0 0
0.932360 0.254618 -0.235471 255 0 0
0.801000 0.262389 -0.246462 255 0 0
0.809350 0.202972 -0.261328 255 0 0
0.882209 0.288121 -0.235471 255 0 0
0.812931 0.285273 -0.234123 255 0 0
0.900194 0.224818 -0.259471 255 0 0
0.797050 0.204274 -0.253554 255 0 0
0.872694 0.161823 -0.244471 255 0 0
0.862376 0.274045 -0.253471 255 0 0
0.803567 0.177924 -0.229472 255 0 0
0.804210 0.184074 -0.235471 255 0 0
0.924919 0.273745 -0.235471 255 0 0
0.817538 0.198065 -0.256472 255 0 0
0.919929 0.245779 -0.259471 255 0 0
0.864688 0.283458 -0.254445 255 0 0
0.819611 0.237738 -0.261135 255 0 0
0.906231 0.268090 -0.257926 255 0 0
0.918853 0.221391 -0.260902 255 0 0
0.912988 0.256921 -0.241471 255 0 0
0.916348 0.239217 -0.245121 255 0 0
0.811165 0.254729 -0.258868 255 0 0
0.822548 0.173736 -0.253471 255 0 0
0.808660 0.272553 -0.234749 255 0 0
0.812224 0.160964 -0.237038 255 0 0
0.781069 0.238381 -0.232471 255 0 0
0.850107 0.300980 -0.241471 255 0 0
0.846640 0.296069 -0.241471 255 0 0
0.837799 0.302333 -0.232471 255 0 0
0.820302 0.168158 -0.246542 255 0 0
0.798350 0.216575 -0.246207 255 0 0
0.882603 0.263765 -0.256472 255 0 0
0.884648 0.162988 -0.247472 255 0 0
0.865759 0.146500 -0.235471 255 0 0
0.920201 0.254906 -0.235406 255 0 0
0.834739 0.173216 -0.259894 255 0 0
0.926560 0.252770 -0.231901 255 0 0
0.779071 0.224417 -0.226471 255 0 0
0.907083 0.175807 -0.238472 255 0 0
0.919792 0.203347 -0.238472 255 0 0
0.805135 0.276081 -0.238472 255 0 0
0.848710 0.160032 -0.252355 255 0 0
0.797098 0.225487 -0.254550 255 0 0
0.859710 0.146431 -0.228265 255 0 0
0.862261 0.300723 -0.223471 255 0 0
0.822630 0.259370 -0.255013 255 0 0
0.875058 0.274337 -0.250471 255 0 0
0.886318 0.280439 -0.257755 255 0 0
0.830508 0.289540 -0.232471 255 0 0
0.841146 0.192294 -0.272269 255 0 0
0.828969 0.181494 -0.253471 255 0 0
0.917969 0.206120 -0.243387 255 0 0
0.804991 0.232655 -0.259471 255 0 0
0.910871 0.256624 -0.260774 255 0 0
0.892873 0.284389 -0.232471 255 0 0
0.781778 0.205157 -0.224782 255 0 0
0.876648 0.263018 -0.265471 255 0 0
0.852435 0.305971 -0.220361 255 0 0
0.789021 0.261404 -0.223471 255 0 0
0.797837 0.177119 -0.236867 255 0 0
0.935857 0.217723 -0.241471 255 0 0
0.792887 0.276396 -0.223471 255 0 0
0.791441 0.200456 -0.244471 255 0 0
0.798174 0.239390 -0.241471 255 0 0
0.828797 0.172381 -0.246058 255 0 0
0.855117 0.179110 -0.266949 255 0 0
0.935939 0.186043 -0.232471 255 0 0
0.859327 0.278487 -0.250471 255 0 0
0.922337 0.261265 -0.237673 255 0 0
0.791488 0.230757 -0.232471 255 0 0
0.890360 0.305242 -0.232471 255 0 0
0.906038 0.183238 -0.242815 255 0 0
0.857842 0.159717 -0.244471 255 0 0
0.892528 0.300919 -0.235471 255 0 0
0.861994 0.173290 -0.262471 255 0 0
0.861059 0.179945 -0.266894 255 0 0
0.904769 0.278494 -0.229472 255 0 0
0.808909 0.257442 -0.247472 255 0 0
0.911133 0.276323 -0.250471 255 0 0
0.924843 0.243440 -0.232157 255 0 0
0.815879 0.178074 -0.241471 255 0 0
0.807680 0.214856 -0.262289 255 0 0
0.863229 0.293838 -0.253471 255 0 0
0.919090 0.251719 -0.256472 255 0 0
0.797194 0.267913 -0.226878 255 0 0
0.805544 0.208497 -0.245986 255 0 0
0.933516 0.235570 -0.250471 255 0 0
0.890590 0.293157 -0.248895 255 0 0
0.894572 0.178596 -0.245344 255 0 0
0.913365 0.195773 -0.244471 255 0 0
0.802204 0.232263 -0.242987 255 0 0
0.917134 0.212062 -0.245995 255 0 0
0.890450 0.164817 -0.238472 255 0 0
0.930985 0.242846 -0.247472 255 0 0
0.909549 0.168583 -0.241471 255 0 0
0.935122 0.202471 -0.241471 255 0 0
0.883628 0.299577 -0.241471 255 0 0
0.931940 0.192936 -0.239969 255 0 0
0.914479 0.284396 -0.241471 255 0 0
0.844242 0.159404 -0.238472 255 0 0
0.849047 0.308525 -0.233954 255 0 0
0.928870 0.247036 -0.253471 255 0 0
0.854281 0.303201 -0.238472 255 0 0
0.925741 0.172380 -0.232471 255 0 0
0.918796 0.286460 -0.235471 255 0 0
0.936821 0.211799 -0.244471 255 0 0
0.915819 0.166434 -0.232471 255 0 0
0.817524 0.252594 -0.263016 255 0 0
0.920927 0.292857 -0.229472 255 0 0
0.932300 0.255044 -0.244471 255 0 0
0.826115 0.299243 -0.233963 255 0 0
0.800124 0.280443 -0.229472 255 0 0
0.819716 0.172333 -0.241471 255 0 0
0.916568 0.269543 -0.250471 255 0 0
0.913735 0.300923 -0.226471 255 0 0
0.937766 0.237708 -0.241471 255 0 0
0.926834 0.186159 -0.242966 255 0 0
0.918731 0.245610 -0.241471 255 0 0
0.945590 0.225149 -0.233835 255 0 0
0.872058 0.166344 -0.257392 255 0 0
0.863694 0.161194 -0.253471 255 0 0
0.792409 0.215739 -0.237136 255 0 0
0.852018 0.308942 -0.228249 255 0 0
0.787893 0.183202 -0.229472 255 0 0
0.833279 0.215424 -0.271472 255 0 0
0.831993 0.290980 -0.241471 255 0 0
0.923863 0.185742 -0.229840 255 0 0
0.818027 0.216311 -0.262471 255 0 0
0.861765 0.304254 -0.236939 255 0 0
0.842447 0.204595 -0.275730 255 0 0
0.906410 0.277204 -0.253471 255 0 0
0.794080 0.203856 -0.231017 255 0 0
0.880843 0.297846 -0.245934 255 0 0
0.793806 0.270466 -0.222178 255 0 0
0.927766 0.222644 -0.234761 255 0 0
0.850615 0.297366 -0.229472 255 0 0
0.826902 0.272088 -0.257940 255 0 0
0.939257 0.193965 -0.232471 255 0 0
0.805272 0.199370 -0.241471 255 0 0
0.794031 0.182643 -0.228619 255 0 0
0.891843 0.284245 -0.254790 255 0 0
0.904737 0.170936 -0.242779 255 0 0
0.897197 0.239555 -0.259471 255 0 0
0.855904 0.151955 -0.243582 255 0 0
0.923022 0.277953 -0.238472 255 0 0
0.907389 0.183427 -0.253471 255 0 0
0.908482 0.283553 -0.244471 255 0 0
0.791157 0.224651 -0.231113 255 0 0
0.923815 0.164529 -0.225114 255 0 0
0.810340 0.206141 -0.256472 255 0 0
0.899357 0.273892 -0.238472 255 0 0
0.834327 0.283923 -0.247472 255 0 0
0.880377 0.279603 -0.260816 255 0 0
0.876378 0.286498 -0.256472 255 0 0
0.847039 0.171916 -0.255175 255 0 0
0.926254 0.211838 -0.235471 255 0 0
0.827223 0.226691 -0.272922 255 0 0
0.849165 0.166155 -0.250471 255 0 0
0.822262 0.283554 -0.242655 255 0 0
0.852098 0.157480 -0.240227 255 0 0
0.802670 0.250506 -0.240115 255 0 0
0.871990 0.302660 -0.226471 255 0 0
0.904431 0.161805 -0.235471 255 0 0
0.867275 0.265644 -0.259471 255 0 0
0.916385 0.174289 -0.226471 255 0 0
0.798524 0.193784 -0.232471 255 0 0
0.782662 0.220428 -0.237148 255 0 0
0.823035 0.180660 -0.250471 255 0 0
0.842865 0.201624 -0.270243 255 0 0
0.846027 0.286894 -0.248643 255 0 0
0.779326 0.229048 -0.232471 255 0 0
0.879526 0.156322 -0.238472 255 0 0
0.837899 0.280062 -0.244471 255 0 0
0.813526 0.173265 -0.232605 255 0 0
0.845699 0.181452 -0.265471 255 0 0
0.822509 0.281796 -0.235471 255 0 0
0.815590 0.244797 -0.259471 255 0 0
0.832828 0.203243 -0.271472 255 0 0
0.872610 0.291759 -0.235471 255 0 0
0.876699 0.154878 -0.243594 255 0 0
0.794031 0.182643 -0.236147 255 0 0
0.813050 0.227728 -0.259471 255 0 0
0.815464 0.255333 -0.253471 255 0 0
0.890300 0.165878 -0.245068 255 0 0
0.786399 0.248220 -0.229472 255 0 0
0.815365 0.289513 -0.229472 255 0 0
0.834949 0.182334 -0.259471 255 0 0
0.886850 0.255102 -0.259471 255 0 0
0.806714 0.248045 -0.259471 255 0 0
0.927195 0.269815 -0.238472 255 0 0
0.809229 0.268503 -0.244471 255 0 0
0.920496 0.179210 -0.226471 255 0 0
0.897078 0.160771 -0.239929 255 0 0
0.912158 0.265893 -0.235471 255 0 0
0.872299 0.272410 -0.263572 255 0 0
0.802185 0.241349 -0.244471 255 0 0
0.830098 0.184683 -0.257991 255 0 0
0.829512 0.188851 -0.265471 255 0 0
0.842610 0.160327 -0.244471 255 0 0
0.826275 0.276551 -0.247472 255 0 0
0.908222 0.210809 -0.256984 255 0 0
0.797332 0.258844 -0.235471 255 0 0
0.898153 0.260895 -0.250125 255 0 0
0.918846 0.224421 -0.244471 255 0 0
0.838883 0.208399 -0.274471 255 0 0
0.909194 0.203892 -0.250471 255 0 0
0.821291 0.290456 -0.235471 255 0 0
0.885611 0.156130 -0.239502 255 0 0
0.788972 0.197079 -0.230559 255 0 0
0.784395 0.235819 -0.238472 255 0 0
0.911840 0.249734 -0.244471 255 0 0
0.892854 0.169266 -0.240135 255 0 0
0.827593 0.202507 -0.269678 255 0 0
0.941318 0.212431 -0.236821 255 0 0
0.911775 0.220397 -0.250471 255 0 0
0.862836 0.296632 -0.244471 255 0 0
0.919270 0.218421 -0.244119 255 0 0
0.816175 0.219079 -0.266531 255 0 0
0.819121 0.298260 -0.226471 255 0 0
0.920057 0.191266 -0.248870 255 0 0
0.797467 0.201303 -0.237036 255 0 0
0.914048 0.187393 -0.238472 255 0 0
0.793816 0.237143 -0.235471 255 0 0
0.896901 0.269808 -0.260826 255 0 0
0.893978 0.290604 -0.251938 255 0 0
0.865943 0.166746 -0.253471 255 0 0
0.854941 0.288147 -0.239244 255 0 0
0.906945 0.155222 -0.226471 255 0 0
0.827016 0.206608 -0.265471 255 0 0
0.846445 0.283923 -0.244173 255 0 0
0.828942 0.236021 -0.267429 255 0 0
0.851766 0.289176 -0.253471 255 0 0
0.828461 0.304113 -0.229472 255 0 0
0.920042 0.277604 -0.244471 255 0 0
0.798903 0.169526 -0.232471 255 0 0
0.826661 0.166023 -0.237019 255 0 0
0.900131 0.289939 -0.250471 255 0 0
0.902842 0.270643 -0.260931 255 0 0
0.816149 0.182722 -0.256472 255 0 0
0.871512 0.299564 -0.242893 255 0 0
0.867241 0.286846 -0.241161 255 0 0
0.822389 0.153304 -0.233337 255 0 0
0.793895 0.264420 -0.229472 255 0 0
0.932794 0.196086 -0.223471 255 0 0
0.913425 0.173793 -0.241471 255 0 0
0.948143 0.228538 -0.230868 255 0 0
0.923284 0.243222 -0.256472 255 0 0
0.942202 0.227703 -0.236853 255 0 0
0.834410 0.304894 -0.229472 255 0 0
0.854326 0.292517 -0.250471 255 0 0
0.841050 0.149868 -0.230694 255 0 0
0.889590 0.156690 -0.232471 255 0 0
0.926288 0.264849 -0.244471 255 0 0
0.801370 0.238205 -0.256992 255 0 0
0.840893 0.172540 -0.253471 255 0 0
0.917969 0.206120 -0.257809 255 0 0
0.904144 0.282943 -0.251926 255 0 0
0.839084 0.293184 -0.241471 255 0 0
0.818681 0.201255 -0.265215 255 0 0
0.856836 0.188440 -0.272565 255 0 0
0.828621 0.281418 -0.245272 255 0 0
0.795511 0.246470 -0.238472 255 0 0
0.906552 0.222693 -0.254719 255 0 0
0.884880 0.290671 -0.250471 255 0 0
0.882978 0.304205 -0.231252 255 0 0
0.897961 0.176043 -0.251505 255 0 0
0.799748 0.271301 -0.237642 255 0 0
0.852777 0.174200 -0.256472 255 0 0
0.778118 0.209646 -0.229472 255 0 0
0.869376 0.293205 -0.231367 255 0 0
0.781826 0.226370 -0.236591 255 0 0
0.907596 0.258375 -0.244471 255 0 0
0.781559 0.249827 -0.229472 255 0 0
0.834145 0.285224 -0.237521 255 0 0
0.787304 0.230506 -0.229472 255 0 0
0.916620 0.172607 -0.236757 255 0 0
0.795893 0.255612 -0.243456 255 0 0
0.891338 0.158498 -0.241471 255 0 0
0.818583 0.158828 -0.237487 255 0 0
0.793758 0.249253 -0.243535 255 0 0
0.892009 0.261505 -0.253471 255 0 0
0.903213 0.160230 -0.226471 255 0 0
0.825087 0.220332 -0.269868 255 0 0
0.893421 0.248113 -0.262471 255 0 0
0.806579 0.254084 -0.250471 255 0 0
0.819243 0.261923 -0.257805 255 0 0
0.801691 0.192808 -0.253664 255 0 0
0.892309 0.302487 -0.225205 255 0 0
0.804531 0.168971 -0.238472 255 0 0
0.825261 0.197541 -0.268471 255 0 0
0.793758 0.249253 -0.232799 255 0 0
0.800331 0.253206 -0.250471 255 0 0
0.850924 0.163374 -0.256472 255 0 0
0.850644 0.189375 -0.271472 255 0 0
0.828749 0.151168 -0.234704 255 0 0
0.826372 0.297419 -0.226471 255 0 0
0.793208 0.243116 -0.247472 255 0 0
0.930598 0.210924 -0.232471 255 0 0
0.939575 0.246398 -0.223471 255 0 0
0.842816 0.180411 -0.261176 255 0 0
0.870568 0.155393 -0.235471 255 0 0
0.834284 0.154894 -0.241471 255 0 0
0.853456 0.147816 -0.229472 255 0 0
0.806035 0.238861 -0.259471 255 0 0
0.864446 0.177392 -0.264305 255 0 0
0.823321 0.189788 -0.263454 255 0 0
0.809189 0.225677 -0.256472 255 0 0
0.793244 0.209797 -0.250354 255 0 0
0.869590 0.147820 -0.229472 255 0 0
0.812369 0.224604 -0.264656 255 0 0
0.778707 0.216844 -0.232471 255 0 0
0.920573 0.218605 -0.256472 255 0 0
0.906770 0.298461 -0.226471 255 0 0
0.807281 0.282365 -0.232471 255 0 0
0.823370 0.211001 -0.264463 255 0 0
0.803601 0.259725 -0.250471 255 0 0
0.838962 0.164721 -0.246127 255 0 0
0.915053 0.232975 -0.247472 255 0 0
0.871046 0.281322 -0.257702 255 0 0
0.936629 0.202684 -0.225761 255 0 0
0.938281 0.255597 -0.229472 255 0 0
0.821379 0.268282 -0.254452 255 0 0
0.882978 0.304205 -0.239971 255 0 0
0.789458 0.230472 -0.247472 255 0 0
0.860457 0.141112 -0.229472 255 0 0
0.868654 0.271897 -0.259471 255 0 0
0.921635 0.255107 -0.253471 255 0 0
0.934125 0.220508 -0.229854 255 0 0
0.861010 0.158732 -0.249103 255 0 0
0.910118 0.211076 -0.250471 255 0 0
0.839622 0.181578 -0.265471 255 0 0
0.912028 0.205285 -0.257374 255 0 0
0.911391 0.177930 -0.235471 255 0 0
0.780443 0.198910 -0.229472 255 0 0
0.915115 0.214808 -0.262471 255 0 0
0.791893 0.219413 -0.250471 255 0 0
0.801812 0.201913 -0.244471 255 0 0
0.826864 0.196346 -0.262471 255 0 0
0.825408 0.174935 -0.242979 255 0 0
0.845166 0.185250 -0.262471 255 0 0
0.910391 0.281599 -0.223471 255 0 0
0.822085 0.295647 -0.232471 255 0 0
0.833245 0.162292 -0.238472 255 0 0
0.879627 0.276469 -0.250471 255 0 0
0.901971 0.185694 -0.253471 255 0 0
0.872476 0.163373 -0.249072 255 0 0
0.809913 0.263641 -0.251756 255 0 0
0.855226 0.156772 -0.250471 255 0 0
0.921535 0.227828 -0.241471 255 0 0
0.932920 0.250634 -0.226147 255 0 0
0.803419 0.274847 -0.229472 255 0 0
0.921798 0.167275 -0.229472 255 0 0
0.805264 0.217545 -0.256472 255 0 0
0.921958 0.199295 -0.235471 255 0 0
0.840310 0.198236 -0.272563 255 0 0
0.928646 0.240945 -0.229472 255 0 0
0.927867 0.210541 -0.250471 255 0 0
0.889633 0.170627 -0.244471 255 0 0
0.875112 0.295506 -0.250471 255 0 0
0.894405 0.244456 -0.265471 255 0 0
0.790835 0.270049 -0.230954 255 0 0
0.833020 0.163887 -0.251033 255 0 0
0.821773 0.189571 -0.253471 255 0 0
0.794641 0.264525 -0.237929 255 0 0
0.928134 0.198461 -0.242694 255 0 0
0.896532 0.293992 -0.242900 255 0 0
0.929579 0.274401 -0.239922 255 0 0
0.921727 0.179383 -0.242918 255 0 0
0.945542 0.203936 -0.230941 255 0 0
0.904826 0.299641 -0.232471 255 0 0
0.814779 0.164353 -0.239260 255 0 0
0.925619 0.192048 -0.229472 255 0 0
0.881018 0.275039 -0.262471 255 0 0
0.803498 0.266171 -0.244471 255 0 0
0.893044 0.275700 -0.241471 255 0 0
0.919938 0.288193 -0.229472 255 0 0
0.794544 0.222098 -0.237000 255 0 0
0.836556 0.160282 -0.250471 255 0 0
0.884520 0.163903 -0.241471 255 0 0
0.946214 0.220705 -0.235471 255 0 0
0.914403 0.274605 -0.226471 255 0 0
0.889921 0.276366 -0.262471 255 0 0
0.844080 0.149862 -0.238472 255 0 0
0.906231 0.268090 -0.239024 255 0 0
0.798464 0.194207 -0.250471 255 0 0
0.911490 0.252228 -0.262471 255 0 0
0.868720 0.308260 -0.232471 255 0 0
0.837201 0.177252 -0.259471 255 0 0
0.789534 0.257748 -0.227558 255 0 0
0.778550 0.241057 -0.229472 255 0 0
0.897495 0.157800 -0.227784 255 0 0
0.925951 0.170888 -0.227943 255 0 0
0.816047 0.263108 -0.253471 255 0 0
0.929066 0.234945 -0.251957 255 0 0
0.853815 0.166809 -0.257971 255 0 0
0.843603 0.153256 -0.244898 255 0 0
0.802108 0.189837 -0.230982 255 0 0
0.882224 0.158684 -0.247941 255 0 0
0.816641 0.237322 -0.266683 255 0 0
0.920313 0.210995 -0.259471 255 0 0
0.783496 0.208428 -0.238472 255 0 0
0.871451 0.181405 -0.265471 255 0 0
0.938246 0.255849 -0.238472 255 0 0
0.911874 0.163271 -0.223471 255 0 0
0.868822 0.156800 -0.241471 255 0 0
0.830750 0.212039 -0.268471 255 0 0
0.925393 0.249576 -0.250471 255 0 0
0.818215 0.183012 -0.249029 255 0 0
0.809351 0.181413 -0.253471 255 0 0
0.918949 0.263818 -0.235485 255 0 0
0.925937 0.289036 -0.226471 255 0 0
0.813156 0.197449 -0.252030 255 0 0
0.913688 0.160076 -0.226471 255 0 0
0.878260 0.165334 -0.250471 255 0 0
0.934638 0.259964 -0.236982 255 0 0
0.828331 0.154139 -0.239922 255 0 0
0.817749 0.164770 -0.233356 255 0 0
0.939384 0.204637 -0.238472 255 0 0
0.791660 0.188368 -0.229472 255 0 0
0.944901 0.208498 -0.229472 255 0 0
0.802770 0.183871 -0.247472 255 0 0
0.819918 0.243841 -0.262471 255 0 0
0.810065 0.240999 -0.253471 255 0 0
0.939231 0.227285 -0.222989 255 0 0
0.882328 0.287277 -0.253471 255 0 0
0.926810 0.283099 -0.232471 255 0 0
0.858243 0.307758 -0.223471 255 0 0
0.904904 0.216401 -0.256472 255 0 0
0.910216 0.239738 -0.265471 255 0 0
0.917802 0.260627 -0.253471 255 0 0
0.780991 0.232312 -0.225520 255 0 0
0.902282 0.296193 -0.235471 255 0 0
0.862299 0.289181 -0.253471 255 0 0
0.821185 0.183430 -0.259088 255 0 0
0.807837 0.202760 -0.250471 255 0 0
0.822952 0.213973 -0.271576 255 0 0
0.795199 0.234308 -0.253471 255 0 0
0.791553 0.261062 -0.238472 255 0 0
0.806935 0.177054 -0.247472 255 0 0
0.905983 0.248296 -0.265471 255 0 0
0.904091 0.164787 -0.229472 255 0 0
0.875191 0.157696 -0.247472 255 0 0
0.931249 0.262517 -0.242902 255 0 0
0.794258 0.212969 -0.232471 255 0 0
0.916789 0.181719 -0.244471 255 0 0
0.935206 0.234373 -0.223471 255 0 0
0.810040 0.251541 -0.247472 255 0 0
0.879542 0.285545 -0.239226 255 0 0
0.868468 0.299675 -0.226471 255 0 0
0.786564 0.257330 -0.231066 255 0 0
0.944023 0.193187 -0.229472 255 0 0
0.911755 0.185672 -0.253471 255 0 0
0.806615 0.229854 -0.253471 255 0 0
0.897312 0.248659 -0.256472 255 0 0
0.817620 0.295019 -0.223345 255 0 0
0.811138 0.291079 -0.226471 255 0 0
0.828309 0.272286 -0.253471 255 0 0
0.902106 0.167537 -0.235471 255 0 0
0.834187 0.220256 -0.274471 255 0 0
0.829915 0.207538 -0.271472 255 0 0
0.890326 0.251919 -0.259471 255 0 0
0.868792 0.159826 -0.250471 255 0 0
0.789021 0.218292 -0.246005 255 0 0
0.860704 0.290242 -0.238472 255 0 0
0.889326 0.274802 -0.247472 255 0 0
0.825649 0.281001 -0.238900 255 0 0
0.940528 0.185054 -0.226471 255 0 0
0.830242 0.248322 -0.264121 255 0 0
0.897069 0.169858 -0.238472 255 0 0
0.860413 0.162984 -0.247472 255 0 0
0.827271 0.247905 -0.269697 255 0 0
0.874380 0.171389 -0.262471 255 0 0
0.811213 0.275942 -0.236643 255 0 0
0.902890 0.291857 -0.223050 255 0 0
0.786869 0.208902 -0.226471 255 0 0
0.864630 0.283868 -0.244471 255 0 0
0.870849 0.153392 -0.244471 255 0 0
0.793564 0.185959 -0.241471 255 0 0
0.820069 0.210538 -0.268471 255 0 0
0.817999 0.228424 -0.265471 255 0 0
0.786836 0.190720 -0.236565 255 0 0
0.900159 0.170293 -0.244471 255 0 0
0.831816 0.194012 -0.268425 255 0 0
0.824892 0.264833 -0.256472 255 0 0
0.828058 0.285424 -0.241471 255 0 0
0.882998 0.158792 -0.235471 255 0 0
0.799836 0.216783 -0.241471 255 0 0
0.813526 0.173265 -0.248506 255 0 0
0.940793 0.259282 -0.232471 255 255 255
-1.160296 0.347256 -0.196472 255 255 255
0.183987 0.611920 -0.262471 255 255 255
-0.526220 0.674130 -0.001471 255 255 255
0.486849 0.266709 -0.271472 255 255 255
-0.762895 0.342517 -0.256472 255 255 255
-0.900223 0.738256 -0.076472 255 255 255
0.577869 0.556696 -0.238472 255 255 255
0.193225 0.243621 -0.271472 255 255 255
-0.659827 0.729629 -0.202471 255 255 255
0.696413 0.305251 -0.268471 255 255 255
0.936126 0.076929 -0.139471 255 255 255
-0.982798 0.279901 -0.241471 255 255 255
0.443225 0.674061 -0.232471 255 255 255
-1.001925 0.437557 -0.193471 255 255 255
-0.867212 0.449036 -0.251916 255 255 255
0.340088 0.255172 -0.271472 255 255 255
0.645389 0.431377 -0.271472 255 255 255
0.870542 0.112465 -0.250471 255 255 255
0.822540 0.303126 -0.226471 255 255 255
-0.610151 0.581541 0.001529 255 255 255
-0.781471 0.744306 -0.196472 255 255 255
-1.064264 0.363781 -0.254821 255 255 255
-0.460230 0.592593 -0.001471 255 255 255
0.585997 0.271555 -0.271472 255 255 255
0.151851 0.527037 -0.238472 255 255 255
0.264904 0.250665 -0.271472 255 255 255
-0.592462 0.649685 -0.004471 255 255 255
0.669902 0.365143 -0.268471 255 255 255
-0.804872 0.436590 -0.251810 255 255 255
0.402810 0.260957 -0.271472 255 255 255
-0.981431 0.381482 -0.199471 255 255 255
0.870473 0.112957 -0.190471 255 255 255
-0.479625 0.644376 -0.019471 255 255 255
-0.808635 0.366383 -0.253471 255 255 255
-0.738155 0.759438 -0.196472 255 255 255
0.531789 0.269996 -0.271472 255 255 255
0.612470 0.461391 -0.268471 255 255 255
-1.022534 0.357529 -0.253471 255 255 255
0.444866 0.263839 -0.271472 255 255 255
-1.073690 0.323073 -0.251444 255 255 255
-0.645550 0.692252 -0.196472 255 255 255
-0.557862 0.662163 -0.020760 255 255 255
-1.038100 0.393173 -0.253471 255 255 255
-0.772538 0.378957 -0.253471 255 255 255
0.951322 0.227471 -0.226471 255 255 255
-0.467411 0.611256 -0.028472 255 255 255
0.681749 0.334894 -0.268471 255 255 255
-1.148615 0.317294 -0.196472 255 255 255
-0.464611 0.623767 -0.000038 255 255 255
-0.992033 0.410287 -0.203875 255 255 255
0.851408 0.313280 -0.229472 255 255 255
0.160125 0.532828 -0.266903 255 255 255
0.294987 0.251863 -0.271472 255 255 255
0.370078 0.256357 -0.271472 255 255 255
-1.045653 0.339132 -0.251581 255 255 255
0.654988 0.405460 -0.268471 255 255 255
-0.789140 0.335800 -0.256472 255 255 255
0.557688 0.269174 -0.271472 255 255 255
-0.556144 0.671492 0.002919 255 255 255
0.931509 0.282233 -0.232471 255 255 255
-0.857930 0.426104 -0.251960 255 255 255
-0.759813 0.751931 -0.205471 255 255 255
-0.784896 0.359115 -0.256472 255 255 255
-1.088274 0.340616 -0.253471 255 255 255
-1.040915 0.370093 -0.254909 255 255 255
-0.576312 0.664101 -0.001471 255 255 255
0.171817 0.535859 -0.238472 255 255 255
-0.879499 0.741169 -0.070471 255 255 255
0.927273 0.096808 -0.139471 255 255 255
-0.537692 0.669539 -0.022471 255 255 255
-0.652366 0.709471 -0.206960 255 255 255
0.870466 0.113004 -0.229472 255 255 255
0.213992 0.246539 -0.271472 255 255 255
0.244156 0.247749 -0.271472 255 255 255
-0.477587 0.640121 0.001529 255 255 255
-0.894992 0.732932 -0.056987 255 255 255
-0.578018 0.654680 -0.019471 255 255 255
0.197440 0.612214 -0.247472 255 255 255
-0.792429 0.380780 -0.253471 255 255 255
-0.988061 0.392668 -0.214471 255 255 255
-0.464199 0.608677 -0.010472 255 255 255
-0.472897 0.628662 -0.028472 255 255 255
0.945904 0.244470 -0.223471 255 255 255
0.870462 0.113033 -0.211471 255 255 255
0.427070 0.261338 -0.271472 255 255 255
0.514052 0.267503 -0.271472 255 255 255
-1.025444 0.378326 -0.253471 255 255 255
-1.061759 0.345957 -0.251655 255 255 255
0.687002 0.319075 -0.267088 255 255 255
0.386484 0.258663 -0.272934 255 255 255
-0.541499 0.675065 -0.007472 255 255 255
-0.482574 0.654568 -0.004471 255 255 255
-1.051689 0.382083 -0.253471 255 255 255
0.159931 0.534216 -0.250471 255 255 255
-1.156630 0.331210 -0.196472 255 255 255
-0.753229 0.758915 -0.192029 255 255 255
-1.031216 0.344190 -0.254923 255 255 255
-1.044769 0.354403 -0.254893 255 255 255
-0.470399 0.632042 -0.013472 255 255 255
-0.767248 0.750886 -0.192086 255 255 255
0.676688 0.349344 -0.268471 255 255 255
0.836969 0.308234 -0.226471 255 255 255
0.660092 0.391031 -0.268471 255 255 255
-0.988807 0.395592 -0.199471 255 255 255
-0.996909 0.423424 -0.196472 255 255 255
0.459996 0.262936 -0.271472 255 255 255
-1.074895 0.353199 -0.251643 255 255 255
-0.776865 0.345082 -0.256472 255 255 255
0.572136 0.274146 -0.271472 255 255 255
-0.746870 0.756779 -0.206933 255 255 255
-0.655393 0.718134 -0.196472 255 255 255
-0.561668 0.667687 -0.008931 255 255 255
0.473276 0.266232 -0.271472 255 255 255
-0.771321 0.359510 -0.256472 255 255 255
0.669536 0.378684 -0.268471 255 255 255
0.197221 0.613779 -0.260963 255 255 255
-0.467164 0.620379 -0.017960 255 255 255
0.159505 0.537235 -0.238472 255 255 255
-0.462339 0.596821 -0.013472 255 255 255
-0.816339 0.431950 -0.251835 255 255 255
0.649971 0.419903 -0.271472 255 255 255
-0.783591 0.371383 -0.256472 255 255 255
0.544016 0.268685 -0.271472 255 255 255
-0.549785 0.669357 -0.014965 255 255 255
-0.789376 0.347884 -0.257942 255 255 255
-0.650347 0.703695 -0.196472 255 255 255
-1.052381 0.365451 -0.254905 255 255 255
-1.078118 0.333019 -0.256472 255 255 255
-0.775205 0.333273 -0.256472 255 255 255
0.931699 0.086871 -0.143926 255 255 255
-0.545413 0.666942 0.001529 255 255 255
-0.566478 0.658799 0.001529 255 255 255
0.945392 0.237240 -0.232471 255 255 255
-0.992033 0.410287 -0.192430 255 255 255
