ply
format ascii 1.0
element vertex 1281
property float x
property float y
property float z
property uchar red
property uchar green
property uchar blue
end_header
0.201867 0.296262 0.121950 0 0 255
0.194363 0.290135 0.103950 0 0 255
0.206800 0.352545 0.153949 0 0 255
0.200184 0.308943 0.131950 0 0 255
0.135449 0.296664 0.115949 0 0 255
0.137996 0.368539 0.091950 0 0 255
0.132083 0.286423 0.187950 0 0 255
0.078266 0.295001 0.053949 0 0 255
0.202872 0.296056 0.061949 0 0 255
0.079446 0.364391 0.121950 0 0 255
0.206845 0.318718 0.145949 0 0 255
0.184977 0.371723 0.139950 0 0 255
0.199088 0.320689 0.131950 0 0 255
0.099117 0.368224 0.079949 0 0 255
0.200177 0.354013 0.119950 0 0 255
0.090526 0.316866 0.083950 0 0 255
0.198038 0.323760 0.153949 0 0 255
0.113397 0.368460 0.041949 0 0 255
0.155801 0.296249 0.041949 0 0 255
0.087541 0.298038 0.045949 0 0 255
0.104789 0.297315 0.079949 0 0 255
0.195492 0.295644 0.145949 0 0 255
0.086327 0.291165 0.077949 0 0 255
0.200984 0.362029 0.097949 0 0 255
0.086076 0.323999 0.031949 0 0 255
0.146520 0.370006 0.147950 0 0 255
0.192814 0.361792 0.063950 0 0 255
0.092182 0.332887 0.055950 0 0 255
0.078364 0.293606 0.077949 0 0 255
0.143186 0.290300 0.119950 0 0 255
0.084830 0.285352 0.143949 0 0 255
0.187059 0.368077 0.055950 0 0 255
0.089600 0.302731 0.053949 0 0 255
0.118681 0.290652 0.127949 0 0 255
0.084389 0.340761 0.147950 0 0 255
0.088442 0.362397 0.031949 0 0 255
0.147714 0.361547 0.109950 0 0 255
0.090575 0.311722 0.079949 0 0 255
0.125213 0.296884 0.093950 0 0 255
0.091089 0.355664 0.105949 0 0 255
0.118126 0.297388 0.081950 0 0 255
0.093450 0.320315 0.101950 0 0 255
0.127121 0.296461 0.123949 0 0 255
0.184389 0.296057 0.093950 0 0 255
0.150025 0.293432 0.131546 0 0 255
0.096289 0.368850 0.115949 0 0 255
0.079346 0.290664 0.097949 0 0 255
0.082963 0.286632 0.059949 0 0 255
0.095550 0.291170 0.113950 0 0 255
0.096672 0.362621 0.055950 0 0 255
0.206862 0.305415 0.121950 0 0 255
0.085068 0.370049 0.117949 0 0 255
0.176083 0.295850 0.055950 0 0 255
0.089485 0.353007 0.065950 0 0 255
0.188255 0.295200 0.049949 0 0 255
0.159532 0.290109 0.079949 0 0 255
0.197803 0.370928 0.139950 0 0 255
0.204360 0.372191 0.115949 0 0 255
0.173016 0.295492 0.027949 0 0 255
0.205107 0.310874 0.141950 0 0 255
0.205971 0.314774 0.123949 0 0 255
0.177559 0.362189 0.031949 0 0 255
0.144003 0.367914 0.049949 0 0 255
0.206247 0.303502 0.127949 0 0 255
0.131055 0.291023 0.071949 0 0 255
0.158354 0.367962 0.091950 0 0 255
0.160470 0.368264 0.085950 0 0 255
0.091287 0.335135 0.151949 0 0 255
0.085562 0.363035 0.151609 0 0 255
0.085627 0.335608 0.079949 0 0 255
0.201887 0.296275 0.107949 0 0 255
0.201438 0.294326 0.050996 0 0 255
0.108766 0.296434 0.039950 0 0 255
0.078694 0.303100 0.035949 0 0 255
0.099181 0.290365 0.103950 0 0 255
0.165204 0.297214 0.173949 0 0 255
0.163586 0.286329 0.175950 0 0 255
0.120755 0.290768 0.107949 0 0 255
0.200222 0.290498 0.077949 0 0 255
0.084478 0.322304 0.121950 0 0 255
0.089903 0.368218 0.103950 0 0 255
0.084989 0.338579 0.135949 0 0 255
0.114013 0.297319 0.028959 0 0 255
0.135790 0.367826 0.077949 0 0 255
-0.258061 -0.101605 0.019950 255 0 0
-0.289149 -0.096762 0.083950 255 0 0
-0.248611 -0.113943 0.065950 255 0 0
-0.283542 -0.109867 0.047950 255 0 0
-0.264559 -0.079680 0.061545 255 0 0
-0.277380 -0.123953 0.075950 255 0 0
-0.274130 -0.085892 0.035949 255 0 0
-0.255007 -0.092040 0.084176 255 0 0
-0.283925 -0.106115 0.019950 255 0 0
-0.257425 -0.097650 0.047950 255 0 0
-0.274325 -0.086772 0.011950 255 0 0
-0.284859 -0.091567 0.061949 255 0 0
-0.274120 -0.081656 0.081950 255 0 0
-0.259939 -0.114284 0.083950 255 0 0
-0.266819 -0.111955 0.035949 255 0 0
-0.268268 -0.115731 0.059949 255 0 0
-0.248716 -0.091385 0.064959 255 0 0
-0.285489 -0.109409 0.067950 255 0 0
-0.269292 -0.110272 0.009949 255 0 0
-0.274087 -0.094941 0.049949 255 0 0
-0.285291 -0.099275 0.035949 255 0 0
-0.265242 -0.092005 0.071949 255 0 0
-0.259893 -0.090957 0.031949 255 0 0
-0.286031 -0.111853 0.083950 255 0 0
-0.272359 -0.096387 0.024978 255 0 0
-0.261933 -0.123281 0.071778 255 0 0
-0.254579 -0.080869 0.073950 255 0 0
-0.254675 -0.102356 0.073950 255 0 0
-0.254726 -0.104393 0.033950 255 0 0
-0.279697 -0.096809 0.073950 255 0 0
-0.253500 -0.085239 0.051949 255 0 0
-0.279812 -0.111525 0.031949 255 0 0
-0.262309 -0.092470 0.009949 255 0 0
-0.279083 -0.098994 0.009153 255 0 0
-0.276375 -0.083206 0.055950 255 0 0
-0.253913 -0.102524 0.059949 255 0 0
-0.269099 -0.109401 0.022918 255 0 0
-0.271846 -0.112552 0.071949 255 0 0
-0.264178 -0.087204 0.043950 255 0 0
-0.262824 -0.112841 0.047950 255 0 0
-0.248286 -0.111967 0.079949 255 0 0
-0.263451 -0.093167 0.057950 255 0 0
-0.277996 -0.084852 0.069949 255 0 0
-0.286296 -0.097395 0.049949 255 0 0
-0.279949 -0.102898 0.058941 255 0 0
-0.259722 -0.111480 0.067950 255 0 0
-0.266414 -0.078811 0.073950 255 0 0
-0.263247 -0.084067 0.083950 255 0 0
-0.264423 -0.088309 0.021949 255 0 0
-0.273879 -0.094002 0.062922 255 0 0
-0.267926 -0.122592 0.081950 255 0 0
-0.282273 -0.094905 0.019950 255 0 0
-0.274518 -0.096883 0.037950 255 0 0
-0.280364 -0.114013 0.057950 255 0 0
-0.274351 -0.114612 0.043950 255 0 0
-0.247787 -0.091592 0.075950 255 0 0
-0.280947 -0.088337 0.043950 255 0 0
-0.284662 -0.087196 0.081950 255 0 0
-0.248622 -0.095503 0.053949 255 0 0
-0.257162 -0.120242 0.062952 255 0 0
-0.255024 -0.082878 0.063950 255 0 0
-0.288561 -0.098941 0.067950 255 0 0
-0.277116 -0.117844 0.083950 255 0 0
-0.279894 -0.107008 0.075950 255 0 0
-0.253671 -0.104491 0.083950 255 0 0
-0.278996 -0.089359 0.027949 255 0 0
-0.254733 -0.120780 0.077949 255 0 0
-0.270621 -0.097785 0.013949 255 0 0
-0.264116 -0.096166 0.038946 255 0 0
-0.277489 -0.105493 0.041949 255 0 0
-0.283472 -0.116457 0.075950 255 0 0
-0.273229 -0.109550 0.051949 255 0 0
-0.258094 -0.096723 0.065950 255 0 0
-0.265857 -0.085538 0.053158 255 0 0
-0.275175 -0.109085 0.063950 255 0 0
-0.288728 -0.105050 0.077949 255 0 0
-0.273731 -0.089937 0.077949 255 0 0
-0.261906 -0.108947 0.015950 255 0 0
-0.278968 -0.107715 0.011950 255 0 0
-0.277088 -0.103532 0.027949 255 0 0
-0.264240 -0.115204 0.075950 255 0 0
-0.271697 -0.121117 0.069270 255 0 0
-0.259124 -0.101370 0.011089 255 0 0
-0.283209 -0.089884 0.053447 255 0 0
-0.285367 -0.090376 0.071949 255 0 0
-0.256959 -0.091606 0.041193 255 0 0
-0.263104 -0.096390 0.025950 255 0 0
-0.277267 -0.111687 0.019950 255 0 0
-0.262367 -0.110894 0.027949 255 0 0
-0.271612 -0.083775 0.063950 255 0 0
-0.248495 -0.099629 0.066997 255 0 0
-0.270332 -0.087241 0.027949 255 0 0
-0.265841 -0.094708 0.047950 255 0 0
-0.274043 -0.085500 0.047950 255 0 0
-0.261027 -0.084560 0.069949 255 0 0
-0.276710 -0.088291 0.019950 255 0 0
-0.278998 -0.103110 0.049949 255 0 0
-0.257580 -0.109907 0.075950 255 0 0
-0.278641 -0.115481 0.067950 255 0 0
-0.275839 -0.102845 0.017949 255 0 0
-0.281289 -0.090467 0.035949 255 0 0
-0.248316 -0.098822 0.079949 255 0 0
-0.287345 -0.099211 0.057950 255 0 0
-0.259418 -0.089013 0.077949 255 0 0
-0.284542 -0.097783 0.027949 255 0 0
-0.280135 -0.098761 0.065950 255 0 0
-0.248707 -0.109825 0.058963 255 0 0
-0.266078 -0.086535 0.035949 255 0 0
-0.288846 -0.096829 0.075906 255 0 0
-0.272007 -0.113281 0.029950 255 0 0
-0.259534 -0.093981 0.017949 255 0 0
-0.286028 -0.102600 0.043950 255 0 0
-0.268238 -0.096275 0.031949 255 0 0
-0.286139 -0.107672 0.057950 255 0 0
-0.253848 -0.118928 0.069949 255 0 0
-0.254786 -0.100283 0.040598 255 0 0
-0.256305 -0.097897 0.029435 255 0 0
-0.259562 -0.084864 0.057950 255 0 0
-0.258081 -0.095455 0.073950 255 0 0
-0.258659 -0.091230 0.051949 255 0 0
-0.266795 -0.089770 0.063950 255 0 0
-0.255430 -0.112432 0.061290 255 0 0
-0.268445 -0.115692 0.052116 255 0 0
-0.283167 -0.108330 0.037950 255 0 0
-0.271432 -0.115029 0.079949 255 0 0
-0.274021 -0.108310 0.035949 255 0 0
-0.250021 -0.088030 0.057950 255 0 0
-0.279618 -0.092170 0.011950 255 0 0
-0.266492 -0.116124 0.067690 255 0 0
-0.280258 -0.085814 0.061949 255 0 0
-0.283420 -0.100080 0.079673 255 0 0
-0.255873 -0.095945 0.057373 255 0 0
-0.270574 -0.092686 0.055950 255 0 0
-0.273484 -0.092040 0.069949 255 0 0
-0.284199 -0.106053 0.029950 255 0 0
-0.260653 -0.080545 0.078124 255 0 0
-0.252940 -0.086352 0.079949 255 0 0
-0.268544 -0.088419 0.015950 255 0 0
-0.279737 -0.092703 0.080492 255 0 0
-0.261721 -0.113086 0.054942 255 0 0
-0.250810 -0.086825 0.069949 255 0 0
-0.269352 -0.092061 0.009949 255 0 0
-0.266290 -0.087490 0.078188 255 0 0
-0.285201 -0.095588 0.041949 255 0 0
-0.278420 -0.123723 0.068999 255 0 0
-0.273190 -0.081652 0.073950 255 0 0
-0.278325 -0.114057 0.049949 255 0 0
-0.274928 -0.116304 0.061949 255 0 0
-0.286408 -0.104317 0.051949 255 0 0
-0.269318 -0.110388 0.045949 255 0 0
-0.255147 -0.098154 0.079949 255 0 0
-0.279958 -0.084460 0.077777 255 0 0
-0.277344 -0.095282 0.055950 255 0 0
-0.261366 -0.120722 0.081950 255 0 0
-0.277733 -0.097244 0.043950 255 0 0
-0.256084 -0.106141 0.065857 255 0 0
-0.255651 -0.104188 0.026973 255 0 0
-0.266266 -0.096622 0.019950 255 0 0
-0.274091 -0.104197 0.008918 255 0 0
-0.277646 -0.113652 0.037950 255 0 0
-0.277785 -0.102380 0.035949 255 0 0
-0.279420 -0.105064 0.067950 255 0 0
-0.283301 -0.100107 0.015950 255 0 0
-0.270862 -0.108116 0.015950 255 0 0
-0.266271 -0.124367 0.067002 255 0 0
-0.283411 -0.118520 0.082309 255 0 0
-0.251421 -0.117418 0.059949 255 0 0
-0.277017 -0.117396 0.075950 255 0 0
-0.257855 -0.095646 0.035949 255 0 0
-0.280161 -0.113095 0.080762 255 0 0
-0.250001 -0.115661 0.073950 255 0 0
-0.266502 -0.097685 0.008951 255 0 0
-0.264820 -0.112399 0.041949 255 0 0
-0.272006 -0.085556 0.041949 255 0 0
-0.266854 -0.080794 0.067950 255 0 0
-0.254041 -0.115403 0.081950 255 0 0
-0.269580 -0.083851 0.057950 255 0 0
-0.273687 -0.111613 0.057950 255 0 0
-0.268254 -0.080908 0.079949 255 0 0
-0.281247 -0.108756 0.025211 255 0 0
-0.285809 -0.110849 0.073950 255 0 0
-0.275758 -0.097682 0.031949 255 0 0
-0.247847 -0.096701 0.059949 255 0 0
-0.288304 -0.103622 0.071949 255 0 0
-0.274839 -0.112225 0.011950 255 0 0
-0.282222 -0.112638 0.063950 255 0 0
-0.249620 -0.104699 0.063950 255 0 0
-0.286847 -0.091127 0.077949 255 0 0
-0.260308 -0.090864 0.025950 255 0 0
-0.270186 -0.095825 0.043950 255 0 0
-0.260807 -0.084609 0.063950 255 0 0
-0.270358 -0.087357 0.021949 255 0 0
-0.262365 -0.097509 0.031949 255 0 0
-0.280070 -0.112688 0.043950 255 0 0
-0.274780 -0.107308 0.023949 255 0 0
-0.287658 -0.103238 0.063950 255 0 0
-0.242584 0.222733 0.143053 0 255 255
-0.259953 0.255264 0.029128 0 255 255
-0.274469 0.217510 0.083466 0 255 255
-0.227847 0.252243 0.077859 0 255 255
-0.275679 0.260798 0.119950 0 255 255
-0.239513 0.213858 0.047950 0 255 255
-0.280818 0.266035 0.071949 0 255 255
-0.276828 0.243834 0.159950 0 255 255
-0.289919 0.233227 0.047950 0 255 255
-0.235233 0.253880 0.117949 0 255 255
-0.277509 0.222282 0.125658 0 255 255
-0.242817 0.258637 0.155949 0 255 255
-0.245109 0.220581 0.105949 0 255 255
-0.247729 0.273444 0.057950 0 255 255
-0.259079 0.249973 0.091950 0 255 255
-0.270480 0.207784 0.051949 0 255 255
-0.225894 0.251810 0.047019 0 255 255
-0.232820 0.220569 0.077159 0 255 255
-0.266285 0.217467 0.157950 0 255 255
-0.268400 0.226407 0.031015 0 255 255
-0.289525 0.239285 0.075950 0 255 255
-0.280775 0.239394 0.103950 0 255 255
-0.225673 0.243566 0.140918 0 255 255
-0.281460 0.259904 0.045949 0 255 255
-0.266465 0.262853 0.145436 0 255 255
-0.254572 0.205617 0.071949 0 255 255
-0.283016 0.243642 0.135949 0 255 255
-0.256645 0.270190 0.079949 0 255 255
-0.255762 0.213364 0.125949 0 255 255
-0.253652 0.228245 0.085950 0 255 255
-0.253296 0.266812 0.123949 0 255 255
-0.268111 0.218470 0.105949 0 255 255
-0.237600 0.235968 0.160081 0 255 255
-0.237389 0.246164 0.096842 0 255 255
-0.285328 0.217869 0.063950 0 255 255
-0.262916 0.269624 0.043950 0 255 255
-0.241736 0.263516 0.041235 0 255 255
-0.267753 0.229325 0.141950 0 255 255
-0.236311 0.260265 0.137256 0 255 255
-0.237269 0.223603 0.123949 0 255 255
-0.248460 0.260910 0.104264 0 255 255
-0.278167 0.251108 0.087949 0 255 255
-0.279037 0.243106 0.035104 0 255 255
-0.231412 0.263880 0.061949 0 255 255
-0.290913 0.249836 0.059949 0 255 255
-0.256674 0.214615 0.039950 0 255 255
-0.266122 0.273640 0.061949 0 255 255
-0.221768 0.242701 0.062994 0 255 255
-0.242519 0.259989 0.085950 0 255 255
-0.264053 0.209055 0.141700 0 255 255
-0.247354 0.219694 0.160387 0 255 255
-0.271568 0.235305 0.081950 0 255 255
-0.268707 0.259252 0.103950 0 255 255
-0.231338 0.236495 0.083950 0 255 255
-0.274604 0.240074 0.119950 0 255 255
-0.251925 0.254518 0.141950 0 255 255
-0.266445 0.216747 0.065950 0 255 255
-0.280104 0.219817 0.043950 0 255 255
-0.265811 0.256562 0.076964 0 255 255
-0.252337 0.206459 0.055528 0 255 255
-0.267667 0.252876 0.131950 0 255 255
-0.238982 0.211259 0.063950 0 255 255
-0.242390 0.269807 0.072767 0 255 255
-0.278719 0.249181 0.069949 0 255 255
-0.265371 0.230831 0.095950 0 255 255
-0.283724 0.235951 0.061949 0 255 255
-0.258302 0.258995 0.157950 0 255 255
-0.248653 0.213836 0.083770 0 255 255
-0.270977 0.247465 0.145949 0 255 255
-0.280104 0.233100 0.149950 0 255 255
-0.231714 0.249003 0.153949 0 255 255
-0.232294 0.230695 0.135949 0 255 255
-0.274202 0.260470 0.059949 0 255 255
-0.259725 0.256296 0.115949 0 255 255
-0.278563 0.226767 0.111950 0 255 255
-0.275676 0.225972 0.071949 0 255 255
-0.263983 0.223380 0.119950 0 255 255
-0.287993 0.247140 0.045949 0 255 255
-0.255598 0.219473 0.148890 0 255 255
-0.245626 0.255207 0.127949 0 255 255
-0.272200 0.255466 0.035949 0 255 255
-0.239765 0.226205 0.088016 0 255 255
-0.233930 0.247445 0.129950 0 255 255
-0.255604 0.265646 0.065950 0 255 255
-0.279082 0.252145 0.109950 0 255 255
-0.256616 0.214878 0.111950 0 255 255
-0.228964 0.234054 0.149950 0 255 255
-0.258104 0.222076 0.135949 0 255 255
-0.247358 0.247400 0.085950 0 255 255
-0.263196 0.222161 0.077949 0 255 255
-0.280517 0.227190 0.137950 0 255 255
-0.269311 0.271678 0.075950 0 255 255
-0.271373 0.255747 0.157950 0 255 255
-0.257428 0.220455 0.097949 0 255 255
-0.270362 0.245279 0.096933 0 255 255
-0.283342 0.229720 0.083950 0 255 255
-0.268401 0.232554 0.155949 0 255 255
-0.282148 0.249941 0.123949 0 255 255
-0.275026 0.219682 0.055950 0 255 255
-0.263868 0.265329 0.131950 0 255 255
-0.262561 0.261987 0.088343 0 255 255
-0.266005 0.209488 0.077021 0 255 255
-0.228483 0.221655 0.065005 0 255 255
-0.277190 0.257036 0.139950 0 255 255
-0.235857 0.223290 0.153949 0 255 255
-0.288792 0.226831 0.072731 0 255 255
-0.274709 0.262632 0.083577 0 255 255
-0.268687 0.215875 0.131950 0 255 255
-0.248423 0.264999 0.135949 0 255 255
-0.245445 0.217222 0.131950 0 255 255
-0.238907 0.257796 0.071949 0 255 255
-0.251714 0.264712 0.049949 0 255 255
-0.283644 0.233884 0.125949 0 255 255
-0.253885 0.264161 0.037460 0 255 255
-0.224079 0.237067 0.073950 0 255 255
-0.279682 0.230957 0.037217 0 255 255
-0.233221 0.261629 0.049949 0 255 255
-0.262807 0.205430 0.061949 0 255 255
-0.286404 0.261128 0.061949 0 255 255
-0.267983 0.219046 0.041949 0 255 255
-0.250845 0.259390 0.076959 0 255 255
-0.244096 0.262111 0.115949 0 255 255
-0.277547 0.212868 0.071949 0 255 255
-0.273411 0.268490 0.050103 0 255 255
-0.245834 0.217308 0.117694 0 255 255
-0.240641 0.249975 0.141950 0 255 255
-0.247218 0.215566 0.071949 0 255 255
-0.284342 0.256142 0.077949 0 255 255
-0.225322 0.254390 0.065950 0 255 255
-0.290366 0.227180 0.057950 0 255 255
-0.273289 0.222836 0.149950 0 255 255
-0.234210 0.247508 0.107949 0 255 255
-0.228397 0.254413 0.143949 0 255 255
-0.268184 0.227383 0.129950 0 255 255
-0.267977 0.246800 0.085042 0 255 255
-0.258001 0.254831 0.102949 0 255 255
-0.265497 0.221021 0.089949 0 255 255
-0.275894 0.229562 0.099949 0 255 255
-0.278711 0.238936 0.089949 0 255 255
-0.271231 0.250601 0.117949 0 255 255
-0.261031 0.213443 0.053949 0 255 255
-0.251229 0.257655 0.093950 0 255 255
-0.233471 0.247343 0.085950 0 255 255
-0.257874 0.273886 0.053949 0 255 255
-0.273834 0.238856 0.139950 0 255 255
-0.274101 0.209933 0.061949 0 255 255
-0.241499 0.264583 0.057950 0 255 255
-0.263842 0.265449 0.119950 0 255 255
-0.265065 0.264591 0.055950 0 255 255
-0.292613 0.239970 0.055950 0 255 255
-0.281334 0.243615 0.147950 0 255 255
-0.255385 0.257394 0.131950 0 255 255
-0.273726 0.243977 0.129950 0 255 255
-0.278947 0.238989 0.073950 0 255 255
-0.253962 0.212964 0.063950 0 255 255
-0.282251 0.252012 0.053949 0 255 255
-0.266465 0.262853 0.066971 0 255 255
-0.252213 0.262457 0.149950 0 255 255
-0.281596 0.227285 0.051949 0 255 255
-0.257575 0.211716 0.155949 0 255 255
-0.248009 0.225984 0.094711 0 255 255
-0.249359 0.209895 0.045949 0 255 255
-0.290159 0.249668 0.071949 0 255 255
-0.242908 0.253533 0.109950 0 255 255
-0.282524 0.236622 0.113950 0 255 255
-0.255716 0.265137 0.111950 0 255 255
-0.239986 0.225204 0.113950 0 255 255
-0.260440 0.253323 0.147950 0 255 255
-0.232410 0.220477 0.141950 0 255 255
-0.274428 0.226938 0.089949 0 255 255
-0.268035 0.255006 0.093950 0 255 255
-0.264513 0.262420 0.036055 0 255 255
-0.268994 0.228588 0.107949 0 255 255
-0.236384 0.259936 0.147950 0 255 255
-0.259964 0.273703 0.070731 0 255 255
-0.259117 0.212837 0.083950 0 255 255
-0.252186 0.214619 0.139950 0 255 255
-0.271660 0.230184 0.119950 0 255 255
-0.285564 0.246601 0.081950 0 255 255
-0.275804 0.258777 0.129950 0 255 255
-0.245288 0.252012 0.099949 0 255 255
-0.281212 0.251782 0.039934 0 255 255
-0.234232 0.241921 0.145949 0 255 255
-0.239420 0.246614 0.159950 0 255 255
-0.257831 0.264842 0.139950 0 255 255
-0.292178 0.241922 0.065950 0 255 255
-0.271237 0.259814 0.044902 0 255 255
-0.267609 0.246718 0.155949 0 255 255
-0.263629 0.229447 0.085002 0 255 255
-0.226798 0.256972 0.055950 0 255 255
-0.244761 0.222152 0.079949 0 255 255
-0.227183 0.227513 0.072844 0 255 255
-0.270505 0.249409 0.105949 0 255 255
-0.284569 0.218156 0.053949 0 255 255
-0.275066 0.270258 0.059949 0 255 255
-0.282111 0.220004 0.077949 0 255 255
-0.271979 0.219502 0.115949 0 255 255
-0.273827 0.220407 0.139950 0 255 255
-0.266100 0.217703 0.145949 0 255 255
-0.256482 0.252446 0.082960 0 255 255
-0.239987 0.225204 0.133949 0 255 255
-0.236947 0.229677 0.146443 0 255 255
-0.280780 0.226011 0.061949 0 255 255
-0.258868 0.223201 0.107949 0 255 255
-0.238991 0.252665 0.079949 0 255 255
-0.273835 0.257335 0.069949 0 255 255
-0.250421 0.257247 0.031949 0 255 255
-0.258652 0.214932 0.071949 0 255 255
-0.277527 0.253014 0.149950 0 255 255
-0.251698 0.264784 0.085950 0 255 255
-0.230020 0.260919 0.071061 0 255 255
-0.263059 0.213538 0.119950 0 255 255
-0.257475 0.220245 0.159950 0 255 255
-0.259502 0.220338 0.033038 0 255 255
-0.282722 0.235729 0.141325 0 255 255
-0.242488 0.269366 0.049949 0 255 255
-0.243605 0.218125 0.151949 0 255 255
-0.239533 0.240493 0.087949 0 255 255
-0.275133 0.242240 0.110869 0 255 255
-0.263398 0.208910 0.045949 0 255 255
-0.243494 0.209383 0.055950 0 255 255
-0.237398 0.264603 0.078675 0 255 255
-0.251048 0.221512 0.125949 0 255 255
-0.273181 0.251044 0.077949 0 255 255
-0.274912 0.233997 0.128960 0 255 255
-0.253644 0.219039 0.089535 0 255 255
-0.235099 0.214927 0.055950 0 255 255
-0.262690 0.224446 0.151949 0 255 255
-0.245855 0.263418 0.065950 0 255 255
-0.286194 0.238547 0.041477 0 255 255
-0.270753 0.239220 0.149950 0 255 255
-0.251491 0.256476 0.111950 0 255 255
-0.253430 0.220008 0.077949 0 255 255
-0.238365 0.214035 0.073950 0 255 255
-0.251720 0.273924 0.066308 0 255 255
-0.268833 0.238795 0.089949 0 255 255
-0.282510 0.245924 0.115669 0 255 255
-0.245101 0.262214 0.143949 0 255 255
-0.246914 0.207304 0.065950 0 255 255
-0.242702 0.228905 0.155949 0 255 255
-0.264075 0.255160 0.123949 0 255 255
-0.230444 0.240527 0.156890 0 255 255
-0.240438 0.250892 0.151949 0 255 255
-0.281334 0.264101 0.053949 0 255 255
-0.272738 0.225321 0.159162 0 255 255
-0.253230 0.257870 0.122908 0 255 255
-0.276864 0.234430 0.158334 0 255 255
-0.274146 0.213341 0.045949 0 255 255
-0.283953 0.244196 0.057950 0 255 255
-0.291831 0.231602 0.065811 0 255 255
-0.240785 0.226431 0.099949 0 255 255
-0.266551 0.262471 0.111950 0 255 255
-0.240345 0.251308 0.089949 0 255 255
-0.233843 0.228989 0.079949 0 255 255
-0.226848 0.238268 0.133949 0 255 255
-0.281162 0.252009 0.133949 0 255 255
-0.274921 0.252436 0.098958 0 255 255
-0.240139 0.270721 0.063950 0 255 255
-0.259071 0.213045 0.133949 0 255 255
-0.237293 0.256385 0.125949 0 255 255
-0.224990 0.246643 0.069949 0 255 255
-0.258423 0.262168 0.073950 0 255 255
-0.270352 0.226841 0.078973 0 255 255
-0.264502 0.253229 0.139950 0 255 255
-0.261256 0.221673 0.127949 0 255 255
-0.227625 0.243999 0.080317 0 255 255
-0.250617 0.223460 0.139950 0 255 255
-0.273152 0.237704 0.099949 0 255 255
-0.281635 0.231390 0.068987 0 255 255
-0.284709 0.238217 0.083950 0 255 255
-0.244315 0.214923 0.041000 0 255 255
-0.279804 0.253518 0.061949 0 255 255
-0.251066 0.221429 0.111950 0 255 255
-0.268738 0.206401 0.067950 0 255 255
-0.275124 0.223801 0.037451 0 255 255
-0.270692 0.262273 0.135949 0 255 255
-0.284939 0.240317 0.049949 0 255 255
-0.259665 0.259296 0.095950 0 255 255
-0.266253 0.273049 0.053228 0 255 255
-0.245810 0.263623 0.127949 0 255 255
-0.265167 0.268711 0.082640 0 255 255
-0.260378 0.225627 0.143949 0 255 255
-0.280862 0.249656 0.141950 0 255 255
-0.272862 0.270962 0.067950 0 255 255
-0.253215 0.267179 0.057950 0 255 255
-0.232594 0.249309 0.137950 0 255 255
-0.273766 0.258326 0.111950 0 255 255
-0.270405 0.217364 0.123949 0 255 255
-0.269318 0.263485 0.125949 0 255 255
-0.272530 0.249857 0.137950 0 255 255
-0.277574 0.212053 0.053949 0 255 255
-0.287702 0.257318 0.069949 0 255 255
-0.267109 0.222988 0.097949 0 255 255
-0.284317 0.242228 0.125949 0 255 255
-0.240203 0.251951 0.133949 0 255 255
-0.266457 0.253652 0.111950 0 255 255
-0.243681 0.254741 0.119950 0 255 255
-0.273977 0.233789 0.111950 0 255 255
-0.273828 0.220401 0.065950 0 255 255
-0.245208 0.266335 0.080638 0 255 255
-0.265379 0.258514 0.153025 0 255 255
-0.254683 0.269797 0.043950 0 255 255
-0.280884 0.227126 0.119950 0 255 255
-0.255622 0.265560 0.131950 0 255 255
-0.269699 0.220550 0.072991 0 255 255
-0.259437 0.211393 0.147950 0 255 255
-0.257101 0.262825 0.103950 0 255 255
-0.227897 0.235865 0.141950 0 255 255
-0.235794 0.258102 0.041949 0 255 255
-0.254732 0.204894 0.063950 0 255 255
-0.250060 0.272172 0.073950 0 255 255
-0.266976 0.214349 0.083950 0 255 255
-0.235225 0.255927 0.155894 0 255 255
-0.284819 0.226267 0.043950 0 255 255
-0.268850 0.215136 0.057950 0 255 255
-0.252605 0.218809 0.103950 0 255 255
-0.272468 0.231406 0.135949 0 255 255
-0.266659 0.215779 0.048949 0 255 255
-0.232805 0.230808 0.155949 0 255 255
-0.227093 0.241833 0.149950 0 255 255
-0.233811 0.216097 0.067950 0 255 255
-0.232726 0.257955 0.079949 0 255 255
-0.259943 0.263455 0.149950 0 255 255
-0.288401 0.256309 0.055950 0 255 255
-0.258012 0.227063 0.093950 0 255 255
-0.264934 0.251279 0.099949 0 255 255
-0.279590 0.247325 0.103950 0 255 255
-0.278595 0.226619 0.145838 0 255 255
-0.283193 0.233602 0.133949 0 255 255
-0.274207 0.260472 0.051949 0 255 255
-0.246963 0.256481 0.149950 0 255 255
-0.237973 0.252767 0.103950 0 255 255
-0.281013 0.266078 0.063950 0 255 255
-0.259494 0.266581 0.049949 0 255 255
-0.235338 0.237515 0.151949 0 255 255
-0.272073 0.251805 0.125949 0 255 255
-0.255408 0.220325 0.119950 0 255 255
-0.260368 0.216433 0.105080 0 255 255
-0.282455 0.241815 0.067950 0 255 255
-0.245618 0.255248 0.137950 0 255 255
-0.253701 0.209543 0.079949 0 255 255
-0.235640 0.266262 0.067950 0 255 255
-0.284215 0.234011 0.053949 0 255 255
-0.250825 0.250241 0.091950 0 255 255
-0.276323 0.232261 0.075950 0 255 255
-0.250106 0.212109 0.155949 0 255 255
-0.274169 0.242026 0.079949 0 255 255
-0.250099 0.271997 0.049949 0 255 255
-0.273399 0.259303 0.145949 0 255 255
-0.248020 0.253650 0.081950 0 255 255
-0.257721 0.274576 0.061949 0 255 255
-0.281111 0.227177 0.129950 0 255 255
-0.232220 0.241755 0.137950 0 255 255
-0.264578 0.215926 0.111950 0 255 255
-0.246861 0.268120 0.043950 0 255 255
-0.240216 0.233408 0.085950 0 255 255
-0.245275 0.221282 0.087949 0 255 255
-0.279454 0.231985 0.105949 0 255 255
-0.272450 0.212965 0.077949 0 255 255
-0.274993 0.224389 0.105949 0 255 255
-0.280991 0.243539 0.042942 0 255 255
-0.261024 0.213474 0.061949 0 255 255
-0.273827 0.220409 0.047950 0 255 255
-0.237457 0.218137 0.147950 0 255 255
-0.279356 0.223189 0.083950 0 255 255
-0.264096 0.213162 0.039950 0 255 255
-0.259984 0.218167 0.141950 0 255 255
-0.280088 0.253582 0.117949 0 255 255
-0.267180 0.213428 0.151949 0 255 255
-0.287517 0.232580 0.077949 0 255 255
-0.277078 0.242709 0.095950 0 255 255
-0.260580 0.206238 0.054615 0 255 255
-0.274663 0.233941 0.093950 0 255 255
-0.243531 0.222943 0.127949 0 255 255
-0.239261 0.217899 0.081950 0 255 255
-0.266458 0.253648 0.031949 0 255 255
-0.250845 0.259390 0.156349 0 255 255
-0.247524 0.260702 0.037950 0 255 255
-0.263042 0.213613 0.127949 0 255 255
-0.269894 0.259516 0.087949 0 255 255
-0.255193 0.212053 0.049949 0 255 255
-0.245054 0.211590 0.077949 0 255 255
-0.260381 0.262580 0.041949 0 255 255
-0.246929 0.230852 0.085950 0 255 255
-0.286206 0.254938 0.047950 0 255 255
-0.289276 0.224649 0.065950 0 255 255
-0.266234 0.263894 0.047950 0 255 255
-0.264719 0.224529 0.111950 0 255 255
-0.269836 0.266130 0.041949 0 255 255
-0.229487 0.258752 0.135949 0 255 255
-0.237821 0.244211 0.153454 0 255 255
-0.234553 0.258955 0.065950 0 255 255
-0.249030 0.220065 0.145949 0 255 255
-0.272455 0.249841 0.091950 0 255 255
-0.252465 0.215125 0.131950 0 255 255
-0.239984 0.262176 0.047950 0 255 255
-0.262717 0.205839 0.071949 0 255 255
-0.277091 0.222188 0.133949 0 255 255
-0.248344 0.215228 0.123949 0 255 255
-0.264728 0.224490 0.135949 0 255 255
-0.234971 0.266310 0.055950 0 255 255
-0.258637 0.224243 0.083039 0 255 255
-0.241829 0.224615 0.149950 0 255 255
-0.290753 0.245703 0.052239 0 255 255
-0.274999 0.266794 0.077949 0 255 255
-0.278407 0.247064 0.153949 0 255 255
-0.264804 0.214907 0.137950 0 255 255
-0.231532 0.254101 0.069949 0 255 255
-0.276392 0.228179 0.153949 0 255 255
-0.281420 0.232358 0.043950 0 255 255
-0.235854 0.253091 0.145949 0 255 255
-0.280321 0.261828 0.077949 0 255 255
-0.279490 0.239109 0.153949 0 255 255
-0.240965 0.220794 0.157950 0 255 255
-0.271660 0.239421 0.156813 0 255 255
-0.281645 0.249830 0.046939 0 255 255
-0.262341 0.226017 0.101950 0 255 255
-0.273613 0.230612 0.033950 0 255 255
-0.235003 0.247684 0.114935 0 255 255
-0.242328 0.260847 0.133949 0 255 255
-0.267746 0.220117 0.035148 0 255 255
-0.276175 0.256019 0.041949 0 255 255
-0.263484 0.251950 0.153949 0 255 255
-0.252114 0.214603 0.117949 0 255 255
-0.251499 0.265681 0.117300 0 255 255
-0.275566 0.249523 0.035949 0 255 255
-0.257136 0.258735 0.034909 0 255 255
-0.269054 0.232698 0.148982 0 255 255
-0.249086 0.211883 0.052950 0 255 255
-0.257136 0.258735 0.145514 0 255 255
-0.261904 0.264947 0.061949 0 255 255
-0.228713 0.248338 0.146929 0 255 255
-0.274267 0.246145 0.122943 0 255 255
-0.232695 0.224638 0.147950 0 255 255
-0.287768 0.224555 0.051949 0 255 255
-0.234383 0.250481 0.123949 0 255 255
-0.251892 0.254663 0.099949 0 255 255
-0.281350 0.214196 0.059949 0 255 255
-0.277629 0.236648 0.033950 0 255 255
-0.282759 0.217079 0.071949 0 255 255
-0.251352 0.218530 0.153949 0 255 255
-0.283145 0.248114 0.063950 0 255 255
-0.244314 0.261128 0.073950 0 255 255
-0.226760 0.247905 0.135074 0 255 255
-0.273572 0.249281 0.157950 0 255 255
-0.264725 0.252224 0.082991 0 255 255
-0.259598 0.266112 0.125949 0 255 255
-0.240894 0.216212 0.067950 0 255 255
-0.257771 0.255870 0.137950 0 255 255
-0.261676 0.256740 0.129950 0 255 255
-0.259521 0.257216 0.078963 0 255 255
-0.279020 0.257442 0.055950 0 255 255
-0.273857 0.244006 0.103950 0 255 255
-0.280346 0.255687 0.083188 0 255 255
-0.237277 0.225654 0.139950 0 255 255
-0.274469 0.217510 0.040897 0 255 255
-0.241353 0.209802 0.069949 0 255 255
-0.237224 0.256147 0.085950 0 255 255
-0.251932 0.263728 0.071009 0 255 255
-0.239765 0.226205 0.081027 0 255 255
-0.274173 0.255806 0.105949 0 255 255
-0.292411 0.233779 0.057950 0 255 255
-0.278393 0.255255 0.124026 0 255 255
-0.229856 0.256785 0.061949 0 255 255
-0.265590 0.248319 0.090893 0 255 255
-0.232387 0.222521 0.070981 0 255 255
-0.281784 0.241666 0.109950 0 255 255
-0.256344 0.211444 0.057950 0 255 255
-0.248873 0.212840 0.059949 0 255 255
-0.289475 0.255663 0.063950 0 255 255
-0.269487 0.230746 0.100939 0 255 255
-0.291021 0.233471 0.071949 0 255 255
-0.237591 0.217529 0.042991 0 255 255
-0.233050 0.247251 0.079004 0 255 255
-0.241069 0.248043 0.083950 0 255 255
-0.234930 0.225133 0.129950 0 255 255
-0.239992 0.220109 0.075950 0 255 255
-0.266293 0.272871 0.069949 0 255 255
-0.239053 0.257135 0.113950 0 255 255
-0.283713 0.240046 0.119950 0 255 255
-0.242954 0.257641 0.103950 0 255 255
-0.251763 0.264493 0.141950 0 255 255
-0.245839 0.254249 0.091950 0 255 255
-0.244019 0.259925 0.109950 0 255 255
-0.271538 0.221493 0.087949 0 255 255
-0.248887 0.222082 0.099949 0 255 255
-0.270804 0.261766 0.037420 0 255 255
-0.244377 0.219034 0.137950 0 255 255
-0.268632 0.225362 0.123949 0 255 255
-0.233573 0.233027 0.141950 0 255 255
-0.249972 0.263329 0.109950 0 255 255
-0.259313 0.221194 0.113950 0 255 255
-0.268605 0.207000 0.057950 0 255 255
-0.279673 0.233004 0.087949 0 255 255
-0.279572 0.212973 0.065950 0 255 255
-0.242213 0.261365 0.121950 0 255 255
-0.278595 0.226619 0.042863 0 255 255
-0.242262 0.251902 0.157950 0 255 255
-0.257312 0.257940 0.109950 0 255 255
-0.249973 0.254082 0.105949 0 255 255
-0.266007 0.255681 0.117949 0 255 255
-0.273544 0.235743 0.105949 0 255 255
-0.253004 0.221929 0.131950 0 255 255
-0.247371 0.265822 0.055950 0 255 255
-0.249540 0.256034 0.117949 0 255 255
-0.283571 0.246160 0.051949 0 255 255
-0.264502 0.253229 0.105949 0 255 255
-0.252364 0.261775 0.099370 0 255 255
-0.224585 0.248474 0.063950 0 255 255
-0.276602 0.263337 0.043950 0 255 255
-0.245696 0.273377 0.067950 0 255 255
-0.275989 0.234236 0.121950 0 255 255
-0.269266 0.222503 0.154731 0 255 255
-0.225737 0.252517 0.071949 0 255 255
-0.240197 0.224252 0.107151 0 255 255
-0.242390 0.220641 0.121950 0 255 255
-0.233906 0.252629 0.075950 0 255 255
-0.256773 0.260370 0.089949 0 255 255
-0.250827 0.222512 0.083013 0 255 255
-0.262504 0.271481 0.075950 0 255 255
-0.242146 0.270905 0.055950 0 255 255
-0.257356 0.257745 0.151949 0 255 255
-0.233475 0.217615 0.061949 0 255 255
-0.277234 0.246803 0.075950 0 255 255
-0.247772 0.208571 0.071949 0 255 255
-0.258152 0.211845 0.139950 0 255 255
-0.250605 0.214269 0.041096 0 255 255
-0.232406 0.259399 0.056962 0 255 255
-0.243128 0.220274 0.111950 0 255 255
-0.231067 0.256195 0.047950 0 255 255
-0.272484 0.249847 0.111950 0 255 255
-0.264059 0.218269 0.071949 0 255 255
-0.275086 0.238132 0.133949 0 255 255
-0.232446 0.259218 0.141950 0 255 255
-0.270152 0.227743 0.113950 0 255 255
-0.257630 0.265745 0.117949 0 255 255
-0.268418 0.263286 0.060955 0 255 255
-0.271993 0.210200 0.071949 0 255 255
-0.287856 0.221813 0.059949 0 255 255
-0.273388 0.219320 0.129950 0 255 255
-0.271427 0.258954 0.151949 0 255 255
-0.263987 0.264794 0.139950 0 255 255
-0.275785 0.239294 0.125949 0 255 255
-0.259935 0.218385 0.089832 0 255 255
-0.252787 0.213666 0.069949 0 255 255
-0.268313 0.259165 0.071949 0 255 255
-0.258829 0.218140 0.153949 0 255 255
-0.263210 0.262132 0.103950 0 255 255
-0.284228 0.262693 0.067950 0 255 255
-0.236593 0.254182 0.139950 0 255 255
-0.282535 0.241832 0.141950 0 255 255
-0.245896 0.253989 0.143949 0 255 255
-0.259964 0.209015 0.077949 0 255 255
-0.247801 0.263881 0.121950 0 255 255
-0.278605 0.245058 0.089743 0 255 255
-0.234913 0.229605 0.085950 0 255 255
-0.278171 0.256252 0.049949 0 255 255
-0.284886 0.225965 0.079378 0 255 255
-0.257789 0.265026 0.085703 0 255 255
-0.238787 0.262862 0.063950 0 255 255
-0.259274 0.258331 0.121950 0 255 255
-0.260801 0.214481 0.044894 0 255 255
-0.290973 0.239606 0.049949 0 255 255
-0.248189 0.206686 0.059949 0 255 255
-0.278816 0.234863 0.100023 0 255 255
-0.264963 0.232668 0.089949 0 255 255
-0.250633 0.269586 0.079838 0 255 255
-0.291575 0.247934 0.065950 0 255 255
-0.266587 0.248540 0.149950 0 255 255
-0.243237 0.256744 0.077949 0 255 255
-0.235151 0.241571 0.083950 0 255 255
-0.283090 0.233761 0.119950 0 255 255
-0.240799 0.258502 0.141950 0 255 255
-0.256246 0.253511 0.095950 0 255 255
-0.272753 0.234494 0.143949 0 255 255
-0.235901 0.241736 0.159950 0 255 255
-0.291186 0.243751 0.072239 0 255 255
-0.237079 0.247563 0.147950 0 255 255
-0.273779 0.243989 0.135949 0 255 255
-0.245669 0.213174 0.065950 0 255 255
-0.284339 0.221747 0.047950 0 255 255
-0.270804 0.261766 0.116073 0 255 255
-0.272398 0.226855 0.095950 0 255 255
-0.265379 0.258514 0.097967 0 255 255
-0.231544 0.254044 0.149950 0 255 255
-0.236154 0.245890 0.141950 0 255 255
-0.241082 0.257225 0.150405 0 255 255
-0.257496 0.273156 0.047950 0 255 255
-0.288704 0.251395 0.051949 0 255 255
-0.238040 0.261707 0.053949 0 255 255
-0.266447 0.225974 0.147690 0 255 255
-0.283076 0.229662 0.057950 0 255 255
-0.264029 0.218400 0.099949 0 255 255
-0.246478 0.256373 0.159950 0 255 255
-0.274247 0.255474 0.087949 0 255 255
-0.238899 0.230110 0.160248 0 255 255
0.172894 0.544432 0.037082 255 0 255
0.231241 0.558129 0.040809 255 0 255
0.196520 0.577078 0.039950 255 0 255
0.159190 0.578199 0.039950 255 0 255
0.205301 0.529054 0.037950 255 0 255
0.205646 0.553560 0.043035 255 0 255
0.177656 0.565911 0.042210 255 0 255
0.156295 0.556307 0.041949 255 0 255
0.156992 0.533618 0.041949 255 0 255
0.185720 0.528361 0.037950 255 0 255
0.219758 0.543294 0.037950 255 0 255
0.190812 0.546606 0.035949 255 0 255
0.210069 0.568968 0.039950 255 0 255
0.193277 0.562448 0.037037 255 0 255
0.165507 0.566556 0.034966 255 0 255
0.171623 0.529458 0.037950 255 0 255
0.200044 0.540462 0.043950 255 0 255
0.217954 0.556977 0.037950 255 0 255
0.180916 0.552897 0.043018 255 0 255
0.172245 0.578466 0.039950 255 0 255
0.184158 0.576760 0.042842 255 0 255
0.159925 0.545259 0.037950 255 0 255
0.169201 0.555494 0.042901 255 0 255
0.184176 0.539883 0.043288 255 0 255
0.231101 0.543819 0.037950 255 0 255
0.208906 0.540546 0.036961 255 0 255
0.193498 0.554205 0.044147 255 0 255
0.193507 0.535765 0.037024 255 0 255
0.155744 0.568720 0.043094 255 0 255
0.167258 0.537488 0.042623 255 0 255
0.199356 0.552906 0.034988 255 0 255
0.186765 0.570037 0.035084 255 0 255
0.200433 0.567007 0.042616 255 0 255
0.223403 0.550496 0.043950 255 0 255
0.163343 0.556792 0.035085 255 0 255
0.179166 0.535760 0.035949 255 0 255
0.220583 0.565496 0.041949 255 0 255
0.174405 0.560486 0.034966 255 0 255
0.190670 0.569171 0.043779 255 0 255
0.167460 0.566123 0.044138 255 0 255
0.183734 0.556369 0.034961 255 0 255
0.181570 0.546606 0.034991 255 0 255
0.205424 0.561803 0.037092 255 0 255
0.212591 0.547923 0.043793 255 0 255
0.186553 0.559842 0.043150 255 0 255
0.162631 0.530319 0.035949 255 0 255
0.196960 0.569825 0.035032 255 0 255
0.211282 0.560505 0.043088 255 0 255
0.175501 0.537710 0.043198 255 0 255
0.167037 0.545732 0.042707 255 0 255
0.198932 0.532515 0.042374 255 0 255
0.173189 0.568950 0.035949 255 0 255
0.204117 0.574384 0.040813 255 0 255
0.199577 0.544663 0.037079 255 0 255
0.211503 0.552262 0.037029 255 0 255
0.174626 0.552243 0.037266 255 0 255
0.226038 0.553136 0.036979 255 0 255
0.169210 0.537055 0.034987 255 0 255
0.166912 0.549856 0.035949 255 0 255
0.165286 0.574799 0.043536 255 0 255
0.187861 0.547260 0.043101 255 0 255
0.192420 0.540104 0.043207 255 0 255
0.198812 0.559695 0.043950 255 0 255
0.198499 0.530562 0.034978 255 0 255
0.222998 0.557908 0.043632 255 0 255
0.162256 0.561131 0.042883 255 0 255
0.198490 0.549001 0.042910 255 0 255
0.161246 0.538091 0.037950 255 0 255
0.177435 0.574154 0.043788 255 0 255
0.185902 0.538422 0.035949 255 0 255
0.162477 0.552888 0.043563 255 0 255
0.175712 0.547905 0.043570 255 0 255
0.205867 0.545317 0.043867 255 0 255
0.175924 0.558101 0.043090 255 0 255
0.202183 0.537940 0.037011 255 0 255
0.191545 0.554638 0.037240 255 0 255
0.156328 0.543633 0.043950 255 0 255
0.206300 0.547269 0.037080 255 0 255
0.178616 0.528824 0.037950 255 0 255
0.185258 0.563241 0.035949 255 0 255
0.161725 0.571491 0.037950 255 0 255
0.186784 0.533159 0.042621 255 0 255
0.190016 0.575462 0.039028 255 0 255
0.180266 0.568445 0.035949 255 0 255
0.165719 0.576751 0.037001 255 0 255
0.219315 0.550530 0.037030 255 0 255
0.205858 0.563756 0.044380 255 0 255
0.183946 0.566565 0.043372 255 0 255
0.196625 0.571948 0.043950 255 0 255
0.215842 0.553348 0.043067 255 0 255
0.163424 0.532192 0.041949 255 0 255
0.170711 0.571548 0.043762 255 0 255
0.192012 0.529023 0.037950 255 0 255
0.187207 0.553551 0.042990 255 0 255
0.198701 0.559197 0.037002 255 0 255
0.210850 0.558552 0.037053 255 0 255
0.162035 0.569374 0.043804 255 0 255
0.202818 0.568527 0.037083 255 0 255
0.193277 0.562448 0.043460 255 0 255
0.207608 0.534688 0.038895 255 0 255
-0.193918 -0.083048 0.073950 0 0 255
-0.159984 -0.106960 0.242485 0 0 255
-0.194886 -0.107417 0.159950 0 0 255
-0.174730 -0.118031 0.006990 0 0 255
-0.166920 -0.119762 0.110954 0 0 255
-0.180887 -0.127323 0.055950 0 0 255
-0.188740 -0.100585 0.205950 0 0 255
-0.199639 -0.089975 0.117949 0 0 255
-0.202075 -0.093532 0.031884 0 0 255
-0.201763 -0.119842 0.089949 0 0 255
-0.161620 -0.100452 0.079949 0 0 255
-0.169968 -0.096553 0.137935 0 0 255
-0.193631 -0.120127 0.129950 0 0 255
-0.174754 -0.085249 0.047950 0 0 255
-0.207333 -0.108754 0.059949 0 0 255
-0.169948 -0.087220 0.107949 0 0 255
-0.174350 -0.088599 0.015950 0 0 255
-0.194016 -0.121861 0.029950 0 0 255
-0.172050 -0.110431 0.177950 0 0 255
-0.188474 -0.106104 0.237949 0 0 255
-0.174673 -0.127017 0.083950 0 0 255
-0.196430 -0.100929 0.005950 0 0 255
-0.205755 -0.094764 0.093950 0 0 255
-0.193832 -0.093310 0.140895 0 0 255
-0.189042 -0.127149 0.108302 0 0 255
-0.205654 -0.111175 0.111950 0 0 255
-0.193111 -0.103713 0.183950 0 0 255
-0.175009 -0.082332 0.085950 0 0 255
-0.196456 -0.084534 0.051949 0 0 255
-0.172764 -0.109163 0.155949 0 0 255
-0.178830 -0.118044 0.213950 0 0 255
-0.190996 -0.080517 0.099949 0 0 255
-0.196644 -0.124475 0.069949 0 0 255
-0.173643 -0.122369 0.036953 0 0 255
-0.173357 -0.116287 0.131950 0 0 255
-0.162201 -0.102372 0.119950 0 0 255
-0.181982 -0.086062 0.125949 0 0 255
-0.169756 -0.086356 0.067008 0 0 255
-0.199387 -0.104370 0.077949 0 0 255
-0.180085 -0.095981 0.167950 0 0 255
-0.172782 -0.109249 0.197949 0 0 255
-0.198271 -0.122577 0.049949 0 0 255
-0.161071 -0.102622 0.100995 0 0 255
-0.178143 -0.100886 0.221950 0 0 255
-0.183394 -0.092431 0.031949 0 0 255
-0.193338 -0.118805 0.011950 0 0 255
-0.185101 -0.118614 0.145949 0 0 255
-0.205539 -0.109152 0.040073 0 0 255
-0.203153 -0.107633 0.021436 0 0 255
-0.177143 -0.091956 0.195950 0 0 255
-0.202287 -0.103727 0.129850 0 0 255
-0.192721 -0.088298 0.017949 0 0 255
-0.205214 -0.092836 0.065950 0 0 255
-0.185370 -0.092104 0.061949 0 0 255
-0.190500 -0.092001 0.087949 0 0 255
-0.185365 -0.092082 0.109950 0 0 255
-0.181556 -0.093380 0.151949 0 0 255
-0.179706 -0.121996 0.021949 0 0 255
-0.173709 -0.099820 0.237949 0 0 255
-0.197485 -0.108889 0.143949 0 0 255
-0.171171 -0.124965 0.067950 0 0 255
-0.183463 -0.114047 0.167950 0 0 255
-0.205240 -0.096927 0.049949 0 0 255
-0.186034 -0.122818 0.093950 0 0 255
-0.176028 -0.114647 0.239950 0 0 255
-0.179538 -0.123110 0.119950 0 0 255
-0.187706 -0.111878 0.195950 0 0 255
-0.191327 -0.114351 0.115949 0 0 255
-0.199032 -0.107525 0.097949 0 0 255
-0.164560 -0.090637 0.091950 0 0 255
-0.186670 -0.125689 0.041949 0 0 255
-0.188840 -0.098514 0.126950 0 0 255
-0.178497 -0.098060 0.181949 0 0 255
-0.178866 -0.090483 0.096958 0 0 255
-0.204488 -0.090948 0.079949 0 0 255
-0.190633 -0.128846 0.081950 0 0 255
-0.181808 -0.089830 0.075950 0 0 255
-0.196609 -0.100890 0.109950 0 0 255
-0.183814 -0.112804 0.225949 0 0 255
-0.184070 -0.095475 0.009059 0 0 255
-0.174306 -0.097639 0.124960 0 0 255
-0.191880 -0.093744 0.042918 0 0 255
-0.168660 -0.109134 0.142943 0 0 255
-0.173152 -0.124526 0.097949 0 0 255
-0.199893 -0.120647 0.103497 0 0 255
-0.205963 -0.115203 0.073950 0 0 255
-0.207847 -0.106592 0.087949 0 0 255
-0.183195 -0.100771 0.139950 0 0 255
-0.184059 -0.113914 0.180935 0 0 255
-0.184059 -0.123151 0.067950 0 0 255
-0.192118 -0.099837 0.169950 0 0 255
-0.177305 -0.105169 0.209949 0 0 255
-0.157079 -0.107604 0.089949 0 0 255
-0.185655 -0.082831 0.039950 0 0 255
-0.200990 -0.088641 0.103950 0 0 255
-0.184960 -0.081012 0.055950 0 0 255
-0.195666 -0.115438 0.059949 0 0 255
-0.194913 -0.116665 0.079949 0 0 255
-0.192656 -0.101765 0.017949 0 0 255
-0.188468 -0.096834 0.193950 0 0 255
-0.187096 -0.080464 0.083950 0 0 255
-0.180740 -0.080459 0.067950 0 0 255
-0.194475 -0.114691 0.039950 0 0 255
-0.182337 -0.087665 0.138138 0 0 255
-0.188837 -0.107741 0.215950 0 0 255
-0.185731 -0.107398 0.151949 0 0 255
-0.197489 -0.104791 0.031949 0 0 255
-0.171267 -0.093172 0.081950 0 0 255
-0.202499 -0.113924 0.123255 0 0 255
-0.165842 -0.105661 0.130923 0 0 255
-0.187532 -0.111095 0.134963 0 0 255
-0.196421 -0.095749 0.057950 0 0 255
-0.195131 -0.099168 0.151311 0 0 255
-0.194039 -0.094247 0.069949 0 0 255
-0.189477 -0.082908 0.115949 0 0 255
-0.206824 -0.100673 0.103950 0 0 255
-0.199474 -0.109519 0.049949 0 0 255
-0.192091 -0.113181 0.021949 0 0 255
-0.192101 -0.085500 0.029124 0 0 255
-0.181127 -0.082202 0.105949 0 0 255
-0.204727 -0.101138 0.117949 0 0 255
-0.156732 -0.101535 0.233029 0 0 255
-0.199834 -0.085834 0.089949 0 0 255
-0.190523 -0.091995 0.099949 0 0 255
-0.173111 -0.124536 0.047950 0 0 255
-0.177785 -0.122573 0.107949 0 0 255
-0.174085 -0.105882 0.166488 0 0 255
-0.192781 -0.088565 0.129950 0 0 255
-0.177142 -0.084719 0.115949 0 0 255
-0.180143 -0.105487 0.189949 0 0 255
-0.173565 -0.089609 0.027949 0 0 255
-0.191108 -0.127226 0.059949 0 0 255
-0.208565 -0.104384 0.071949 0 0 255
-0.166063 -0.097418 0.110983 0 0 255
-0.183833 -0.094413 0.019950 0 0 255
-0.200487 -0.110272 0.009949 0 0 255
-0.172312 -0.100130 0.147950 0 0 255
-0.199382 -0.104371 0.065950 0 0 255
-0.182102 -0.105084 0.173949 0 0 255
-0.193188 -0.108884 0.125949 0 0 255
-0.188838 -0.094417 0.159950 0 0 255
-0.185156 -0.091137 0.050946 0 0 255
-0.168528 -0.090054 0.119950 0 0 255
-0.198561 -0.100456 0.087949 0 0 255
-0.183027 -0.124386 0.031949 0 0 255
-0.183776 -0.112634 0.205950 0 0 255
-0.196988 -0.084417 0.063950 0 0 255
-0.170007 -0.119078 0.121950 0 0 255
-0.184057 -0.104658 0.161949 0 0 255
-0.202499 -0.113924 0.031109 0 0 255
-0.176470 -0.107402 0.230967 0 0 255
-0.185308 -0.121832 0.135949 0 0 255
-0.176241 -0.087886 0.037950 0 0 255
-0.192518 -0.096622 0.027949 0 0 255
-0.174535 -0.098670 0.157950 0 0 255
-0.200413 -0.095275 0.019950 0 0 255
-0.175614 -0.085058 0.058748 0 0 255
-0.199708 -0.119814 0.113950 0 0 255
-0.202075 -0.091483 0.041949 0 0 255
-0.182973 -0.118252 0.012931 0 0 255
-0.182112 -0.123610 0.077949 0 0 255
-0.185471 -0.115650 0.125949 0 0 255
-0.196428 -0.114260 0.069949 0 0 255
-0.182916 -0.081037 0.093950 0 0 255
-0.189702 -0.111640 0.005950 0 0 255
-0.173237 -0.083543 0.075957 0 0 255
-0.167583 -0.095033 0.100950 0 0 255
-0.185782 -0.103200 0.227949 0 0 255
-0.190243 -0.118689 0.101950 0 0 255
-0.190255 -0.123378 0.119950 0 0 255
-0.177592 -0.112461 0.147950 0 0 255
-0.198803 -0.112694 0.133949 0 0 255
-0.206134 -0.113118 0.101950 0 0 255
-0.175607 -0.094265 0.111950 0 0 255
-0.197729 -0.101646 0.041949 0 0 255
-0.198764 -0.110654 0.087949 0 0 255
-0.167141 -0.111519 0.237022 0 0 255
-0.188740 -0.121071 0.051949 0 0 255
-0.180074 -0.095939 0.211950 0 0 255
-0.191891 -0.089643 0.007950 0 0 255
-0.179077 -0.100678 0.199957 0 0 255
-0.195245 -0.095046 0.079949 0 0 255
-0.174777 -0.090522 0.131950 0 0 255
-0.181031 -0.091011 0.085950 0 0 255
-0.191404 -0.095898 0.117949 0 0 255
-0.196799 -0.111089 0.107949 0 0 255
-0.181553 -0.085790 0.023949 0 0 255
-0.191513 -0.110213 0.175950 0 0 255
-0.188348 -0.096296 0.177950 0 0 255
-0.181900 -0.094931 0.119950 0 0 255
-0.173186 -0.083349 0.099949 0 0 255
-0.192393 -0.114116 0.149950 0 0 255
-0.205400 -0.117766 0.061949 0 0 255
-0.164334 -0.098861 0.237949 0 0 255
-0.200304 -0.094782 0.127949 0 0 255
-0.207712 -0.100477 0.080399 0 0 255
-0.183928 -0.087312 0.013949 0 0 255
-0.160054 -0.098750 0.091950 0 0 255
-0.188135 -0.113816 0.159950 0 0 255
-0.207279 -0.098523 0.058843 0 0 255
-0.192953 -0.117066 0.091950 0 0 255
-0.198848 -0.100393 0.137950 0 0 255
-0.179059 -0.109835 0.217949 0 0 255
-0.165643 -0.086281 0.083950 0 0 255
-0.192780 -0.103786 0.197949 0 0 255
-0.195498 -0.105232 0.117949 0 0 255
-0.193564 -0.126147 0.097949 0 0 255
-0.205043 -0.101068 0.035949 0 0 255
-0.194150 -0.085505 0.037950 0 0 255
-0.196118 -0.098949 0.097949 0 0 255
-0.173219 -0.101978 0.174955 0 0 255
-0.182868 -0.099298 0.239950 0 0 255
-0.158380 -0.113462 0.235949 0 0 255
-0.205076 -0.116308 0.051949 0 0 255
-0.201099 -0.101942 0.013949 0 0 255
-0.204330 -0.094466 0.109950 0 0 255
-0.177574 -0.093900 0.143949 0 0 255
-0.190081 -0.122592 0.021949 0 0 255
-0.193694 -0.083446 0.107949 0 0 255
-0.193160 -0.115994 0.139950 0 0 255
-0.206293 -0.115130 0.083950 0 0 255
-0.201480 -0.087518 0.071949 0 0 255
-0.178406 -0.116132 0.139950 0 0 255
-0.179626 -0.098509 0.131950 0 0 255
-0.178885 -0.127535 0.091950 0 0 255
-0.172255 -0.102191 0.187950 0 0 255
-0.183013 -0.127674 0.101950 0 0 255
-0.184795 -0.113751 0.239950 0 0 255
-0.194900 -0.125850 0.088888 0 0 255
-0.202305 -0.089383 0.057950 0 0 255
-0.189141 -0.081391 0.065950 0 0 255
-0.161712 -0.105514 0.111950 0 0 255
-0.183415 -0.092525 0.041949 0 0 255
-0.185359 -0.119771 0.112972 0 0 255
-0.173863 -0.123362 0.059949 0 0 255
-0.196331 -0.123062 0.039950 0 0 255
-0.166306 -0.097364 0.127949 0 0 255
-0.187211 -0.091166 0.145949 0 0 255
-0.206818 -0.105684 0.047950 0 0 255
-0.179875 -0.113516 0.157950 0 0 255
-0.197713 -0.084255 0.081950 0 0 255
-0.199789 -0.114524 0.017949 0 0 255
-0.188193 -0.082269 0.047950 0 0 255
-0.198171 -0.094398 0.011691 0 0 255
-0.185300 -0.095202 0.185950 0 0 255
-0.190281 -0.110486 0.187950 0 0 255
-0.189705 -0.102420 0.134973 0 0 255
-0.184801 -0.080298 0.075950 0 0 255
-0.198421 -0.123251 0.061949 0 0 255
-0.208150 -0.104476 0.095950 0 0 255
-0.206404 -0.113057 0.092905 0 0 255
-0.202999 -0.116180 0.043950 0 0 255
-0.180494 -0.102413 0.147950 0 0 255
-0.181536 -0.122668 0.127949 0 0 255
-0.192891 -0.107859 0.167950 0 0 255
-0.196859 -0.097721 0.049949 0 0 255
-0.189937 -0.121942 0.075950 0 0 255
-0.186163 -0.109351 0.143949 0 0 255
-0.184061 -0.123160 0.085950 0 0 255
-0.194040 -0.112731 0.029950 0 0 255
-0.173223 -0.092756 0.089949 0 0 255
-0.181490 -0.083842 0.031949 0 0 255
-0.178423 -0.106970 0.241603 0 0 255
-0.192514 -0.081312 0.091950 0 0 255
-0.199827 -0.106322 0.057950 0 0 255
-0.198516 -0.123679 0.077949 0 0 255
-0.183339 -0.105880 0.181949 0 0 255
-0.175173 -0.092313 0.103950 0 0 255
-0.203712 -0.100913 0.025950 0 0 255
-0.193770 -0.097421 0.035949 0 0 255
-0.187346 -0.098845 0.213950 0 0 255
-0.196225 -0.107120 0.151949 0 0 255
-0.178322 -0.097273 0.189949 0 0 255
-0.191655 -0.111214 0.013949 0 0 255
-0.167794 -0.105228 0.241914 0 0 255
-0.197804 -0.090382 0.025950 0 0 255
-0.178881 -0.099795 0.229949 0 0 255
-0.178594 -0.127417 0.071949 0 0 255
-0.187095 -0.118365 0.027949 0 0 255
-0.191649 -0.120425 0.064911 0 0 255
-0.208082 -0.108589 0.079949 0 0 255
-0.183163 -0.114112 0.189949 0 0 255
-0.186865 -0.089609 0.069949 0 0 255
-0.169421 -0.098722 0.117949 0 0 255
-0.190113 -0.108474 0.207949 0 0 255
-0.182127 -0.123678 0.047950 0 0 255
-0.189518 -0.120055 0.035949 0 0 255
-0.197368 -0.084332 0.097949 0 0 255
-0.175172 -0.101545 0.140962 0 0 255
-0.162801 -0.094044 0.083950 0 0 255
-0.206828 -0.096575 0.073950 0 0 255
-0.207346 -0.110800 0.067950 0 0 255
-0.197597 -0.119532 0.121950 0 0 255
-0.189934 -0.084968 0.123949 0 0 255
-0.196443 -0.114327 0.099949 0 0 255
-0.186135 -0.090920 0.093950 0 0 255
-0.175544 -0.107608 0.183950 0 0 255
-0.190857 -0.128796 0.067950 0 0 255
-0.192088 -0.094683 0.107949 0 0 255
-0.177095 -0.110219 0.171949 0 0 255
-0.171503 -0.084995 0.091950 0 0 255
-0.186215 -0.114395 0.213950 0 0 255
-0.179723 -0.103592 0.155949 0 0 255
-0.173334 -0.122437 0.115949 0 0 255
-0.195917 -0.107188 0.023949 0 0 255
