ply
format ascii 1.0
element vertex 1238
property float x
property float y
property float z
property uchar red
property uchar green
property uchar blue
end_header
-1.163436 0.388603 -0.393935 0 0 255
-1.231013 0.431593 -0.388869 0 0 255
-1.170735 0.436213 -0.401935 0 0 255
-1.211280 0.408996 -0.366673 0 0 255
-1.190884 0.451688 -0.401935 0 0 255
-1.202330 0.403004 -0.367583 0 0 255
-1.165964 0.458660 -0.411636 0 0 255
-1.208539 0.441129 -0.370412 0 0 255
-1.182767 0.398846 -0.366305 0 0 255
-1.173368 0.429563 -0.433935 0 0 255
-1.161868 0.458693 -0.431935 0 0 255
-1.167001 0.420031 -0.419935 0 0 255
-1.155927 0.401320 -0.385935 0 0 255
-1.186740 0.380157 -0.399935 0 0 255
-1.164837 0.429795 -0.399935 0 0 255
-1.200835 0.381179 -0.393935 0 0 255
-1.190176 0.402466 -0.374892 0 0 255
-1.214125 0.385989 -0.393935 0 0 255
-1.162163 0.423092 -0.389935 0 0 255
-1.169286 0.394935 -0.415935 0 0 255
-1.156132 0.405453 -0.399935 0 0 255
-1.178421 0.449040 -0.403935 0 0 255
-1.224484 0.385353 -0.387935 0 0 255
-1.180276 0.458665 -0.439935 0 0 255
-1.204253 0.419771 -0.367935 0 0 255
-1.159961 0.428758 -0.377935 0 0 255
-1.230998 0.402806 -0.411935 0 0 255
-1.222129 0.392900 -0.371935 0 0 255
-1.155696 0.458867 -0.409935 0 0 255
-1.219398 0.418900 -0.374854 0 0 255
-1.219398 0.418900 -0.366921 0 0 255
-1.215022 0.391390 -0.423018 0 0 255
-1.227422 0.390769 -0.397935 0 0 255
-1.217735 0.426726 -0.374867 0 0 255
-1.175481 0.385029 -0.421238 0 0 255
-1.167410 0.403761 -0.380905 0 0 255
-1.207122 0.428559 -0.374894 0 0 255
-1.175848 0.397376 -0.433935 0 0 255
-1.189424 0.415625 -0.379935 0 0 255
-1.196157 0.374331 -0.399935 0 0 255
-1.210155 0.404668 -0.374904 0 0 255
-1.188438 0.449124 -0.414960 0 0 255
-1.191534 0.376839 -0.411935 0 0 255
-1.196470 0.449814 -0.385935 0 0 255
-1.162525 0.404767 -0.423935 0 0 255
-1.183023 0.426498 -0.375935 0 0 255
-1.168863 0.440874 -0.411935 0 0 255
-1.198583 0.449490 -0.373935 0 0 255
-1.188044 0.373387 -0.393935 0 0 255
-1.174640 0.437083 -0.419935 0 0 255
-1.190129 0.373830 -0.406023 0 0 255
-1.224191 0.396353 -0.401935 0 0 255
-1.153631 0.458963 -0.417935 0 0 255
-1.171804 0.390382 -0.425935 0 0 255
-1.203578 0.397136 -0.366413 0 0 255
-1.218717 0.398309 -0.379935 0 0 255
-1.182913 0.388654 -0.367935 0 0 255
-1.230443 0.395798 -0.391935 0 0 255
-1.169699 0.392992 -0.409935 0 0 255
-1.168852 0.459274 -0.435935 0 0 255
-1.172324 0.419118 -0.435457 0 0 255
-1.169931 0.396118 -0.421935 0 0 255
-1.185796 0.451931 -0.383935 0 0 255
-1.161799 0.414836 -0.409935 0 0 255
-1.156753 0.407630 -0.405935 0 0 255
-1.192766 0.447999 -0.371493 0 0 255
-1.228173 0.402363 -0.387935 0 0 255
-1.154204 0.411177 -0.389935 0 0 255
-1.173033 0.425403 -0.366756 0 0 255
-1.205462 0.388271 -0.425935 0 0 255
-1.199003 0.418655 -0.376728 0 0 255
-1.168412 0.420331 -0.367935 0 0 255
-1.193024 0.379451 -0.397935 0 0 255
-1.172157 0.414993 -0.375935 0 0 255
-1.156720 0.454054 -0.429935 0 0 255
-1.156929 0.417890 -0.407935 0 0 255
-1.200421 0.431224 -0.366367 0 0 255
-1.167384 0.418068 -0.379935 0 0 255
-1.185187 0.425941 -0.366857 0 0 255
-1.057622 0.660546 -0.407752 255 255 0
-1.111216 0.591177 -0.425935 255 255 0
-1.119719 0.661477 -0.447935 255 255 0
-1.029113 0.602281 -0.441935 255 255 0
-1.074660 0.695821 -0.447935 255 255 0
-1.010379 0.651940 -0.431935 255 255 0
-1.069558 0.614011 -0.414653 255 255 0
-1.114430 0.633772 -0.414310 255 255 0
-1.097041 0.677103 -0.414701 255 255 0
-1.031630 0.686634 -0.445935 255 255 0
-1.070444 0.580985 -0.437935 255 255 0
-1.085207 0.645962 -0.437935 255 255 0
-1.035640 0.629293 -0.414775 255 255 0
-1.054050 0.696591 -0.419080 255 255 0
-1.113504 0.628511 -0.447935 255 255 0
-1.088448 0.650195 -0.397935 255 255 0
-1.028262 0.673622 -0.415935 255 255 0
-1.057633 0.670115 -0.439935 255 255 0
-1.009401 0.621671 -0.427935 255 255 0
-1.052197 0.589874 -0.416156 255 255 0
-1.101662 0.684220 -0.445067 255 255 0
-1.124675 0.662530 -0.419462 255 255 0
-1.085161 0.588702 -0.415453 255 255 0
-1.095822 0.615504 -0.422892 255 255 0
-1.080468 0.697354 -0.421935 255 255 0
-1.025777 0.604705 -0.415935 255 255 0
-1.124873 0.613500 -0.428479 255 255 0
-1.129003 0.642165 -0.433935 255 255 0
-1.092986 0.590365 -0.442824 255 255 0
-1.087525 0.625676 -0.401935 255 255 0
-1.038891 0.652475 -0.422914 255 255 0
-1.073149 0.674070 -0.420799 255 255 0
-1.102031 0.653628 -0.420833 255 255 0
-1.082222 0.669864 -0.444841 255 255 0
-1.051490 0.699012 -0.443935 255 255 0
-1.056034 0.629538 -0.403459 255 255 0
-1.047623 0.611393 -0.422914 255 255 0
-1.021780 0.669285 -0.437935 255 255 0
-1.017078 0.639660 -0.415307 255 255 0
-1.112403 0.686503 -0.425935 255 255 0
-1.050383 0.675365 -0.420792 255 255 0
-1.015954 0.635332 -0.442920 255 255 0
-1.105234 0.648175 -0.441465 255 255 0
-1.034487 0.692433 -0.422846 255 255 0
-1.090165 0.634748 -0.419935 255 255 0
-1.110727 0.608449 -0.441935 255 255 0
-1.050937 0.586182 -0.435935 255 255 0
-1.082761 0.657711 -0.415307 255 255 0
-1.052920 0.639100 -0.419935 255 255 0
-1.111900 0.607197 -0.415935 255 255 0
-1.101492 0.665781 -0.448809 255 255 0
-1.069388 0.595572 -0.422869 255 255 0
-1.096481 0.631642 -0.439935 255 255 0
-1.019696 0.617725 -0.442838 255 255 0
-1.047563 0.646140 -0.403935 255 255 0
-1.017249 0.658098 -0.416528 255 255 0
-1.039221 0.670159 -0.441935 255 255 0
-1.074002 0.660437 -0.399935 255 255 0
-1.070935 0.578676 -0.419935 255 255 0
-1.097435 0.694490 -0.421935 255 255 0
-1.129324 0.628759 -0.421935 255 255 0
-1.121555 0.643465 -0.449935 255 255 0
-1.060671 0.684681 -0.447935 255 255 0
-1.084924 0.580199 -0.429935 255 255 0
-1.016408 0.606803 -0.429935 255 255 0
-1.020821 0.622053 -0.415715 255 255 0
-1.085747 0.605184 -0.414868 255 255 0
-1.126461 0.644508 -0.417218 255 255 0
-1.108901 0.669401 -0.422931 255 255 0
-1.095651 0.597065 -0.424903 255 255 0
-1.058247 0.623874 -0.421935 255 255 0
-1.067867 0.689304 -0.415001 255 255 0
-1.086721 0.687178 -0.440641 255 255 0
-1.125108 0.625818 -0.437935 255 255 0
-1.065787 0.699086 -0.428883 255 255 0
-1.046347 0.684730 -0.441148 255 255 0
-1.111056 0.620787 -0.422909 255 255 0
-1.007263 0.637574 -0.427935 255 255 0
-1.028936 0.680069 -0.429935 255 255 0
-1.083224 0.684390 -0.414671 255 255 0
-1.062883 0.616554 -0.399935 255 255 0
-1.096079 0.644184 -0.409935 255 255 0
-1.040308 0.665044 -0.414287 255 255 0
-1.082005 0.622790 -0.416523 255 255 0
-1.032266 0.616307 -0.422897 255 255 0
-1.122719 0.676427 -0.423935 255 255 0
-1.057527 0.603275 -0.414208 255 255 0
-1.090781 0.659415 -0.439935 255 255 0
-1.029232 0.640199 -0.422907 255 255 0
-1.016685 0.670368 -0.423935 255 255 0
-1.073517 0.681961 -0.441935 255 255 0
-1.114600 0.652210 -0.414639 255 255 0
-1.052169 0.657342 -0.420328 255 255 0
-1.101568 0.626949 -0.414680 255 255 0
-1.086551 0.668740 -0.422875 255 255 0
-1.125506 0.658618 -0.432775 255 255 0
-1.058495 0.579481 -0.425935 255 255 0
-1.096452 0.583678 -0.421935 255 255 0
-1.041461 0.601904 -0.415135 255 255 0
-1.103195 0.638531 -0.421935 255 255 0
-1.073606 0.623823 -0.403935 255 255 0
-1.017183 0.648786 -0.443935 255 255 0
-1.069559 0.662104 -0.413935 255 255 0
-1.108221 0.595648 -0.438688 255 255 0
-1.047500 0.621590 -0.414201 255 255 0
-1.070484 0.667369 -0.439445 255 255 0
-1.040478 0.683483 -0.415352 255 255 0
-1.028571 0.662550 -0.422905 255 255 0
-1.029109 0.650396 -0.414535 255 255 0
-1.116755 0.603596 -0.431474 255 255 0
-1.040970 0.642694 -0.414810 255 255 0
-1.046640 0.692971 -0.428914 255 255 0
-1.062121 0.677860 -0.414237 255 255 0
-1.094656 0.662284 -0.413935 255 255 0
-1.094068 0.674427 -0.441935 255 255 0
-1.091071 0.637854 -0.399935 255 255 0
-1.029103 0.602327 -0.427935 255 255 0
-1.098316 0.603766 -0.414669 255 255 0
-1.018742 0.631835 -0.424882 255 255 0
-1.080195 0.587646 -0.441935 255 255 0
-1.020274 0.648518 -0.423935 255 255 0
-1.121669 0.618953 -0.417127 255 255 0
-1.075134 0.607017 -0.422913 255 255 0
-1.059777 0.611931 -0.422869 255 255 0
-1.058501 0.685269 -0.422913 255 255 0
-1.114723 0.642013 -0.422928 255 255 0
-1.060287 0.667246 -0.419330 255 255 0
-1.020654 0.617929 -0.427935 255 255 0
-1.045837 0.629415 -0.422905 255 255 0
-1.066206 0.668259 -0.403935 255 255 0
-1.038645 0.672870 -0.422882 255 255 0
-1.116972 0.650670 -0.441913 255 255 0
-1.063166 0.696484 -0.445935 255 255 0
-1.046491 0.633644 -0.409935 255 255 0
-1.064118 0.625122 -0.411935 255 255 0
-1.104185 0.605013 -0.424912 255 255 0
-1.077213 0.597236 -0.414385 255 255 0
-1.091465 0.684097 -0.422915 255 255 0
-1.109024 0.659204 -0.442856 255 255 0
-1.107729 0.636437 -0.441674 255 255 0
-1.099930 0.587751 -0.433935 255 255 0
-1.119139 0.616371 -0.441935 255 255 0
-1.063226 0.586084 -0.415562 255 255 0
-1.048426 0.674949 -0.446911 255 255 0
-1.009130 0.648194 -0.421199 255 255 0
-1.077336 0.587038 -0.424884 255 255 0
-1.088445 0.659826 -0.403935 255 255 0
-1.108779 0.679598 -0.417711 255 255 0
-1.079973 0.661207 -0.437049 255 255 0
-1.017109 0.658756 -0.437935 255 255 0
-1.104062 0.615211 -0.414759 255 255 0
-1.103431 0.592585 -0.417935 255 255 0
-1.017031 0.611024 -0.418950 255 255 0
-1.129255 0.653280 -0.423935 255 255 0
-1.071603 0.623628 -0.419935 255 255 0
-1.082099 0.680061 -0.448882 255 255 0
-1.076523 0.687055 -0.422923 255 255 0
-1.038966 0.613642 -0.414716 255 255 0
-1.013704 0.626675 -0.436598 255 255 0
-1.086019 0.695207 -0.447935 255 255 0
-1.091116 0.651308 -0.417935 255 255 0
-1.096285 0.642183 -0.442713 255 255 0
-1.078899 0.666259 -0.409935 255 255 0
-1.106236 0.662700 -0.414879 255 255 0
-1.092618 0.620957 -0.414072 255 255 0
-1.041420 0.693906 -0.443935 255 255 0
-1.084084 0.613009 -0.422920 255 255 0
-1.052074 0.600071 -0.422905 255 255 0
-1.083498 0.596527 -0.422901 255 255 0
-1.105650 0.646218 -0.413953 255 255 0
-1.114893 0.660451 -0.422908 255 255 0
-1.046716 0.654138 -0.411901 255 255 0
-1.117142 0.669108 -0.416239 255 255 0
-1.067357 0.585886 -0.427935 255 255 0
-1.134129 0.642048 -0.423935 255 255 0
-1.019205 0.658514 -0.426867 255 255 0
-1.030281 0.683360 -0.419186 255 255 0
-1.124006 0.636817 -0.425935 255 255 0
-1.099659 0.655168 -0.446866 255 255 0
-1.012334 0.642741 -0.436523 255 255 0
-1.120409 0.605644 -0.421935 255 255 0
-1.087375 0.636001 -0.435935 255 255 0
-1.031182 0.675373 -0.445935 255 255 0
-1.051385 0.689890 -0.448821 255 255 0
-1.061270 0.585668 -0.436971 255 255 0
-1.009872 0.629950 -0.419935 255 255 0
-1.120837 0.622866 -0.426894 255 255 0
-1.095883 0.692169 -0.447935 255 255 0
-1.088220 0.632026 -0.409935 255 255 0
-1.009941 0.662679 -0.423935 255 255 0
-1.053492 0.612640 -0.414623 255 255 0
-1.067725 0.603397 -0.414565 255 255 0
-1.049844 0.687518 -0.415645 255 255 0
-1.029355 0.630001 -0.422904 255 255 0
-1.098704 0.669278 -0.422909 255 255 0
-1.082515 0.678105 -0.422917 255 255 0
-1.117927 0.636560 -0.443472 255 255 0
-1.047987 0.648159 -0.421935 255 255 0
-1.087093 0.650453 -0.407935 255 255 0
-1.111099 0.668681 -0.447935 255 255 0
-1.055840 0.630451 -0.413935 255 255 0
-1.026151 0.635454 -0.414482 255 255 0
-1.054364 0.589299 -0.425935 255 255 0
-1.111408 0.643353 -0.447935 255 255 0
-1.082880 0.580038 -0.419935 255 255 0
-1.050090 0.667124 -0.414860 255 255 0
-1.101246 0.686176 -0.417207 255 255 0
-1.038257 0.607357 -0.422891 255 255 0
-1.091739 0.596234 -0.415000 255 255 0
-1.073007 0.588163 -0.415282 255 255 0
-1.087259 0.675024 -0.414534 255 255 0
-1.091881 0.682141 -0.448863 255 255 0
-1.038305 0.635993 -0.422921 255 255 0
-1.041631 0.620343 -0.422919 255 255 0
-1.040894 0.681526 -0.448880 255 255 0
-1.065183 0.676466 -0.441935 255 255 0
-1.057253 0.691138 -0.439947 255 255 0
-1.056006 0.697007 -0.428798 255 255 0
-1.112173 0.610801 -0.425935 255 255 0
-1.045364 0.684521 -0.423935 255 255 0
-1.108977 0.630568 -0.422893 255 255 0
-1.063831 0.698670 -0.419215 255 255 0
-1.021199 0.607821 -0.439935 255 255 0
-1.052803 0.654359 -0.401935 255 255 0
-1.061856 0.602150 -0.422869 255 255 0
-1.043096 0.661548 -0.422892 255 255 0
-1.075108 0.578280 -0.429935 255 255 0
-1.091242 0.588953 -0.429935 255 255 0
-1.036982 0.680695 -0.440117 255 255 0
-1.113674 0.598852 -0.420697 255 255 0
-1.103741 0.674438 -0.445317 255 255 0
-1.048337 0.634036 -0.399935 255 255 0
-1.026696 0.671370 -0.425935 255 255 0
-1.055704 0.679191 -0.441935 255 255 0
-1.092605 0.606641 -0.421935 255 255 0
-1.088931 0.691737 -0.417935 255 255 0
-1.021454 0.667171 -0.416314 255 255 0
-1.067833 0.689463 -0.441935 255 255 0
-1.033596 0.687004 -0.433935 255 255 0
-1.056442 0.621446 -0.407935 255 255 0
-1.095910 0.624705 -0.421935 255 255 0
-1.068076 0.683215 -0.421935 255 255 0
-1.088761 0.696817 -0.425935 255 255 0
-1.090709 0.649177 -0.444913 255 255 0
-1.015639 0.641399 -0.427935 255 255 0
-1.097532 0.636314 -0.414750 255 255 0
-1.028769 0.613519 -0.414922 255 255 0
-1.120528 0.667783 -0.425935 255 255 0
-1.123737 0.652108 -0.447935 255 255 0
-1.013939 0.616501 -0.433935 255 255 0
-1.079755 0.614133 -0.414772 255 255 0
-1.120363 0.649346 -0.421935 255 255 0
-1.116869 0.612675 -0.433935 255 255 0
-1.021196 0.678006 -0.421935 255 255 0
-1.036350 0.683665 -0.425935 255 255 0
-1.042728 0.692140 -0.419121 255 255 0
-1.079141 0.665120 -0.418931 255 255 0
-1.060580 0.675487 -0.422913 255 255 0
-1.112181 0.625115 -0.415035 255 255 0
-1.033315 0.659469 -0.414841 255 255 0
-1.042558 0.673701 -0.414565 255 255 0
-1.124211 0.635851 -0.416976 255 255 0
-1.076523 0.687055 -0.448840 255 255 0
-1.070948 0.694049 -0.422893 255 255 0
-1.095869 0.644139 -0.420322 255 255 0
-1.067696 0.670866 -0.414506 255 255 0
-1.065475 0.594741 -0.414895 255 255 0
-1.073442 0.682311 -0.414906 255 255 0
-1.126733 0.633607 -0.433935 255 255 0
-1.079505 0.657018 -0.405935 255 255 0
-1.026855 0.676498 -0.437935 255 255 0
-1.016307 0.666077 -0.431935 255 255 0
-1.112228 0.653751 -0.448825 255 255 0
-1.082269 0.621546 -0.407935 255 255 0
-1.104086 0.586241 -0.425935 255 255 0
-1.107979 0.601730 -0.431935 255 255 0
-1.026241 0.610937 -0.425935 255 255 0
-1.088387 0.640859 -0.407935 255 255 0
-1.028693 0.652352 -0.422891 255 255 0
-1.052067 0.638918 -0.405935 255 255 0
-1.065974 0.659731 -0.405935 255 255 0
-1.069023 0.616527 -0.405935 255 255 0
-1.017186 0.648772 -0.415935 255 255 0
-1.050692 0.646805 -0.413935 255 255 0
-1.011945 0.620167 -0.419935 255 255 0
-1.129522 0.620485 -0.423935 255 255 0
-1.090586 0.659374 -0.420824 255 255 0
-1.069142 0.615967 -0.422913 255 255 0
-1.022802 0.602028 -0.433935 255 255 0
-1.104157 0.672482 -0.415028 255 255 0
-1.033390 0.620636 -0.414777 255 255 0
-1.034345 0.606526 -0.414859 255 255 0
-1.098581 0.679475 -0.422893 255 255 0
-1.090368 0.612300 -0.414972 255 255 0
-1.055817 0.582464 -0.418135 255 255 0
-1.093251 0.666074 -0.444557 255 255 0
-1.104103 0.595782 -0.425935 255 255 0
-1.116679 0.642429 -0.414696 255 255 0
-1.014919 0.635112 -0.433935 255 255 0
-1.047718 0.668664 -0.441322 255 255 0
-1.114260 0.615334 -0.415390 255 255 0
-1.072122 0.673851 -0.445935 255 255 0
-1.128274 0.626357 -0.429935 255 255 0
-1.104478 0.613254 -0.422935 255 255 0
-1.087949 0.585205 -0.436699 255 255 0
-1.122217 0.627248 -0.415935 255 255 0
-1.107466 0.628056 -0.441935 255 255 0
-1.055741 0.621297 -0.399593 255 255 0
-1.129901 0.661597 -0.425935 255 255 0
-1.119174 0.630691 -0.422915 255 255 0
-1.012327 0.614114 -0.425935 255 255 0
-1.020122 0.603503 -0.421935 255 255 0
-1.100367 0.661453 -0.441505 255 255 0
-1.060901 0.616260 -0.413861 255 255 0
-1.048870 0.605524 -0.414393 255 255 0
-1.009168 0.638400 -0.419935 255 255 0
-1.021747 0.675412 -0.431177 255 255 0
-1.017201 0.629463 -0.415334 255 255 0
-1.109147 0.649006 -0.420890 255 255 0
-1.079018 0.675317 -0.414196 255 255 0
-1.086966 0.666783 -0.414872 255 255 0
-1.077506 0.605477 -0.414595 255 255 0
-1.059626 0.689597 -0.415194 255 255 0
-1.033560 0.639074 -0.414662 255 255 0
-1.106189 0.634065 -0.414172 255 255 0
-1.061978 0.591953 -0.422854 255 255 0
-1.008993 0.629763 -0.429935 255 255 0
-1.049872 0.620050 -0.422882 255 255 0
-1.083791 0.604768 -0.422874 255 255 0
-1.038598 0.644234 -0.422905 255 255 0
-1.037350 0.650103 -0.414807 255 255 0
-1.102276 0.633233 -0.446909 255 255 0
-1.065432 0.623804 -0.403935 255 255 0
-1.079604 0.691799 -0.416008 255 255 0
-1.024733 0.622885 -0.422885 255 255 0
-1.127360 0.649895 -0.431935 255 255 0
-1.113107 0.678474 -0.424869 255 255 0
-1.094860 0.648886 -0.437935 255 255 0
-1.074723 0.623287 -0.411935 255 255 0
-1.025074 0.659762 -0.415366 255 255 0
-1.054569 0.588333 -0.442827 255 255 0
-1.088289 0.622081 -0.421767 255 255 0
-1.082472 0.655605 -0.397935 255 255 0
-1.069530 0.681479 -0.448920 255 255 0
-1.064636 0.579451 -0.431935 255 255 0
-1.073428 0.701620 -0.421935 255 255 0
-1.024488 0.643280 -0.414935 255 255 0
-1.100367 0.661453 -0.420887 255 255 0
-1.027814 0.627629 -0.414502 255 255 0
-1.038012 0.627752 -0.422911 255 255 0
-1.078324 0.582390 -0.435935 255 255 0
-1.060954 0.692967 -0.423935 255 255 0
-1.053464 0.680109 -0.415233 255 255 0
-1.098534 0.650840 -0.414296 255 255 0
-1.085161 0.588702 -0.424885 255 255 0
-1.085235 0.654147 -0.437935 255 255 0
-1.093571 0.645696 -0.401935 255 255 0
-1.123625 0.619369 -0.433596 255 255 0
-1.102815 0.621080 -0.420798 255 255 0
-1.105211 0.600188 -0.415935 255 255 0
-1.077176 0.616649 -0.421935 255 255 0
-1.060201 0.667652 -0.409935 255 255 0
-1.133835 0.633807 -0.425935 255 255 0
-1.088257 0.675236 -0.447935 255 255 0
-1.093421 0.684513 -0.415336 255 255 0
-1.093837 0.682556 -0.441288 255 255 0
-1.104743 0.688964 -0.423637 255 255 0
-1.124382 0.654289 -0.417383 255 255 0
-1.045714 0.639613 -0.422882 255 255 0
-1.040601 0.673285 -0.448904 255 255 0
-1.054541 0.655802 -0.413039 255 255 0
-1.020740 0.612813 -0.433935 255 255 0
-1.061535 0.661378 -0.414481 255 255 0
-1.078840 0.676156 -0.441935 255 255 0
-1.052058 0.580907 -0.429935 255 255 0
-1.125643 0.644334 -0.425935 255 255 0
-1.078064 0.689427 -0.441697 255 255 0
-1.084756 0.629084 -0.419935 255 255 0
-1.051385 0.689890 -0.422763 255 255 0
-1.093402 0.588409 -0.416741 255 255 0
-1.102569 0.641474 -0.446919 255 255 0
-1.017033 0.625338 -0.429935 255 255 0
-1.094376 0.629509 -0.413935 255 255 0
-1.089311 0.581405 -0.423935 255 255 0
-1.039023 0.690329 -0.429935 255 255 0
-1.048963 0.691663 -0.439935 255 255 0
-1.066477 0.609266 -0.420774 255 255 0
-1.093544 0.674315 -0.420800 255 255 0
-1.047718 0.668664 -0.422869 255 255 0
-1.021407 0.638535 -0.422872 255 255 0
-1.116849 0.660867 -0.415719 255 255 0
-1.095916 0.672775 -0.448934 255 255 0
-1.105943 0.654459 -0.414579 255 255 0
-1.050256 0.626265 -0.399935 255 255 0
-1.048919 0.682250 -0.447935 255 255 0
-1.012515 0.659137 -0.429935 255 255 0
-1.009618 0.655518 -0.421935 255 255 0
-1.088470 0.688568 -0.449935 255 255 0
-1.057234 0.595034 -0.414718 255 255 0
-1.100736 0.630861 -0.420842 255 255 0
-1.106831 0.592566 -0.431935 255 255 0
-1.089830 0.657168 -0.411935 255 255 0
-1.053662 0.631079 -0.420878 255 255 0
-1.031651 0.667294 -0.414631 255 255 0
-1.083727 0.686542 -0.421935 255 255 0
-1.094206 0.651964 -0.408541 255 255 0
-1.061106 0.663393 -0.401935 255 255 0
-1.014460 0.651977 -0.437935 255 255 0
-1.035857 0.676366 -0.415321 255 255 0
-1.057083 0.672699 -0.414925 255 255 0
-1.099767 0.591806 -0.439935 255 255 0
-1.043682 0.678030 -0.441833 255 255 0
-1.040015 0.656803 -0.414210 255 255 0
-1.094376 0.670403 -0.414256 255 255 0
-1.040677 0.634453 -0.414429 255 255 0
-1.117219 0.615963 -0.425935 255 255 0
-1.042340 0.626627 -0.414973 255 255 0
-1.062564 0.608435 -0.414560 255 255 0
-1.021870 0.665215 -0.426914 255 255 0
-1.056422 0.695050 -0.448922 255 255 0
-1.043559 0.688227 -0.448863 255 255 0
-1.076797 0.599192 -0.422913 255 255 0
-1.044958 0.604692 -0.422895 255 255 0
-1.035980 0.666169 -0.422888 255 255 0
-1.103741 0.674438 -0.422933 255 255 0
-1.065740 0.670450 -0.422907 255 255 0
-1.033731 0.657512 -0.422895 255 255 0
-1.054739 0.606771 -0.422894 255 255 0
-1.079850 0.671405 -0.422923 255 255 0
-1.039647 0.687395 -0.441400 255 255 0
-1.085271 0.665140 -0.439935 255 255 0
-1.107068 0.658788 -0.420840 255 255 0
-1.076294 0.617487 -0.405935 255 255 0
-1.076308 0.659208 -0.411935 255 255 0
-1.051369 0.626502 -0.407935 255 255 0
-1.069823 0.689720 -0.448786 255 255 0
-1.073202 0.664203 -0.405935 255 255 0
-1.008477 0.646011 -0.427935 255 255 0
-1.111854 0.636270 -0.447935 255 255 0
-1.062379 0.580451 -0.419935 255 255 0
-1.076933 0.665888 -0.441935 255 255 0
-1.123550 0.658202 -0.424921 255 255 0
-1.122044 0.636428 -0.449935 255 255 0
-1.098075 0.654832 -0.439935 255 255 0
-1.089951 0.599943 -0.421935 255 255 0
-1.071269 0.586720 -0.441935 255 255 0
-1.113998 0.597327 -0.427935 255 255 0
-1.053565 0.650774 -0.407935 255 255 0
-1.084889 0.662252 -0.409935 255 255 0
-1.059124 0.586144 -0.429935 255 255 0
-1.041896 0.696052 -0.424873 255 255 0
-1.047544 0.640622 -0.413935 255 255 0
-1.047425 0.660423 -0.414673 255 255 0
-1.112521 0.661992 -0.448774 255 255 0
-1.074397 0.668201 -0.415005 255 255 0
-1.059295 0.700772 -0.423935 255 255 0
-1.026653 0.608980 -0.443935 255 255 0
-1.016540 0.651814 -0.428934 255 255 0
-1.092372 0.641351 -0.414925 255 255 0
-1.114307 0.643969 -0.441785 255 255 0
-1.079882 0.663233 -0.401935 255 255 0
-1.054565 0.670120 -0.421935 255 255 0
-1.117388 0.648713 -0.448753 255 255 0
-1.062442 0.618632 -0.420856 255 255 0
-1.043682 0.678030 -0.422858 255 255 0
-1.022409 0.653061 -0.415299 255 255 0
-1.113886 0.674810 -0.417935 255 255 0
-1.031944 0.675535 -0.424913 255 255 0
-1.090410 0.592868 -0.423935 255 255 0
-1.123187 0.611813 -0.421935 255 255 0
-1.098581 0.679475 -0.448763 255 255 0
-1.102569 0.641474 -0.440176 255 255 0
-1.098704 0.669278 -0.442305 255 255 0
-1.088091 0.671112 -0.440881 255 255 0
-1.129549 0.636986 -0.421935 255 255 0
-1.098950 0.648884 -0.444751 255 255 0
-1.090549 0.692081 -0.443935 255 255 0
-1.099086 0.590528 -0.427935 255 255 0
-1.067653 0.660633 -0.397935 255 255 0
-1.048092 0.695761 -0.421935 255 255 0
-1.037069 0.689906 -0.447935 255 255 0
-1.112011 0.606677 -0.434972 255 255 0
-1.089671 0.640777 -0.439935 255 255 0
-1.076211 0.582710 -0.417293 255 255 0
-1.093251 0.666074 -0.420917 255 255 0
-1.063653 0.684319 -0.441935 255 255 0
-1.066987 0.578011 -0.425935 255 255 0
-1.093374 0.655877 -0.444853 255 255 0
-1.087270 0.626878 -0.413935 255 255 0
-1.015585 0.665923 -0.419206 255 255 0
-1.017811 0.621414 -0.435935 255 255 0
-1.105405 0.666613 -0.443606 255 255 0
-1.074444 0.696837 -0.417561 255 255 0
-1.113674 0.598852 -0.434782 255 255 0
-1.126721 0.667055 -0.423935 255 255 0
-1.075815 0.680770 -0.420794 255 255 0
-1.086012 0.680893 -0.442210 255 255 0
-1.114600 0.652210 -0.422920 255 255 0
-1.117681 0.656954 -0.443430 255 255 0
-1.094191 0.584697 -0.433935 255 255 0
-1.051092 0.681649 -0.422925 255 255 0
-1.110662 0.637060 -0.421935 255 255 0
-1.053939 0.620914 -0.413935 255 255 0
-1.071074 0.602065 -0.421935 255 255 0
-1.055250 0.662086 -0.417177 255 255 0
-1.113929 0.626512 -0.421935 255 255 0
-1.119093 0.621454 -0.437935 255 255 0
-1.077326 0.577463 -0.423935 255 255 0
-1.021825 0.614088 -0.415935 255 255 0
-1.037275 0.688936 -0.418108 255 255 0
-1.129969 0.647240 -0.421935 255 255 0
-1.110688 0.651378 -0.442856 255 255 0
-1.130022 0.639131 -0.427935 255 255 0
-1.062594 0.617915 -0.407935 255 255 0
-1.052450 0.636779 -0.411935 255 255 0
-1.099243 0.657125 -0.415116 255 255 0
-1.026662 0.681149 -0.423935 255 255 0
-1.088354 0.583300 -0.417935 255 255 0
-1.120519 0.608485 -0.429935 255 255 0
-1.080532 0.691996 -0.447935 255 255 0
-1.118097 0.654998 -0.450920 255 255 0
-1.067158 0.683020 -0.414292 255 255 0
-1.110858 0.669817 -0.415455 255 255 0
-1.101861 0.635189 -0.439613 255 255 0
-1.074151 0.688595 -0.415495 255 255 0
-1.117464 0.609880 -0.417367 255 255 0
-1.106728 0.621911 -0.414598 255 255 0
-1.096653 0.611591 -0.414550 255 255 0
-1.108854 0.640765 -0.414367 255 255 0
-1.085038 0.598899 -0.414485 255 255 0
-1.098902 0.620248 -0.414439 255 255 0
-1.087165 0.617753 -0.414620 255 255 0
-1.064124 0.625124 -0.419935 255 255 0
-1.039675 0.619927 -0.415069 255 255 0
-1.046806 0.639845 -0.401935 255 255 0
-1.045667 0.610977 -0.414693 255 255 0
-1.048011 0.676905 -0.414824 255 255 0
-1.098316 0.603766 -0.422898 255 255 0
-1.103769 0.606970 -0.414886 255 255 0
-1.052074 0.600071 -0.414590 255 255 0
-1.098023 0.595525 -0.415212 255 255 0
-1.027105 0.621345 -0.414309 255 255 0
-1.111396 0.657663 -0.414416 255 255 0
-1.120919 0.647419 -0.415935 255 255 0
-1.107068 0.658788 -0.448914 255 255 0
-1.056573 0.617385 -0.422905 255 255 0
-1.058917 0.683313 -0.415329 255 255 0
-1.063538 0.690429 -0.448837 255 255 0
-1.101322 0.647343 -0.420825 255 255 0
-1.043635 0.649394 -0.414819 255 255 0
-1.038966 0.613642 -0.422901 255 255 0
-1.092032 0.604475 -0.414869 255 255 0
-1.026028 0.645652 -0.422897 255 255 0
-1.032559 0.624548 -0.422907 255 255 0
-1.096918 0.687301 -0.422858 255 255 0
-1.104034 0.682679 -0.422885 255 255 0
-1.070928 0.597944 -0.414606 255 255 0
-1.099025 0.610051 -0.422918 255 255 0
-1.075815 0.680770 -0.448927 255 255 0
-1.031973 0.608066 -0.422860 255 255 0
-1.076088 0.592907 -0.422901 255 255 0
-1.100197 0.643015 -0.414579 255 255 0
-1.095746 0.654337 -0.420913 255 255 0
-1.093305 0.636962 -0.407935 255 255 0
-1.079944 0.584389 -0.429935 255 255 0
-1.082005 0.622790 -0.401623 255 255 0
-1.070431 0.667621 -0.419935 255 255 0
-1.121008 0.641304 -0.422864 255 255 0
-1.044760 0.653723 -0.421338 255 255 0
-1.055278 0.594618 -0.422882 255 255 0
-1.054173 0.686394 -0.442478 255 255 0
-1.108438 0.642722 -0.420883 255 255 0
-1.058904 0.654514 -0.407935 255 255 0
-1.090368 0.612300 -0.422927 255 255 0
-1.077676 0.623915 -0.420926 255 255 0
-1.082808 0.686346 -0.448819 255 255 0
-1.114586 0.666520 -0.421935 255 255 0
-1.048209 0.627875 -0.413622 255 255 0
-1.054588 0.684437 -0.448867 255 255 0
-1.067354 0.585902 -0.435935 255 255 0
-1.065910 0.688888 -0.422846 255 255 0
-1.124873 0.613500 -0.434896 255 255 0
-1.105138 0.654288 -0.441935 255 255 0
-1.102855 0.678606 -0.415935 255 255 0
-1.072734 0.676026 -0.415005 255 255 0
-1.052755 0.673824 -0.441737 255 255 0
-1.050937 0.581427 -0.423935 255 255 0
-1.097532 0.636314 -0.420867 255 255 0
-1.072827 0.584035 -0.429935 255 255 0
-1.115908 0.611594 -0.439935 255 255 0
-1.075985 0.699209 -0.426924 255 255 0
-1.045603 0.697854 -0.445935 255 255 0
-1.029744 0.681201 -0.447935 255 255 0
-1.049399 0.662887 -0.421935 255 255 0
-1.094394 0.583742 -0.427935 255 255 0
-1.022633 0.608126 -0.429935 255 255 0
-1.069142 0.615967 -0.399917 255 255 0
-1.055836 0.678568 -0.420783 255 255 0
-1.037105 0.670498 -0.414594 255 255 0
-1.058641 0.626891 -0.409935 255 255 0
-1.088384 0.679353 -0.420831 255 255 0
-1.093405 0.636490 -0.441935 255 255 0
-1.090954 0.628782 -0.420262 255 255 0
-1.068405 0.677151 -0.422874 255 255 0
-1.087785 0.626064 -0.407935 255 255 0
-1.079311 0.683558 -0.442223 255 255 0
-1.078460 0.591367 -0.414793 255 255 0
-1.035176 0.602613 -0.424931 255 255 0
-1.021993 0.655017 -0.422850 255 255 0
-1.123503 0.629566 -0.426929 255 255 0
-1.108438 0.642722 -0.442095 255 255 0
-1.049551 0.679277 -0.442113 255 255 0
-1.030357 0.644527 -0.414350 255 255 0
-1.021969 0.669325 -0.431935 255 255 0
-1.040214 0.607773 -0.415018 255 255 0
-1.105821 0.664657 -0.420777 255 255 0
-1.180257 0.529172 -0.427935 255 0 0
-1.065217 0.457692 -0.437935 255 0 0
-1.066965 0.543940 -0.427935 255 0 0
-1.146923 0.452046 -0.413935 255 0 0
-1.112605 0.459586 -0.446928 255 0 0
-1.181785 0.480425 -0.428687 255 0 0
-1.069264 0.499961 -0.425935 255 0 0
-1.096539 0.458216 -0.408598 255 0 0
-1.157723 0.458953 -0.448890 255 0 0
-1.171833 0.459907 -0.415195 255 0 0
-1.118483 0.456746 -0.421935 255 0 0
-1.091263 0.454180 -0.433935 255 0 0
-1.072185 0.457129 -0.413935 255 0 0
-1.136299 0.463550 -0.437935 255 0 0
-1.180707 0.504732 -0.427158 255 0 0
-1.181006 0.459812 -0.441935 255 0 0
-1.069578 0.477021 -0.425935 255 0 0
-1.070875 0.521239 -0.431935 255 0 0
-1.157531 0.459856 -0.427935 255 0 0
-1.080057 0.458802 -0.448761 255 0 0
-1.135889 0.465479 -0.419935 255 0 0
-1.106115 0.461264 -0.431935 255 0 0
-1.096539 0.458216 -0.448752 255 0 0
-1.142684 0.452751 -0.447935 255 0 0
-1.077482 0.461296 -0.427935 255 0 0
-1.174548 0.543326 -0.429935 255 0 0
-1.181199 0.463943 -0.427212 255 0 0
-1.140532 0.453254 -0.427427 255 0 0
-1.156891 0.462865 -0.413045 255 0 0
-1.084896 0.464895 -0.415935 255 0 0
-1.105725 0.463099 -0.417935 255 0 0
-1.167726 0.459989 -0.437935 255 0 0
-1.096411 0.454099 -0.421935 255 0 0
-1.074034 0.487137 -0.431935 255 0 0
-1.149277 0.460211 -0.439935 255 0 0
-1.083376 0.452805 -0.417935 255 0 0
-1.063718 0.530982 -0.429935 255 0 0
-1.076979 0.454042 -0.437935 255 0 0
-1.181034 0.493573 -0.431935 255 0 0
-1.066147 0.461979 -0.423935 255 0 0
-1.177849 0.518179 -0.423935 255 0 0
-1.068830 0.511622 -0.423504 255 0 0
-1.129087 0.459000 -0.426927 255 0 0
-1.113853 0.453717 -0.437149 255 0 0
-1.170292 0.457535 -0.448789 255 0 0
-1.136014 0.454338 -0.415935 255 0 0
-1.169877 0.459491 -0.426931 255 0 0
-1.069242 0.461587 -0.447935 255 0 0
-1.063090 0.485865 -0.429935 255 0 0
-1.146694 0.462743 -0.418929 255 0 0
-1.101519 0.454024 -0.439935 255 0 0
-1.073990 0.506585 -0.432923 255 0 0
-1.107598 0.454286 -0.423935 255 0 0
-1.088825 0.460666 -0.425935 255 0 0
-1.085740 0.460925 -0.439935 255 0 0
-1.105625 0.453948 -0.411935 255 0 0
-1.072453 0.453096 -0.423935 255 0 0
-1.138459 0.453385 -0.437935 255 0 0
-1.095292 0.464085 -0.416896 255 0 0
-1.084386 0.457677 -0.408781 255 0 0
-1.181000 0.512973 -0.432921 255 0 0
-1.147320 0.459799 -0.429935 255 0 0
-1.177433 0.472040 -0.423935 255 0 0
-1.071693 0.469292 -0.430880 255 0 0
-1.095922 0.461118 -0.437935 255 0 0
-1.069076 0.491227 -0.422949 255 0 0
-1.074113 0.496387 -0.432913 255 0 0
-1.097873 0.461560 -0.427935 255 0 0
-1.105612 0.454010 -0.448930 255 0 0
-1.175957 0.459746 -0.433935 255 0 0
-1.177923 0.537068 -0.423935 255 0 0
-1.067911 0.525563 -0.423935 255 0 0
-1.083094 0.454134 -0.429935 255 0 0
-1.074697 0.464781 -0.417935 255 0 0
-1.158885 0.453488 -0.441935 255 0 0
-1.114805 0.458855 -0.429935 255 0 0
-1.146962 0.451862 -0.435935 255 0 0
-1.087380 0.453208 -0.443935 255 0 0
-1.178165 0.487834 -0.425493 255 0 0
-1.175720 0.497538 -0.425935 255 0 0
-1.149441 0.459437 -0.409935 255 0 0
-1.163592 0.460200 -0.420936 255 0 0
-1.067678 0.536279 -0.423935 255 0 0
-1.071903 0.463203 -0.439935 255 0 0
-1.137291 0.462789 -0.427935 255 0 0
-1.101528 0.453986 -0.429935 255 0 0
-1.130147 0.459225 -0.441935 255 0 0
-1.091253 0.454226 -0.413935 255 0 0
-1.141196 0.459752 -0.411935 255 0 0
-1.067335 0.456098 -0.429935 255 0 0
-1.074250 0.453478 -0.445935 255 0 0
-1.139090 0.460040 -0.445935 255 0 0
-1.104165 0.460817 -0.443935 255 0 0
-1.173127 0.453821 -0.441935 255 0 0
-1.181293 0.521214 -0.430840 255 0 0
-1.147326 0.459769 -0.447935 255 0 0
-1.146575 0.453684 -0.421935 255 0 0
-1.071878 0.530672 -0.429935 255 0 0
-1.112727 0.463701 -0.421935 255 0 0
-1.087882 0.460465 -0.448951 255 0 0
-1.157542 0.459806 -0.435935 255 0 0
-1.064833 0.516906 -0.427935 255 0 0
-1.181463 0.539652 -0.430925 255 0 0
-1.175973 0.459669 -0.421935 255 0 0
-1.075321 0.476197 -0.431935 255 0 0
-1.075200 0.515020 -0.429935 255 0 0
-1.111101 0.461311 -0.437935 255 0 0
-1.132917 0.457769 -0.433935 255 0 0
-1.155572 0.459454 -0.419935 255 0 0
-1.164964 0.463365 -0.413935 255 0 0
-1.111481 0.455258 -0.417253 255 0 0
-1.065986 0.505763 -0.429935 255 0 0
-1.079434 0.461734 -0.435935 255 0 0
-1.140139 0.459304 -0.421935 255 0 0
-1.081823 0.460113 -0.421935 255 0 0
-1.142992 0.460922 -0.435935 255 0 0
-1.181730 0.471063 -0.429935 255 0 0
-1.071184 0.462070 -0.431935 255 0 0
-1.134247 0.453963 -0.423760 255 0 0
-1.150729 0.453377 -0.442046 255 0 0
-1.079045 0.453946 -0.411935 255 0 0
-1.163829 0.459082 -0.443935 255 0 0
-1.089232 0.454116 -0.421935 255 0 0
-1.089707 0.461502 -0.411935 255 0 0
-1.105905 0.462251 -0.424928 255 0 0
-1.107620 0.454184 -0.433935 255 0 0
-1.177104 0.458983 -0.447935 255 0 0
-1.075020 0.453642 -0.430321 255 0 0
-1.070323 0.485358 -0.426418 255 0 0
-1.079518 0.461338 -0.411935 255 0 0
-1.099573 0.453564 -0.415935 255 0 0
-1.088857 0.460672 -0.433935 255 0 0
-1.122605 0.460640 -0.425935 255 0 0
-1.109524 0.454842 -0.442123 255 0 0
-1.100266 0.459920 -0.421935 255 0 0
-1.089839 0.460881 -0.418909 255 0 0
-1.079011 0.454106 -0.423935 255 0 0
-1.077928 0.459197 -0.441935 255 0 0
-1.095290 0.454475 -0.441935 255 0 0
-1.085066 0.454477 -0.437935 255 0 0
-1.177872 0.479593 -0.423510 255 0 0
-1.092022 0.460229 -0.443935 255 0 0
-1.161636 0.459784 -0.409659 255 0 0
-1.073802 0.492232 -0.427935 255 0 0
-1.102408 0.459463 -0.412977 255 0 0
-1.070200 0.456707 -0.441935 255 0 0
-1.083773 0.460559 -0.429935 255 0 0
-1.065702 0.478242 -0.430893 255 0 0
-1.065456 0.498637 -0.430917 255 0 0
-1.070897 0.453800 -0.435935 255 0 0
-1.093247 0.454463 -0.427935 255 0 0
-1.102226 0.460320 -0.437935 255 0 0
-1.077075 0.453592 -0.417935 255 0 0
-1.072753 0.464306 -0.423935 255 0 0
-1.155587 0.459380 -0.441935 255 0 0
-1.165771 0.459568 -0.431935 255 0 0
-1.146219 0.493837 -0.425935 255 125 0
-1.103505 0.531260 -0.367040 255 125 0
-1.148742 0.491584 -0.365935 255 125 0
-1.101246 0.518512 -0.449935 255 125 0
-1.103369 0.493418 -0.399935 255 125 0
-1.121762 0.531940 -0.411935 255 125 0
-1.143272 0.531534 -0.371935 255 125 0
-1.110696 0.487806 -0.362663 255 125 0
-1.115605 0.482715 -0.445935 255 125 0
-1.151008 0.508642 -0.395935 255 125 0
-1.147620 0.516101 -0.450843 255 125 0
-1.132196 0.482855 -0.391935 255 125 0
-1.099739 0.514102 -0.419935 255 125 0
-1.124145 0.511111 -0.370832 255 125 0
-1.122338 0.481133 -0.417935 255 125 0
-1.103627 0.521063 -0.393385 255 125 0
-1.146585 0.520973 -0.423935 255 125 0
-1.120939 0.530877 -0.437935 255 125 0
-1.141288 0.488174 -0.450670 255 125 0
-1.099557 0.507930 -0.371935 255 125 0
-1.103916 0.492499 -0.427935 255 125 0
-1.154737 0.511480 -0.372917 255 125 0
-1.122596 0.531229 -0.389935 255 125 0
-1.130517 0.481132 -0.369935 255 125 0
-1.124041 0.530840 -0.363935 255 125 0
-1.113157 0.484239 -0.383935 255 125 0
-1.102333 0.498296 -0.450937 255 125 0
-1.144641 0.491638 -0.405935 255 125 0
-1.128515 0.490554 -0.433935 255 125 0
-1.141398 0.497280 -0.383935 255 125 0
-1.151078 0.506613 -0.413935 255 125 0
-1.107056 0.509524 -0.435935 255 125 0
-1.148698 0.501412 -0.441935 255 125 0
-1.139502 0.506197 -0.365030 255 125 0
-1.110417 0.527599 -0.423935 255 125 0
-1.116807 0.482971 -0.401935 255 125 0
-1.107924 0.505619 -0.387935 255 125 0
-1.111659 0.521757 -0.377935 255 125 0
-1.107063 0.509525 -0.405935 255 125 0
-1.112338 0.494289 -0.413935 255 125 0
-1.121603 0.494213 -0.372906 255 125 0
-1.104752 0.525391 -0.409687 255 125 0
-1.147010 0.518974 -0.383935 255 125 0
-1.103324 0.493633 -0.375935 255 125 0
-1.114534 0.527470 -0.450847 255 125 0
-1.111698 0.502332 -0.365077 255 125 0
-1.146789 0.520014 -0.363503 255 125 0
-1.106293 0.527763 -0.438010 255 125 0
-1.132432 0.491364 -0.413935 255 125 0
-1.111201 0.495051 -0.439935 255 125 0
-1.131847 0.522972 -0.372911 255 125 0
-1.150498 0.514668 -0.435935 255 125 0
-1.115698 0.483515 -0.431935 255 125 0
-1.112700 0.516857 -0.364852 255 125 0
-1.128426 0.481351 -0.450778 255 125 0
-1.114718 0.526603 -0.399935 255 125 0
-1.114827 0.535711 -0.372934 255 125 0
-1.100394 0.499929 -0.415935 255 125 0
-1.134172 0.492796 -0.365177 255 125 0
-1.141596 0.486725 -0.435935 255 125 0
-1.137832 0.485198 -0.379935 255 125 0
-1.114726 0.492752 -0.393935 255 125 0
-1.134080 0.483608 -0.423935 255 125 0
-1.099244 0.499684 -0.437935 255 125 0
-1.128515 0.490553 -0.401935 255 125 0
-1.148846 0.495915 -0.393935 255 125 0
-1.147556 0.506786 -0.425935 255 125 0
-1.100786 0.515191 -0.381935 255 125 0
-1.117970 0.482444 -0.371935 255 125 0
-1.124608 0.489693 -0.383935 255 125 0
-1.149839 0.506349 -0.383935 255 125 0
-1.099404 0.520165 -0.369935 255 125 0
-1.131309 0.535125 -0.372896 255 125 0
-1.103667 0.492020 -0.387935 255 125 0
-1.147849 0.515026 -0.405935 255 125 0
-1.142200 0.498592 -0.415935 255 125 0
-1.148958 0.500188 -0.373935 255 125 0
-1.100260 0.510124 -0.395935 255 125 0
-1.126224 0.501330 -0.364130 255 125 0
-1.110102 0.529079 -0.387935 255 125 0
-1.101880 0.519665 -0.429935 255 125 0
-1.135920 0.494190 -0.393935 255 125 0
-1.102053 0.496192 -0.363935 255 125 0
-1.139795 0.514438 -0.372893 255 125 0
-1.099845 0.505946 -0.427935 255 125 0
-1.111054 0.486122 -0.421935 255 125 0
-1.106320 0.508395 -0.447935 255 125 0
-1.111821 0.492134 -0.450806 255 125 0
-1.145227 0.503324 -0.403935 255 125 0
-1.127514 0.481157 -0.407935 255 125 0
-1.120889 0.530866 -0.425935 255 125 0
-1.135172 0.529813 -0.363935 255 125 0
-1.124519 0.480521 -0.437935 255 125 0
-1.150558 0.504457 -0.363935 255 125 0
-1.141077 0.484040 -0.367935 255 125 0
-1.132830 0.489491 -0.443935 255 125 0
-1.132509 0.500621 -0.372914 255 125 0
-1.099602 0.501805 -0.381935 255 125 0
-1.109348 0.518189 -0.441935 255 125 0
-1.121234 0.524805 -0.372880 255 125 0
-1.110035 0.510157 -0.372894 255 125 0
-1.124601 0.489725 -0.423935 255 125 0
-1.120248 0.481348 -0.391935 255 125 0
-1.109277 0.518174 -0.417935 255 125 0
-1.113569 0.483910 -0.411935 255 125 0
-1.124854 0.531709 -0.401935 255 125 0
-1.150286 0.522802 -0.372933 255 125 0
-1.131138 0.516687 -0.364674 255 125 0
-1.112874 0.527118 -0.363935 255 125 0
-1.141379 0.497366 -0.435935 255 125 0
-1.141309 0.488079 -0.417935 255 125 0
-1.138006 0.485432 -0.399935 255 125 0
-1.099778 0.501843 -0.405935 255 125 0
-1.112731 0.492328 -0.403935 255 125 0
-1.135924 0.494173 -0.427935 255 125 0
-1.124806 0.488760 -0.364947 255 125 0
-1.122648 0.489296 -0.411935 255 125 0
-1.118030 0.530258 -0.380779 255 125 0
-1.145341 0.491080 -0.375935 255 125 0
-1.103259 0.513178 -0.363935 255 125 0
-1.112380 0.494298 -0.379935 255 125 0
-1.113572 0.493515 -0.429935 255 125 0
-1.130468 0.490983 -0.375935 255 125 0
-1.100633 0.515912 -0.409935 255 125 0
-1.119488 0.489675 -0.439935 255 125 0
-1.117567 0.503579 -0.372905 255 125 0
-1.149577 0.516517 -0.415520 255 125 0
-1.109341 0.518188 -0.401935 255 125 0
-1.128367 0.481630 -0.379935 255 125 0
-1.108415 0.498541 -0.421935 255 125 0
-1.103439 0.493091 -0.409935 255 125 0
-1.106320 0.508395 -0.415935 255 125 0
-1.124387 0.481114 -0.427935 255 125 0
-1.146524 0.492399 -0.443935 255 125 0
-1.141865 0.488297 -0.387935 255 125 0
-1.113955 0.525303 -0.411935 255 125 0
-1.100088 0.512132 -0.441935 255 125 0
-1.100639 0.499981 -0.391935 255 125 0
-1.147430 0.516996 -0.393935 255 125 0
-1.150320 0.498273 -0.409935 255 125 0
-1.108222 0.487280 -0.435935 255 125 0
-1.108800 0.487403 -0.371935 255 125 0
-1.106708 0.501271 -0.431935 255 125 0
-1.121836 0.488129 -0.449935 255 125 0
-1.149201 0.500080 -0.431935 255 125 0
-1.113187 0.524184 -0.431935 255 125 0
-1.137832 0.485195 -0.409935 255 125 0
-1.109303 0.518180 -0.385935 255 125 0
-1.118692 0.507908 -0.364010 255 125 0
-1.151063 0.499905 -0.419935 255 125 0
-1.106625 0.511477 -0.425935 255 125 0
-1.150775 0.510638 -0.443935 255 125 0
-1.133939 0.482523 -0.437935 255 125 0
-1.117274 0.495338 -0.364933 255 125 0
-1.122482 0.518936 -0.364823 255 125 0
-1.124600 0.489732 -0.393935 255 125 0
-1.107629 0.531095 -0.415935 255 125 0
-1.106282 0.503225 -0.397935 255 125 0
-1.117029 0.515733 -0.372925 255 125 0
-1.105584 0.521479 -0.362946 255 125 0
-1.106990 0.529956 -0.401935 255 125 0
-1.106738 0.501277 -0.373935 255 125 0
-1.132593 0.509845 -0.371935 255 125 0
-1.147536 0.511994 -0.377935 255 125 0
-1.114709 0.526646 -0.441935 255 125 0
-1.103380 0.523055 -0.379935 255 125 0
-1.103334 0.493586 -0.443935 255 125 0
-1.126331 0.481587 -0.397935 255 125 0
-1.103041 0.504581 -0.364620 255 125 0
-1.139418 0.496975 -0.401935 255 125 0
-1.145302 0.503340 -0.391935 255 125 0
-1.134398 0.491733 -0.385935 255 125 0
-1.109264 0.487501 -0.397935 255 125 0
-1.117813 0.483184 -0.363528 255 125 0
-1.146496 0.511773 -0.364936 255 125 0
-1.106708 0.525807 -0.372473 255 125 0
-1.099652 0.507950 -0.387935 255 125 0
-1.130295 0.482177 -0.415935 255 125 0
-1.138548 0.520307 -0.365136 255 125 0
-1.107247 0.513654 -0.392927 255 125 0
-1.143122 0.498787 -0.364673 255 125 0
-1.142044 0.523095 -0.372908 255 125 0
-1.140750 0.500328 -0.372871 255 125 0
-1.123068 0.535418 -0.372924 255 125 0
-1.109571 0.497790 -0.389935 255 125 0
-1.120050 0.482281 -0.379935 255 125 0
-1.105883 0.491211 -0.417935 255 125 0
-1.147205 0.518057 -0.442901 255 125 0
-1.106704 0.501270 -0.443935 255 125 0
-1.106316 0.508413 -0.379935 255 125 0
-1.110119 0.519381 -0.425935 255 125 0
-1.118596 0.537219 -0.365935 255 125 0
-1.146447 0.507673 -0.435935 255 125 0
-1.111645 0.521821 -0.393935 255 125 0
-1.144001 0.490796 -0.397935 255 125 0
-1.106742 0.501278 -0.409935 255 125 0
-1.149681 0.514494 -0.427935 255 125 0
-1.108918 0.487428 -0.443935 255 125 0
-1.101075 0.516431 -0.401935 255 125 0
-1.153489 0.517349 -0.367024 255 125 0
-1.108574 0.517031 -0.409935 255 125 0
-1.141523 0.487070 -0.427935 255 125 0
-1.149138 0.495977 -0.385935 255 125 0
-1.133879 0.484555 -0.363529 255 125 0
-1.109330 0.518186 -0.449935 255 125 0
-1.116013 0.530130 -0.417935 255 125 0
-1.102144 0.518703 -0.437935 255 125 0
-1.118522 0.489469 -0.418885 255 125 0
-1.099908 0.512094 -0.433935 255 125 0
-1.129475 0.524512 -0.364622 255 125 0
-1.143169 0.527423 -0.365317 255 125 0
-1.150324 0.513003 -0.387935 255 125 0
-1.108573 0.517037 -0.433935 255 125 0
-1.103362 0.493455 -0.435935 255 125 0
-1.113142 0.484236 -0.391935 255 125 0
-1.117929 0.482638 -0.423935 255 125 0
-1.107125 0.499315 -0.381935 255 125 0
-1.099965 0.508016 -0.411935 255 125 0
-1.151240 0.508692 -0.403755 255 125 0
-1.107078 0.489081 -0.381935 255 125 0
-1.132436 0.491344 -0.421935 255 125 0
-1.119467 0.489670 -0.399935 255 125 0
-1.100745 0.497959 -0.423935 255 125 0
-1.137892 0.494532 -0.409935 255 125 0
-1.137892 0.494532 -0.377935 255 125 0
-1.137886 0.494560 -0.441935 255 125 0
-1.107087 0.524027 -0.445935 255 125 0
-1.121801 0.488121 -0.431935 255 125 0
-1.096698 0.513456 -0.367935 255 125 0
-1.113409 0.523142 -0.370841 255 125 0
-1.139804 0.485538 -0.443935 255 125 0
-1.112946 0.496463 -0.372907 255 125 0
-1.108403 0.487318 -0.407935 255 125 0
-1.118317 0.490432 -0.387935 255 125 0
-1.099814 0.503895 -0.443935 255 125 0
-1.124651 0.518351 -0.371935 255 125 0
-1.140873 0.490131 -0.363812 255 125 0
-1.112023 0.529660 -0.375935 255 125 0
-1.154512 0.503253 -0.369935 255 125 0
-1.130845 0.508446 -0.365009 255 125 0
-1.126409 0.481218 -0.363935 255 125 0
-1.126518 0.480709 -0.387935 255 125 0
-1.100343 0.499918 -0.369935 255 125 0
-1.136884 0.528132 -0.370784 255 125 0
-1.099938 0.509562 -0.403935 255 125 0
-1.099645 0.505904 -0.419935 255 125 0
-1.116074 0.529843 -0.392728 255 125 0
-1.134465 0.501037 -0.364602 255 125 0
-1.149911 0.510454 -0.419935 255 125 0
-1.125808 0.503286 -0.372913 255 125 0
-1.139851 0.494935 -0.421935 255 125 0
-1.110035 0.510157 -0.364784 255 125 0
-1.133463 0.486511 -0.450742 255 125 0
-1.143415 0.507028 -0.372899 255 125 0
-1.150699 0.501618 -0.397935 255 125 0
-1.105261 0.522996 -0.421935 255 125 0
-1.101576 0.514493 -0.373935 255 125 0
-1.129220 0.535331 -0.365935 255 125 0
-1.146363 0.493159 -0.413935 255 125 0
-1.108568 0.517057 -0.371935 255 125 0
-1.119444 0.489665 -0.377935 255 125 0
-1.112222 0.531068 -0.435935 255 125 0
-1.109033 0.495631 -0.365020 255 125 0
-1.146657 0.515896 -0.371935 255 125 0
-1.110914 0.534880 -0.367105 255 125 0
-1.142916 0.499757 -0.427935 255 125 0
-1.130121 0.481711 -0.443935 255 125 0
-1.130257 0.482354 -0.431935 255 125 0
-1.120063 0.482216 -0.409935 255 125 0
-1.148509 0.495843 -0.401935 255 125 0
-1.116074 0.529843 -0.407106 255 125 0
-1.118926 0.530449 -0.445935 255 125 0
-1.107470 0.497344 -0.403935 255 125 0
-1.100652 0.515823 -0.389935 255 125 0
-1.122318 0.481228 -0.445935 255 125 0
-1.145388 0.503358 -0.411935 255 125 0
-1.145887 0.501420 -0.379935 255 125 0
-1.124372 0.481182 -0.373935 255 125 0
-1.142153 0.498582 -0.395935 255 125 0
-1.137521 0.534757 -0.367935 255 125 0
-1.105705 0.523549 -0.399935 255 125 0
-1.126763 0.489176 -0.440937 255 125 0
-1.116379 0.489932 -0.445935 255 125 0
-1.116372 0.489963 -0.371935 255 125 0
-1.132261 0.482549 -0.401935 255 125 0
-1.146338 0.493277 -0.433935 255 125 0
-1.117868 0.531022 -0.431935 255 125 0
-1.149022 0.528667 -0.369935 255 125 0
-1.108949 0.527426 -0.381456 255 125 0
-1.145319 0.503344 -0.419935 255 125 0
-1.151541 0.497656 -0.365935 255 125 0
-1.130921 0.488850 -0.395935 255 125 0
-1.109989 0.495834 -0.397935 255 125 0
-1.130921 0.488851 -0.427935 255 125 0
-1.102953 0.518875 -0.415935 255 125 0
-1.130915 0.488879 -0.407935 255 125 0
-1.136364 0.492104 -0.435935 255 125 0
-1.108645 0.487838 -0.427935 255 125 0
-1.105897 0.505188 -0.423935 255 125 0
-1.107754 0.515806 -0.379935 255 125 0
-1.112407 0.522929 -0.405935 255 125 0
-1.118317 0.490431 -0.425935 255 125 0
-1.116378 0.489934 -0.409935 255 125 0
-1.099646 0.503859 -0.397935 255 125 0
-1.099960 0.499837 -0.430426 255 125 0
-1.106931 0.524761 -0.429935 255 125 0
-1.103580 0.492427 -0.369483 255 125 0
-1.150490 0.506488 -0.375935 255 125 0
-1.115856 0.482769 -0.439392 255 125 0
-1.109006 0.487447 -0.387935 255 125 0
-1.128404 0.495659 -0.371935 255 125 0
-1.128719 0.489592 -0.388912 255 125 0
-1.099549 0.507928 -0.379935 255 125 0
-1.099980 0.505975 -0.435935 255 125 0
-1.119868 0.531231 -0.397935 255 125 0
-1.112691 0.492319 -0.421935 255 125 0
-1.111213 0.485375 -0.377935 255 125 0
-1.115776 0.483147 -0.417935 255 125 0
-1.136115 0.483653 -0.371935 255 125 0
-1.103010 0.520932 -0.385935 255 125 0
-1.128497 0.481015 -0.421935 255 125 0
-1.107082 0.509529 -0.397935 255 125 0
-1.135994 0.484222 -0.385935 255 125 0
-1.105905 0.491108 -0.393935 255 125 0
-1.122909 0.531295 -0.419935 255 125 0
-1.119278 0.524389 -0.365281 255 125 0
-1.135945 0.484452 -0.417935 255 125 0
-1.099838 0.512079 -0.425935 255 125 0
-1.117983 0.501623 -0.365365 255 125 0
-1.125685 0.513483 -0.365096 255 125 0
-1.109789 0.530551 -0.394082 255 125 0
-1.140211 0.512482 -0.365146 255 125 0
-1.131138 0.516687 -0.372913 255 125 0
-1.105536 0.492843 -0.450769 255 125 0
-1.106590 0.511469 -0.385935 255 125 0
-1.125515 0.495045 -0.364957 255 125 0
-1.143329 0.497813 -0.441935 255 125 0
-1.136028 0.484064 -0.429935 255 125 0
-1.126559 0.490134 -0.417935 255 125 0
-1.106318 0.503233 -0.437935 255 125 0
-1.126687 0.528009 -0.372921 255 125 0
-1.106639 0.511480 -0.441935 255 125 0
-1.112013 0.524890 -0.417935 255 125 0
-1.113460 0.484422 -0.367935 255 125 0
-1.146122 0.494294 -0.449935 255 125 0
-1.147474 0.511981 -0.399935 255 125 0
-1.139638 0.486318 -0.393935 255 125 0
-1.101378 0.512406 -0.448606 255 125 0
-1.142181 0.498588 -0.407935 255 125 0
-1.155153 0.509523 -0.367024 255 125 0
-1.143110 0.489226 -0.381935 255 125 0
-1.150138 0.504259 -0.407935 255 125 0
-1.107106 0.499311 -0.415935 255 125 0
-1.109990 0.495834 -0.445935 255 125 0
-1.265777 0.537385 -0.365935 255 125 0
-1.270630 0.671063 -0.397935 255 125 0
-1.223084 0.536231 -0.238145 255 125 0
-1.270876 0.628833 -0.289935 255 125 0
-1.214012 0.540436 -0.444885 255 125 0
-1.200025 0.529285 -0.316640 255 125 0
-1.261739 0.550581 -0.299935 255 125 0
-1.203418 0.523872 -0.381935 255 125 0
-1.270666 0.613819 -0.369935 255 125 0
-1.260036 0.497058 -0.440882 255 125 0
-1.263546 0.547882 -0.423935 255 125 0
-1.221121 0.564705 -0.351935 255 125 0
-1.247787 0.506591 -0.325935 255 125 0
-1.232279 0.512211 -0.279935 255 125 0
-1.223304 0.564055 -0.401935 255 125 0
-1.245750 0.506553 -0.395935 255 125 0
-1.270055 0.642315 -0.434197 255 125 0
-1.218926 0.555794 -0.285153 255 125 0
-1.213241 0.509602 -0.419935 255 125 0
-1.216024 0.508149 -0.347935 255 125 0
-1.266382 0.635400 -0.397935 255 125 0
-1.246215 0.542843 -0.267935 255 125 0
-1.227982 0.565897 -0.317935 255 125 0
-1.265830 0.537138 -0.331470 255 125 0
-1.249617 0.507600 -0.361935 255 125 0
-1.201110 0.539739 -0.411935 255 125 0
-1.266048 0.653731 -0.369935 255 125 0
-1.201757 0.537832 -0.351935 255 125 0
-1.244111 0.528432 -0.441935 255 125 0
-1.259441 0.519096 -0.297935 255 125 0
-1.219319 0.505845 -0.307935 255 125 0
-1.262169 0.532270 -0.395935 255 125 0
-1.207708 0.553409 -0.377935 255 125 0
