ply
format ascii 1.0
element vertex 1216
property float x
property float y
property float z
property uchar red
property uchar green
property uchar blue
end_header
-1.164160 -4.801541 -1.148493 23 14 11
-0.579965 -4.759767 -0.931137 66 58 44
-1.160890 -5.442079 -0.846629 47 23 8
-0.652083 -5.186783 -1.145090 23 23 29
-0.677870 -5.173271 -0.975968 37 23 20
-0.670959 -5.154999 -0.977497 48 26 21
-0.663811 -5.149800 -0.971119 48 26 18
-0.620904 -4.996715 -0.950970 53 23 16
-0.626163 -5.019363 -0.936804 51 27 12
-0.616529 -4.941722 -0.776137 59 28 20
-0.953368 -5.600452 -0.909017 48 23 10
-1.227144 -5.407140 -0.953830 51 24 13
-0.686896 -5.199544 -0.978727 39 28 25
-0.680649 -5.188526 -0.974365 40 25 21
-0.685017 -5.202965 -0.960988 43 28 18
-1.215339 -5.208387 -1.133370 9 8 11
-0.955394 -5.588502 -0.790623 48 23 14
-0.624476 -4.999759 -0.889302 52 25 12
-1.074487 -5.515287 -0.975964 29 16 11
-1.087992 -5.514121 -0.968141 36 21 15
-1.074726 -5.526825 -0.963410 34 19 10
-1.090624 -5.505841 -0.976499 24 17 10
-0.617452 -4.965767 -0.909887 50 25 12
-0.621105 -4.987514 -0.919137 52 23 8
-1.068061 -5.429879 -1.135882 13 14 16
-1.090054 -5.423565 -1.132693 13 15 15
-1.101775 -5.404289 -1.132858 12 13 14
-1.075187 -5.412017 -1.133568 14 13 17
-1.217976 -5.400218 -0.819403 48 23 10
-1.137856 -5.400674 -1.131080 13 15 15
-1.134441 -5.390987 -1.132392 10 11 11
-1.084973 -5.345209 -1.136785 11 9 12
-1.092773 -5.359440 -1.137019 12 12 12
-1.080389 -5.367776 -1.136116 11 10 14
-1.141422 -5.459597 -0.884779 50 22 10
-1.150527 -5.452061 -0.860716 50 22 12
-0.611689 -4.922454 -1.001325 37 20 16
-0.607320 -4.904540 -1.002138 34 19 17
-0.782026 -5.428979 -1.141296 23 25 34
-0.798742 -5.420830 -1.144158 16 21 26
-0.807992 -5.414382 -1.142971 19 19 22
-0.783868 -5.401194 -1.143686 14 20 26
-0.653386 -5.101977 -1.144916 18 18 23
-0.664552 -5.086953 -1.149056 12 14 18
-1.096131 -5.486148 -0.810824 49 23 9
-0.995242 -5.427248 -1.138177 12 12 12
-0.986348 -5.419530 -1.136996 10 8 12
-0.994560 -5.406823 -1.135802 11 8 12
-1.164590 -5.434488 -0.768023 44 22 10
-1.176697 -5.421846 -0.747984 45 21 9
-1.190236 -5.411575 -0.751364 44 21 9
-1.133418 -5.455284 -0.757116 47 23 9
-1.114358 -5.467180 -0.770502 48 23 9
-0.964193 -5.581412 -0.772104 52 22 12
-0.630986 -5.024620 -0.895688 55 25 14
-0.636481 -5.047550 -0.899654 54 23 19
-0.632010 -5.030296 -0.874012 48 24 16
-0.724079 -5.210970 -1.146013 20 21 12
-0.711069 -5.198872 -1.144281 15 15 16
-0.733789 -5.194480 -1.146674 17 15 18
-0.723697 -5.180825 -1.149484 14 15 15
-0.732491 -5.179579 -1.149209 12 14 14
-1.048805 -5.527697 -0.891988 50 22 11
-1.035269 -5.538616 -0.892540 51 23 12
-1.036895 -5.534519 -0.876646 49 23 11
-1.205980 -5.353473 -1.135112 12 14 14
-1.218662 -5.348663 -1.134031 12 14 13
-0.591964 -4.816607 -0.871012 54 35 27
-0.589403 -4.800017 -0.879824 53 39 27
-0.643399 -5.080390 -0.916437 49 23 16
-0.641061 -5.071609 -0.926016 49 24 14
-0.637428 -5.056028 -0.885948 49 21 14
-0.678997 -5.184535 -0.775425 55 23 20
-0.675794 -5.165269 -0.746746 55 24 19
-0.606003 -4.919767 -0.943637 55 27 17
-1.188800 -5.237452 -1.132238 7 8 12
-0.973045 -5.573526 -0.774453 50 22 11
-0.975154 -5.572352 -0.788366 49 24 12
-0.957915 -5.589971 -0.804322 49 24 11
-0.968463 -5.579571 -0.817265 47 22 13
-0.599509 -4.894967 -0.951735 51 26 14
-0.597420 -4.867767 -0.943637 54 26 16
-0.678653 -5.191791 -0.841289 50 27 20
-0.677035 -5.176291 -0.829892 53 29 19
-0.682104 -5.208629 -0.862561 48 27 23
-0.675406 -5.181499 -0.852108 49 25 20
-1.206178 -5.415435 -0.926266 48 21 12
-1.220659 -5.407060 -0.940076 46 20 12
-1.204627 -5.421200 -0.958584 47 20 12
-0.663844 -5.153696 -0.929823 47 29 16
-0.671343 -5.168840 -0.894591 50 24 20
-0.667527 -5.166477 -0.915778 53 28 19
-1.196090 -5.414195 -0.808104 45 21 10
-1.176680 -5.426675 -0.809407 47 23 10
-1.185626 -5.423303 -0.830303 47 24 10
-1.064230 -5.522957 -0.953260 41 23 13
-1.228956 -4.838351 -1.139619 37 24 15
-0.673110 -5.214210 -1.144999 24 27 33
-0.658831 -5.216168 -1.145668 25 27 31
-0.672542 -5.247145 -1.144229 26 27 34
-0.607879 -4.905767 -0.874137 55 24 16
-0.611132 -4.932767 -0.896137 52 26 15
-0.618237 -4.953767 -0.810137 56 26 14
-0.620339 -4.968645 -0.782688 52 25 14
-1.130482 -5.474726 -0.954658 44 19 10
-1.124609 -5.474119 -0.935113 46 22 11
-0.612863 -4.957396 -0.979256 50 25 15
-1.097638 -5.487087 -0.836974 48 22 9
-1.104810 -5.478291 -0.820968 50 22 11
-0.973340 -5.503283 -1.133281 17 18 20
-0.993572 -5.495751 -1.135432 11 13 14
-0.990820 -5.524164 -1.132281 15 17 22
-1.191064 -5.420188 -0.844431 48 23 10
-1.199468 -5.416565 -0.868794 49 22 10
-1.182984 -5.433298 -0.918049 45 20 12
-1.078057 -5.500749 -0.855970 50 22 13
-1.062320 -5.513165 -0.841402 48 21 10
-0.901261 -5.488079 -1.138207 15 19 23
-0.880211 -5.487383 -1.138528 17 21 25
-0.894126 -5.474165 -1.142350 20 21 21
-0.887010 -5.472124 -1.141626 17 20 22
-0.668182 -5.153298 -0.797948 48 21 10
-0.671601 -5.158429 -0.767218 50 25 14
-1.054528 -5.422254 -1.136600 12 13 17
-1.046522 -5.417505 -1.135121 11 11 13
-1.037795 -5.405734 -1.134966 12 12 12
-1.036771 -5.437101 -1.134368 12 11 19
-1.030308 -5.430413 -1.134006 12 12 18
-0.615268 -4.944165 -0.827887 53 25 15
-0.622430 -4.985105 -0.875077 55 29 20
-0.625220 -4.996579 -0.860259 51 25 14
-0.621107 -4.975767 -0.840137 53 27 16
-0.617792 -4.955767 -0.858137 52 29 11
-0.599815 -4.870267 -0.905137 50 21 16
-0.604225 -4.887767 -0.896137 57 26 15
-0.669163 -5.147401 -0.746256 55 26 13
-0.662974 -5.125918 -0.749909 45 22 10
-0.661923 -5.122767 -0.731137 56 24 12
-0.960868 -5.478787 -1.137103 13 13 17
-0.952120 -5.474513 -1.136343 13 14 15
-0.933152 -5.468501 -1.137555 14 14 15
-0.967544 -5.491931 -1.135718 13 14 17
-0.593886 -4.820644 -0.762637 49 26 14
-1.195757 -5.446842 -1.128622 17 18 21
-1.218600 -5.466680 -1.128064 15 20 20
-1.209323 -5.446043 -1.128956 18 20 26
-0.614939 -4.951892 -0.889449 50 21 15
-0.609985 -4.923767 -0.876137 47 24 17
-1.177339 -5.440451 -0.954555 47 22 13
-1.154568 -5.453647 -0.926788 46 23 12
-1.191820 -5.429398 -0.959020 44 22 12
-1.130321 -5.509277 -1.132270 15 18 23
-1.111538 -5.513454 -1.131869 15 16 19
-1.105515 -5.506131 -1.129964 17 16 21
-1.114011 -5.500743 -1.132462 19 17 25
-1.058770 -5.517145 -0.884179 49 23 11
-1.048070 -5.525137 -0.861701 49 24 10
-0.668368 -5.165852 -0.954856 46 27 17
-0.937285 -5.598239 -0.760644 49 22 13
-0.654335 -5.102480 -0.781028 52 23 17
-0.653921 -5.102306 -0.798012 51 24 13
-0.593061 -4.818210 -0.829388 42 24 13
-0.598737 -4.848293 -0.817291 54 26 16
-1.210451 -4.814694 -1.141890 35 22 13
-1.190375 -4.825005 -1.146075 18 18 10
-1.187219 -4.808234 -1.146497 27 19 12
-1.154847 -5.273856 -1.134816 11 9 7
-1.177461 -5.275188 -1.134348 10 9 12
-1.187302 -5.247779 -1.132395 11 7 10
-1.171096 -5.248137 -1.133795 9 7 8
-1.180846 -5.240817 -1.133207 11 6 12
-0.571911 -4.701112 -0.798258 69 59 44
-0.569966 -4.673434 -0.786444 69 61 44
-0.570117 -4.679636 -0.804430 69 60 42
-0.729204 -5.368786 -1.140839 26 26 40
-0.738922 -5.346767 -1.140612 21 21 34
-0.717343 -5.337989 -1.142218 25 27 41
-0.587721 -4.797767 -0.941137 34 21 11
-0.592113 -4.821753 -0.933949 44 23 9
-0.698953 -5.242065 -0.915013 45 28 21
-1.182407 -5.414043 -1.131299 16 17 20
-1.164313 -5.435995 -1.131766 17 16 22
-1.167261 -5.427620 -1.129070 15 16 21
-1.150785 -5.429704 -1.131737 13 13 17
-1.167120 -5.399893 -1.134591 15 17 22
-0.575248 -4.728903 -0.804637 50 37 29
-0.580984 -4.760454 -0.789699 51 30 18
-0.576079 -4.735767 -0.783137 50 36 27
-0.920472 -5.431179 -1.138896 20 14 14
-0.938556 -5.424639 -1.138674 15 12 16
-0.832897 -4.579162 -0.742921 49 42 34
-0.601217 -4.872767 -0.888637 57 24 11
-0.603833 -4.882181 -0.868262 54 27 13
-0.643121 -5.047485 -0.993871 32 21 17
-0.637560 -5.036529 -0.994499 39 23 15
-0.633844 -5.018116 -0.996395 40 24 14
-1.129556 -5.498089 -1.134053 20 19 26
-0.951826 -5.503340 -1.137043 16 17 18
-0.942441 -5.517681 -1.135946 21 21 21
-1.198329 -5.299573 -1.136716 12 12 14
-1.215610 -5.282605 -1.136640 12 12 14
-1.203868 -5.274422 -1.136409 11 10 13
-1.203025 -4.872019 -1.139525 29 20 14
-1.217510 -4.859912 -1.137490 31 21 12
-1.215797 -4.886241 -1.138867 23 20 13
-1.220327 -4.913700 -1.143122 24 20 17
-1.206904 -4.905640 -1.144567 24 21 16
-1.205475 -4.886741 -1.138416 29 20 16
-0.680418 -5.013119 -1.149644 14 14 20
-0.689950 -5.000464 -1.150694 14 14 20
-1.055137 -5.353554 -1.136384 9 10 8
-1.043892 -5.341034 -1.133226 8 7 11
-1.035831 -5.354362 -1.137676 13 9 12
-1.032061 -5.347918 -1.135132 12 9 10
-1.061825 -5.349268 -1.137614 11 11 11
-1.050887 -5.341212 -1.136681 14 10 10
-0.862998 -5.475412 -1.140953 21 20 24
-1.154376 -5.304878 -1.135861 9 10 12
-1.196150 -5.318278 -1.137703 12 12 13
-1.156758 -5.325451 -1.136057 12 12 12
-1.202652 -5.324308 -1.136819 12 12 13
-1.182566 -5.332262 -1.135128 12 12 12
-1.161911 -5.339128 -1.136537 12 12 12
-0.609165 -4.919515 -0.997035 42 23 15
-0.750887 -5.375476 -1.140805 19 22 29
-0.764063 -5.342543 -1.144549 16 16 20
-0.764626 -5.412727 -1.140387 24 29 37
-1.164207 -5.441993 -0.883372 51 23 10
-1.178515 -5.431234 -0.877992 49 22 10
-1.183514 -5.431959 -0.897341 49 23 9
-0.977583 -5.599856 -0.959697 45 21 16
-0.605403 -4.892419 -0.858762 56 27 15
-0.600837 -4.865017 -0.850637 57 27 13
-1.191373 -5.428565 -0.935245 48 21 11
-1.158992 -5.260464 -1.131281 9 9 13
-1.153337 -5.268539 -1.126040 8 8 14
-0.649341 -5.108475 -0.954864 48 25 17
-0.675163 -5.122083 -1.146780 14 14 18
-0.661338 -5.123091 -1.145252 14 14 18
-1.078459 -5.507008 -0.911198 48 22 10
-1.055635 -5.523058 -0.909374 48 23 11
-1.090637 -5.496860 -0.911917 48 21 12
-1.068591 -5.517454 -0.921913 45 21 6
-0.671603 -5.169795 -0.879030 55 26 18
-0.659805 -5.134188 -0.875285 50 27 15
-0.667703 -5.157689 -0.880495 50 24 17
-0.664449 -5.153619 -0.895889 50 27 22
-0.744669 -5.261483 -1.144240 14 14 19
-0.748655 -5.255190 -1.141887 16 15 17
-0.754120 -5.253668 -1.145876 14 15 22
-0.753398 -5.267129 -1.141712 16 14 20
-0.693933 -5.268474 -1.142557 25 24 28
-0.687877 -5.296800 -1.141313 26 29 35
-1.011089 -5.547325 -0.816101 49 24 11
-1.177562 -5.430910 -0.840121 48 23 10
-1.151949 -5.408157 -1.133548 15 17 21
-0.686594 -5.214081 -0.789564 37 22 11
-1.183527 -5.441592 -0.969739 33 19 10
-1.170302 -5.453660 -0.965441 30 19 13
-1.176912 -5.443844 -0.961890 34 21 11
-1.153583 -5.467179 -0.967126 18 13 10
-1.166687 -5.453318 -0.973121 18 11 11
-1.175604 -5.438314 -0.980760 12 11 12
-1.023523 -5.547162 -0.900455 47 23 11
-1.004409 -5.562410 -0.886763 49 24 11
-1.022766 -5.545351 -0.884568 49 22 11
-0.659606 -5.136991 -0.895993 49 24 16
-0.651660 -5.101544 -0.883191 47 24 15
-0.734996 -5.304395 -1.141033 17 17 23
-0.621947 -4.965193 -0.745095 55 22 13
-1.008980 -5.560021 -0.911851 46 21 10
-1.132238 -5.457934 -0.806819 48 23 11
-1.150513 -5.442947 -0.783543 47 23 9
-1.135274 -5.453995 -0.778219 48 22 11
-0.577396 -4.740454 -0.755512 49 38 21
-0.612828 -4.961236 -0.963009 52 25 16
-0.617738 -4.981656 -0.966177 57 25 17
-0.617809 -4.969480 -0.927137 55 26 16
-1.217490 -5.400852 -0.856686 45 21 8
-1.237441 -5.387691 -0.847161 47 21 10
-0.981337 -5.569624 -0.808225 47 24 15
-0.988232 -5.564648 -0.819905 50 24 11
-0.804312 -5.440956 -1.141553 22 21 31
-0.815915 -5.445219 -1.136620 20 20 28
-1.049985 -5.501705 -1.130417 15 18 21
-1.062332 -5.518026 -1.136713 15 17 24
-1.048924 -5.516083 -1.133254 15 16 18
-0.676705 -5.187398 -0.935153 49 25 14
-0.596436 -4.837003 -1.002564 24 18 12
-1.008573 -5.575596 -0.962102 35 21 20
-1.033300 -5.560214 -0.966367 31 22 21
-1.020426 -5.562773 -0.963949 33 21 14
-1.015369 -5.564336 -0.972231 35 19 19
-0.598496 -4.866055 -0.927887 53 24 15
-0.595513 -4.842982 -0.931137 55 27 15
-0.595967 -4.843204 -0.895012 56 26 15
-0.645318 -5.067987 -0.758262 53 26 13
-0.642239 -5.053767 -0.750137 56 23 14
-0.708386 -5.148561 -1.147189 13 14 16
-0.694259 -5.156287 -1.145806 11 14 16
-0.668942 -5.147109 -1.144994 14 14 17
-0.584378 -4.805686 -0.969463 44 23 15
-0.586615 -4.810497 -0.983066 38 21 15
-0.982272 -5.394412 -1.136032 13 8 10
-0.583910 -4.775767 -0.780137 54 26 16
-1.158903 -5.449487 -0.982234 16 11 9
-1.151121 -5.462115 -0.978510 21 13 12
-1.152371 -5.459347 -0.960858 40 21 11
-0.673629 -5.050428 -1.150555 12 14 20
-1.093358 -5.494401 -0.893433 47 21 12
-0.931124 -5.488764 -1.137958 22 18 25
-0.922199 -5.477993 -1.138828 15 15 22
-0.670181 -5.163468 -0.853445 52 25 12
-1.202781 -5.405289 -0.781646 46 23 10
-1.193972 -5.411864 -0.773114 47 22 10
-1.207385 -5.404369 -0.791940 48 22 10
-0.721249 -5.157812 -1.149918 13 15 17
-0.730948 -5.163325 -1.149659 13 14 17
-0.709429 -5.170849 -1.144963 14 14 18
-0.618854 -4.965211 -0.996765 37 22 19
-0.624605 -4.979760 -0.999684 35 19 18
-0.631289 -5.022475 -0.829637 56 26 18
-0.644579 -5.084142 -0.895012 49 22 15
-1.041311 -5.525063 -0.831420 48 23 10
-1.057231 -5.514642 -0.829019 50 23 11
-1.048350 -5.521119 -0.809627 51 23 10
-1.092044 -5.491829 -0.865655 50 24 14
-1.088759 -5.493452 -0.845429 51 24 13
-1.212248 -5.385027 -1.130406 16 18 18
-1.206350 -5.388578 -1.132620 15 15 17
-1.190117 -5.367057 -1.132975 13 14 14
-0.586370 -4.787425 -0.855637 53 51 33
-0.590024 -4.803588 -0.767918 47 25 15
-0.586684 -4.788767 -0.756137 47 25 16
-0.583748 -4.770767 -0.758637 45 25 10
-1.231392 -5.385690 -0.793316 50 22 10
-0.739117 -5.283741 -1.143843 16 15 20
-0.721827 -5.280701 -1.143111 17 17 21
-0.712652 -5.305069 -1.142899 17 18 20
-0.740798 -5.272208 -1.145692 17 16 17
-0.580881 -4.757566 -0.879606 65 60 44
-0.577232 -4.732267 -0.866637 67 58 43
-0.577974 -4.741392 -0.908231 65 57 41
-1.000850 -5.551631 -0.751035 52 22 10
-0.989821 -5.559580 -0.764015 49 23 9
-0.647290 -5.087471 -0.980653 47 22 17
-0.650502 -5.086719 -0.766715 46 25 7
-1.067869 -5.505342 -0.800131 51 24 12
-1.033411 -5.366462 -1.136116 12 9 11
-1.014806 -5.372846 -1.135617 9 9 10
-1.023449 -5.351743 -1.137264 14 11 11
-1.010533 -5.350995 -1.137666 6 6 7
-0.595216 -4.864724 -0.962693 51 24 15
-1.133458 -5.417634 -1.135104 11 14 15
-1.119775 -5.422082 -1.135305 12 14 16
-1.108714 -5.392195 -1.130917 11 12 13
-1.095038 -5.434642 -1.130970 10 12 11
-1.106475 -5.436052 -1.132629 13 15 17
-1.112841 -5.413880 -1.133486 14 15 17
-0.649083 -5.094155 -0.838067 50 23 17
-0.642891 -5.070267 -0.839137 49 23 16
-0.647487 -5.088634 -0.858637 48 23 16
-1.092710 -5.484009 -0.779308 47 23 11
-1.102598 -5.479296 -0.795007 49 21 12
-1.101614 -5.476509 -0.771154 50 24 11
-1.113768 -5.471379 -0.789545 47 21 12
-0.612534 -4.922586 -0.774404 58 27 18
-0.701047 -5.245293 -0.826735 45 28 17
-0.632965 -5.034956 -0.980589 45 25 14
-0.631449 -5.041959 -0.969832 51 23 12
-1.212413 -5.409018 -0.875739 48 23 10
-1.219973 -5.401631 -0.872321 49 24 10
-0.975303 -5.570032 -0.764855 51 23 12
-0.966819 -5.576772 -0.748466 46 23 13
-1.131154 -5.463169 -0.854922 49 23 10
-1.128651 -5.464724 -0.835181 49 22 10
-1.115707 -5.474812 -0.848790 49 23 10
-0.827505 -4.575008 -0.741653 50 41 37
-0.616805 -4.954767 -0.875262 55 23 13
-0.951960 -5.595272 -0.840033 49 23 11
-0.963976 -5.585480 -0.836184 50 25 12
-0.950726 -5.598201 -0.826334 51 23 9
-0.687079 -5.120841 -1.146012 14 14 19
-0.703956 -5.132583 -1.147350 13 13 23
-0.690206 -5.101207 -1.148315 13 13 21
-0.610982 -4.936458 -0.936997 51 24 11
-1.160547 -5.508396 -1.130084 20 19 24
-0.626111 -4.640387 -0.388200 157 129 86
-0.640448 -5.028618 -0.633691 54 28 18
-0.643050 -5.040467 -0.646537 57 26 15
-0.649108 -5.058650 -0.640516 55 26 19
-0.725951 -4.718945 -0.553261 93 73 46
-0.713728 -4.726420 -0.519617 95 70 40
-0.720653 -4.728469 -0.548479 93 69 41
-0.720046 -4.704767 -0.525518 93 73 46
-1.221836 -4.783414 -0.715640 151 134 110
-1.076087 -4.737799 -0.584614 137 71 35
-1.098173 -4.761517 -0.583658 140 77 37
-1.102423 -5.119767 -0.577713 127 72 40
-0.764779 -4.621928 -0.689843 78 62 39
-0.764537 -4.598849 -0.698946 78 65 39
-1.035923 -5.418517 -0.571215 141 86 58
-1.099923 -5.161267 -0.576651 133 77 39
-0.836923 -4.971080 -0.580734 131 75 35
-0.815785 -4.948869 -0.581271 130 75 43
-1.060173 -4.985017 -0.580444 133 72 40
-1.084592 -5.026863 -0.579649 128 74 47
-1.010444 -4.728364 -0.609564 135 70 40
-1.002775 -4.729843 -0.613425 139 96 66
-0.996885 -4.701812 -0.614183 134 78 43
-0.818198 -5.063473 -0.579653 133 76 47
-0.839066 -5.054582 -0.579172 135 76 45
-1.004533 -4.695261 -0.592126 108 68 43
-0.984941 -4.707430 -0.587512 136 76 40
-0.978953 -4.715486 -0.585048 130 71 35
-0.889625 -4.811353 -0.583368 132 71 38
-0.723106 -5.248063 -0.646247 53 24 15
-0.725349 -5.251377 -0.608665 48 23 13
-0.625432 -4.880257 -0.584368 135 74 38
-1.053609 -5.519835 -0.591894 51 26 10
-1.062713 -5.502296 -0.595433 51 24 12
-1.038870 -5.528114 -0.591769 48 24 12
-1.044694 -5.510114 -0.599654 49 25 11
-1.063741 -5.501771 -0.579201 50 26 11
-1.058196 -5.497854 -0.600019 50 25 10
-1.079221 -5.076901 -0.578715 122 70 44
-1.147406 -5.291555 -0.574210 133 81 52
-0.970147 -5.001685 -0.579959 129 73 41
-0.568552 -4.760178 -0.471985 79 59 33
-0.576423 -4.760601 -0.489137 79 59 30
-0.565923 -4.759973 -0.499637 79 58 38
-0.655460 -5.077830 -0.608300 65 37 19
-0.662798 -5.100011 -0.607801 58 31 18
-0.668266 -5.114135 -0.628276 45 25 12
-0.715440 -4.600017 -0.516699 90 73 42
-0.595734 -4.834045 -0.726137 50 28 16
-0.601638 -4.863767 -0.706137 51 26 10
-0.599125 -4.852737 -0.726597 49 29 12
-1.049882 -4.596394 -0.723442 73 63 56
-1.058572 -4.590248 -0.721893 70 65 62
-1.035896 -4.581928 -0.723582 85 64 52
-1.046337 -4.577367 -0.720564 76 55 44
-0.997021 -4.838171 -0.622116 128 115 100
-1.033134 -4.832474 -0.617128 162 129 107
-1.017182 -4.830068 -0.611704 168 150 128
-1.024088 -4.832328 -0.632956 171 154 129
-1.026235 -4.834386 -0.624915 170 154 129
-1.008311 -4.832872 -0.625530 169 151 126
-1.007283 -4.833524 -0.615988 171 154 133
-0.650960 -5.107331 -0.582845 133 76 47
-0.633258 -5.114027 -0.596148 91 60 49
-0.642684 -5.114561 -0.598824 135 73 51
-0.633134 -5.110206 -0.590426 122 73 41
-0.630248 -5.093963 -0.590419 118 71 51
-0.647204 -5.121848 -0.583890 135 75 46
-0.632841 -5.100038 -0.598375 134 74 45
-0.629045 -5.082995 -0.599350 133 77 51
-1.033344 -5.523879 -0.708425 47 23 11
-1.045622 -5.513123 -0.677419 48 22 11
-1.053789 -5.508134 -0.700605 50 22 10
-1.021423 -5.417767 -0.571190 141 85 55
-1.001820 -5.415630 -0.571813 142 85 57
-1.028534 -5.386684 -0.571972 141 86 55
-0.628466 -4.994598 -0.667135 49 29 20
-0.624109 -4.970828 -0.679592 53 25 20
-0.620370 -4.954087 -0.679323 51 26 20
-0.989845 -4.834585 -0.616934 158 125 100
-1.136215 -4.683939 -0.713580 83 62 54
-1.138035 -4.676285 -0.714421 64 57 55
-1.168259 -4.665739 -0.714681 60 55 54
-1.144646 -4.683408 -0.709262 92 71 63
-0.959257 -4.721250 -0.584473 132 72 32
-1.030443 -4.786420 -0.607471 141 80 48
-1.205323 -4.591975 -0.708727 70 69 66
-1.199818 -4.618986 -0.708965 78 71 63
-1.206089 -4.613473 -0.707548 70 68 67
-1.219405 -4.619847 -0.706463 63 63 56
-1.222039 -4.609836 -0.705449 63 64 59
-1.021122 -5.356355 -0.572572 141 90 64
-1.065982 -5.348815 -0.572759 138 87 55
-0.776601 -4.802033 -0.583888 134 69 36
-0.741799 -4.860039 -0.584048 132 66 31
-0.747991 -4.805129 -0.584360 134 67 30
-0.750630 -4.792581 -0.584862 132 65 26
-0.757479 -5.093090 -0.579379 137 75 50
-0.798117 -5.439010 -0.578313 95 62 51
-0.797351 -5.441315 -0.595002 138 73 46
-0.789980 -5.468807 -0.594111 139 76 42
-0.780442 -5.456670 -0.593116 73 47 46
-0.786526 -5.446895 -0.595586 107 69 54
-0.780790 -5.458430 -0.584221 64 52 46
-0.573024 -4.653767 -0.653793 73 56 44
-0.787423 -5.378767 -0.574318 132 72 42
-0.810667 -5.367786 -0.573343 132 73 43
-0.722242 -5.251428 -0.672635 42 21 13
-0.936716 -5.303061 -0.574071 140 86 59
-0.967427 -5.304735 -0.573728 140 84 58
-1.090239 -4.733647 -0.606868 138 73 38
-1.074973 -4.724514 -0.607167 134 70 39
-1.086312 -4.702478 -0.583397 133 72 35
-1.068142 -4.707231 -0.583544 132 70 35
-0.550439 -4.734129 -0.519025 77 66 43
-0.556068 -4.757740 -0.524207 84 64 36
-0.564580 -4.760278 -0.546295 81 61 34
-0.752314 -4.675706 -0.645107 79 67 42
-1.176249 -5.397832 -0.574987 139 88 64
-1.152495 -5.406502 -0.572444 139 92 62
-1.175374 -5.386618 -0.572941 143 88 57
-0.574391 -4.709767 -0.631137 59 49 33
-0.576477 -4.716453 -0.595648 68 59 39
-0.573754 -4.684472 -0.630653 76 61 56
-0.851321 -5.509298 -0.687468 25 11 2
-1.215362 -4.797091 -0.665517 71 48 27
-0.770423 -5.166767 -0.577578 138 77 45
-0.874017 -5.536933 -0.600169 47 25 13
-0.867296 -5.531961 -0.626634 41 22 9
-0.741331 -4.686319 -0.602409 89 70 44
-0.749497 -4.692801 -0.613176 88 72 46
-0.930798 -5.382517 -0.572918 135 79 53
-0.541081 -4.743818 -0.445536 52 44 34
-0.541200 -4.735081 -0.446488 70 58 39
-0.538572 -4.735791 -0.423116 47 42 33
-0.550211 -4.750520 -0.411547 78 61 40
-0.549496 -4.753629 -0.436912 49 38 34
-0.989863 -4.778682 -0.584318 134 70 35
-1.120051 -5.140561 -0.577826 128 72 42
-0.777565 -5.368531 -0.665596 51 26 13
-0.763176 -5.334549 -0.647526 51 25 12
-1.216051 -4.744126 -0.584420 144 81 50
-1.198051 -4.760527 -0.606784 136 75 37
-0.931423 -5.093767 -0.578501 126 70 50
-0.890571 -5.106475 -0.578110 129 80 46
-1.066879 -4.915274 -0.581671 131 74 40
-1.048337 -4.892816 -0.581902 128 71 40
-1.037854 -4.928639 -0.581047 132 73 40
-0.703530 -4.890007 -0.583592 127 62 30
-0.675423 -4.907767 -0.583107 127 60 31
-0.710068 -4.902943 -0.582965 122 62 28
-0.719423 -5.082767 -0.579586 128 77 50
-0.984709 -4.689603 -0.600038 77 54 37
-1.208901 -5.116081 -0.578712 131 74 41
-1.184866 -5.106771 -0.578351 130 75 40
-0.985483 -4.692703 -0.595866 81 57 39
-1.222293 -4.704617 -0.608364 140 75 54
-1.231114 -4.695571 -0.611247 144 77 49
-1.231418 -4.726109 -0.612356 133 84 61
-1.223471 -4.720731 -0.609289 138 83 49
-0.696255 -5.002671 -0.581065 128 72 43
-0.613836 -4.922767 -0.725137 51 27 20
-0.607618 -4.758733 -0.491128 80 55 31
-0.605770 -4.760721 -0.501980 82 57 35
-1.062429 -5.170237 -0.576311 131 76 45
-0.764001 -5.267293 -0.575545 139 76 49
-0.957936 -4.693273 -0.604076 65 48 39
-0.940283 -4.698949 -0.612676 97 61 41
-0.705291 -5.208520 -0.636429 52 21 10
-0.699502 -5.193067 -0.634412 51 24 10
-0.703803 -5.199490 -0.615502 49 24 11
-0.694085 -5.175827 -0.608432 50 23 10
-0.703947 -5.200232 -0.608593 47 25 13
-1.189165 -4.604838 -0.709926 104 88 83
-1.168710 -4.603369 -0.711792 118 90 79
-1.171150 -4.621488 -0.712259 67 66 70
-0.826835 -5.489345 -0.597489 93 52 33
-0.813821 -5.484015 -0.598156 93 46 37
-0.818050 -5.475424 -0.595222 91 52 26
-0.826580 -5.462565 -0.599898 137 78 41
-0.667502 -5.134985 -0.690137 57 26 14
-0.664337 -5.128767 -0.711137 53 27 13
-0.664104 -5.119133 -0.673637 60 28 18
-0.656209 -5.094663 -0.687387 55 25 10
-0.670435 -5.139704 -0.680515 59 28 18
-1.039714 -5.159880 -0.576448 133 77 48
-1.006662 -5.165522 -0.576511 130 76 46
-0.582132 -4.759642 -0.729637 49 26 19
-0.848423 -4.824017 -0.583711 137 73 40
-0.839338 -5.187734 -0.576981 132 84 52
-1.027388 -4.871180 -0.582285 126 71 37
-0.641044 -5.134046 -0.591978 115 71 50
-0.642400 -5.139722 -0.596733 120 71 50
-0.644176 -5.132462 -0.599231 139 80 48
-0.549142 -4.752324 -0.535574 47 37 26
-0.543034 -4.739001 -0.546984 48 42 33
-0.544345 -4.737570 -0.536640 76 60 38
-0.780363 -5.474666 -0.591773 33 39 45
-0.801757 -5.492258 -0.595442 59 42 49
-0.790385 -5.482870 -0.595058 38 39 38
-0.801678 -5.463546 -0.578860 55 45 52
-0.792085 -5.477496 -0.578543 46 42 47
-0.775383 -5.470870 -0.585813 44 38 48
-0.788671 -5.492364 -0.583930 40 39 52
-0.798927 -5.479933 -0.598413 78 54 42
-0.797595 -5.506166 -0.585500 33 38 51
-0.726303 -4.594985 -0.555445 93 74 44
-1.016377 -5.442867 -0.570913 138 82 51
-0.935423 -4.769267 -0.584478 132 68 32
-0.800075 -5.412722 -0.677943 53 25 17
-0.910881 -5.427253 -0.571496 136 79 50
-0.568659 -4.648411 -0.411394 163 132 92
-0.594007 -4.821267 -0.714637 48 27 15
-0.588119 -4.795108 -0.717512 49 23 14
-0.591932 -4.815173 -0.746389 49 27 10
-1.091923 -4.817017 -0.583014 134 72 33
-1.102923 -4.790267 -0.583029 136 74 33
-0.913287 -5.411736 -0.572107 134 80 50
-0.986418 -5.431641 -0.571419 140 80 55
-0.973608 -5.408798 -0.572014 140 80 55
-0.828261 -4.706271 -0.602778 48 45 42
-0.807373 -4.728542 -0.590758 82 53 38
-0.696086 -5.273629 -0.588038 119 72 43
-0.687399 -5.263603 -0.592122 110 66 43
-0.701386 -5.258834 -0.581137 136 81 48
-0.718462 -5.273521 -0.579885 141 77 50
-0.691308 -5.258772 -0.597545 139 77 45
-0.702668 -5.247186 -0.598962 130 74 42
-0.702737 -5.278115 -0.598195 138 78 49
-0.677463 -5.233088 -0.587417 131 75 52
-1.106393 -4.698823 -0.584433 139 73 38
-1.138995 -4.723367 -0.607767 136 73 36
-1.110329 -4.731914 -0.607797 136 72 36
-1.108491 -4.705536 -0.606726 137 73 36
-1.099676 -4.727142 -0.583985 138 74 39
-1.075047 -5.486541 -0.599943 49 22 11
-1.066017 -5.493891 -0.575016 65 33 19
-1.083560 -5.478565 -0.574560 65 33 19
-1.086273 -5.494653 -0.591768 49 22 11
-0.607423 -4.758327 -0.462137 77 58 31
-0.615423 -4.756588 -0.476137 76 58 35
-0.606412 -4.758320 -0.449657 76 56 31
-1.157688 -4.805783 -0.648872 155 138 109
-1.134464 -4.809773 -0.638234 154 139 111
-1.155835 -4.807544 -0.656849 155 138 113
-1.143279 -4.809265 -0.665535 156 138 119
-0.744982 -5.351210 -0.580237 126 77 48
-0.728866 -5.323566 -0.581228 45 38 44
-0.716658 -5.320880 -0.587969 52 44 44
-0.727287 -5.347475 -0.592106 58 45 45
-0.714220 -5.311681 -0.597636 132 78 51
-1.042812 -4.633611 -0.728090 69 57 53
-1.056858 -4.651324 -0.718320 65 52 47
-1.038290 -4.652129 -0.724670 52 46 46
-1.025111 -4.646472 -0.723427 98 75 69
-1.046463 -4.640740 -0.722270 90 73 66
-0.845057 -5.516332 -0.575013 135 76 45
-0.860716 -4.796993 -0.583736 142 73 35
-0.822734 -4.811486 -0.583685 138 71 33
-0.892001 -5.157564 -0.576456 138 81 53
-0.865489 -5.153971 -0.577137 135 77 56
-0.846591 -5.502332 -0.670943 37 20 11
-0.975456 -5.563776 -0.643545 51 24 13
-0.962554 -5.575616 -0.659749 48 21 13
-1.209750 -4.677225 -0.711674 123 93 84
-1.217481 -4.702123 -0.716989 47 46 44
-0.875128 -5.304106 -0.575069 148 88 57
-0.895032 -5.301978 -0.574594 149 88 54
-1.002895 -5.545848 -0.696693 48 23 10
-0.750020 -4.627507 -0.641560 91 72 50
-0.749411 -4.657889 -0.641100 86 71 44
-0.749047 -4.658632 -0.626415 88 72 49
-0.745059 -4.646402 -0.622262 89 71 50
-0.853673 -4.947642 -0.580657 126 73 46
-0.851446 -4.920212 -0.581454 131 73 47
-0.696938 -5.110865 -0.579793 136 76 51
-0.681628 -5.234787 -0.597973 136 73 46
-0.712281 -5.221437 -0.604235 139 77 46
-0.694668 -5.227761 -0.598314 136 75 51
-0.850760 -5.283131 -0.575261 144 84 50
-0.807474 -5.105248 -0.579272 134 79 48
-0.821233 -5.457003 -0.722860 41 20 16
-0.815300 -5.443487 -0.706942 44 21 13
-0.807322 -5.432113 -0.712186 43 20 9
-0.820464 -5.452127 -0.697100 52 26 9
-0.742173 -5.381873 -0.591571 39 38 44
-0.603281 -4.869482 -0.728807 50 28 17
-0.957152 -5.478524 -0.570516 132 81 54
-0.970473 -4.605398 -0.731570 76 65 62
-0.984564 -4.595398 -0.730552 61 58 60
-0.964707 -4.576435 -0.730219 66 52 43
-0.993217 -4.576131 -0.728177 68 52 43
-1.071614 -4.595494 -0.719310 70 66 66
-1.098410 -4.593238 -0.719424 67 66 63
-1.071003 -4.586656 -0.717573 102 79 66
-1.066095 -4.572087 -0.720184 122 82 57
-0.691899 -5.204005 -0.742529 47 27 20
-0.604578 -4.761425 -0.552503 81 61 33
-0.607423 -4.761166 -0.530637 81 61 32
-1.226022 -4.650138 -0.705638 60 55 49
-1.210066 -4.669324 -0.711688 61 48 40
-1.206475 -4.653882 -0.709487 61 62 65
-1.227486 -4.721392 -0.584725 138 75 40
-1.201901 -4.709089 -0.607992 144 76 42
-1.197160 -4.695137 -0.607339 143 77 42
-1.011069 -5.007056 -0.579585 129 74 43
-0.581613 -4.706476 -0.535328 64 56 38
-0.576135 -4.725435 -0.534034 79 64 41
-0.579489 -4.721329 -0.534753 80 64 45
-1.020902 -4.653911 -0.725501 67 54 49
-1.008369 -4.654298 -0.725261 55 46 43
-1.012020 -4.635556 -0.729772 81 63 55
-1.023985 -4.637522 -0.726274 54 49 48
-1.025879 -4.628916 -0.722563 50 46 45
-0.757645 -4.643181 -0.670734 84 66 43
-0.984170 -5.330512 -0.573091 145 88 55
-1.205423 -4.855767 -0.581897 135 75 41
-1.226918 -4.793083 -0.627534 53 25 12
-1.186792 -4.803197 -0.649166 54 26 13
-1.207350 -4.797953 -0.633092 54 26 11
-1.213652 -4.796307 -0.616394 54 28 9
-1.205516 -4.797470 -0.611628 132 91 68
-0.841089 -5.494805 -0.693889 45 21 14
-1.144974 -5.440218 -0.674456 51 23 11
-1.140506 -5.440842 -0.660107 49 23 11
-1.023143 -5.336324 -0.573353 142 87 63
-0.912664 -5.113151 -0.577348 131 80 47
-0.910990 -5.135180 -0.577252 132 77 53
-1.093423 -4.921767 -0.581309 129 74 40
-1.109673 -4.913267 -0.581142 125 69 34
-1.080788 -4.680019 -0.714972 41 35 32
-1.093112 -4.668637 -0.715688 31 30 31
-1.054971 -5.491822 -0.571319 127 79 52
-1.038772 -5.516538 -0.575310 87 50 22
-1.195423 -5.201767 -0.576192 124 71 44
-1.201183 -5.227304 -0.575795 123 72 44
-0.937648 -5.230845 -0.575255 137 85 52
-0.913414 -5.233015 -0.575970 141 82 56
-1.041199 -5.132452 -0.577023 133 73 45
-1.066982 -5.128473 -0.577672 130 71 46
-1.013095 -5.290567 -0.574065 138 86 57
-0.742807 -5.293451 -0.609280 50 25 12
-0.738308 -5.286632 -0.603944 115 68 44
-0.991386 -5.555787 -0.576316 127 76 47
-1.003803 -5.538561 -0.572374 118 71 46
-0.983838 -5.552189 -0.571791 132 76 52
-1.032354 -5.520152 -0.642618 50 24 10
-1.136026 -5.406533 -0.571686 141 92 59
-0.798763 -5.410653 -0.692871 51 23 13
-0.847726 -5.475590 -0.571000 136 77 42
-0.549486 -4.684646 -0.402717 114 92 66
-0.572306 -4.658267 -0.392051 160 131 93
-0.550589 -4.673235 -0.408508 120 100 68
-0.572267 -4.688158 -0.411701 147 118 82
-0.555162 -4.678993 -0.397895 114 96 67
-0.569307 -4.699138 -0.392358 158 127 83
-0.577485 -4.664325 -0.416013 153 131 98
-0.565433 -4.662095 -0.410620 163 133 95
-0.548018 -4.692912 -0.409384 148 120 78
-0.631741 -5.010892 -0.678407 49 29 17
-0.634324 -5.017790 -0.705044 54 23 12
-0.639871 -5.038158 -0.667089 51 23 9
-0.637631 -5.031502 -0.687551 55 24 16
-0.829988 -5.465242 -0.604148 56 26 9
-0.812008 -5.434237 -0.640713 52 24 16
-0.823809 -5.454799 -0.637280 56 26 12
-0.690083 -5.190083 -0.685195 44 23 14
-0.696766 -5.203735 -0.694963 30 17 10
-0.683905 -5.172148 -0.699259 48 25 25
-0.693189 -5.198776 -0.708557 44 22 18
-0.552198 -4.758123 -0.598389 46 37 33
-0.548513 -4.748267 -0.600458 65 47 29
-0.550650 -4.738068 -0.591136 78 65 48
-0.549526 -4.737856 -0.573124 79 65 44
-0.546886 -4.741150 -0.579044 78 64 41
-0.553071 -4.755763 -0.584410 62 46 32
-1.174978 -5.419289 -0.706908 43 21 10
-1.193739 -5.408233 -0.716386 45 21 9
-1.168401 -5.424967 -0.721257 44 23 10
-0.852279 -4.703293 -0.604323 58 48 37
-0.852161 -4.708362 -0.598673 63 47 32
-0.842275 -4.727420 -0.588930 117 63 34
-0.852517 -4.723119 -0.589398 113 60 33
-0.956056 -5.190213 -0.575983 130 77 48
-1.037048 -5.314142 -0.573591 135 82 61
-0.990202 -5.307736 -0.573955 135 87 61
-0.661828 -5.097447 -0.641559 49 24 11
-0.652067 -5.072618 -0.662770 51 24 12
-0.663509 -5.111809 -0.654222 51 23 12
-0.744543 -4.707942 -0.599863 92 71 48
-1.125248 -5.449817 -0.625077 47 23 12
-1.152406 -5.431903 -0.640472 47 22 10
-1.142779 -5.435813 -0.622272 46 20 8
-0.689043 -5.188870 -0.672148 49 24 12
-0.693856 -5.198349 -0.668376 51 23 15
-0.698295 -5.192434 -0.652141 52 25 12
-0.704318 -5.206650 -0.649066 51 22 12
-0.685464 -5.172402 -0.659310 54 24 14
-0.700121 -5.213076 -0.673831 48 23 11
-0.983963 -5.111762 -0.577602 127 72 39
-1.111872 -5.458507 -0.604424 51 23 12
-1.126382 -5.449485 -0.600025 50 23 10
-0.728798 -5.000454 -0.580989 132 71 39
-1.025546 -5.523991 -0.615040 48 22 11
-1.009553 -5.536112 -0.628972 48 25 12
-1.001350 -5.543363 -0.647975 54 24 11
-0.994461 -5.549088 -0.638030 52 23 13
-0.960428 -4.861618 -0.582385 130 74 41
-0.836110 -5.559203 -0.592471 43 43 49
-0.820368 -5.544496 -0.587720 38 39 48
-0.819366 -5.533805 -0.595261 37 41 49
-0.831928 -5.549787 -0.580984 39 41 47
-0.838469 -5.569125 -0.587976 39 40 46
-0.821808 -5.537009 -0.580427 40 41 49
-0.827601 -5.545266 -0.594154 53 43 44
-0.721316 -4.743356 -0.581482 86 49 32
-0.732894 -4.741153 -0.586800 75 53 30
-0.721494 -4.757983 -0.584860 120 56 25
-0.727141 -4.730717 -0.577863 88 69 41
-0.740020 -4.754619 -0.586804 128 66 33
-1.212926 -5.065688 -0.578874 129 73 44
-0.651060 -5.087028 -0.736642 52 23 15
-0.680872 -4.679988 -0.403665 145 116 73
-0.686750 -4.683406 -0.410551 146 116 75
-0.680841 -4.704391 -0.405282 141 115 75
-1.048051 -5.005430 -0.579823 135 76 43
-0.668533 -4.977196 -0.581784 128 72 37
-0.735400 -5.276193 -0.647544 47 25 14
-0.742507 -5.290958 -0.670979 50 24 9
-0.925337 -4.588088 -0.731423 29 28 28
-0.922630 -4.581708 -0.733500 63 50 40
-0.935118 -4.589968 -0.728691 66 52 44
-0.842048 -4.780026 -0.584402 132 65 36
-0.948846 -4.837992 -0.582686 139 77 35
-0.768212 -5.436160 -0.584332 39 35 44
-0.775758 -5.454475 -0.588305 35 40 44
-0.763397 -5.438223 -0.587691 42 43 56
-0.769146 -5.441209 -0.591419 40 42 40
-0.627501 -4.990733 -0.726971 58 24 15
-0.625502 -4.984439 -0.701289 53 26 13
-0.759257 -5.303499 -0.574972 140 84 52
-0.747152 -5.281484 -0.575936 136 77 47
-1.136596 -5.446584 -0.685054 47 22 9
-0.996749 -5.262222 -0.574628 138 84 58
-0.956048 -5.077642 -0.578553 123 76 45
-1.107544 -4.863813 -0.581512 130 72 43
-0.575642 -4.643995 -0.469137 73 57 42
-0.697654 -4.683038 -0.442811 101 78 48
-0.695239 -4.696347 -0.427900 125 101 65
-0.693707 -4.679081 -0.425986 130 105 67
-0.728238 -4.706142 -0.557575 90 73 49
-0.735433 -4.703434 -0.583265 90 72 47
-0.731059 -4.722350 -0.577516 91 68 46
-1.210073 -4.805449 -0.582577 128 67 39
-1.144423 -4.735767 -0.584577 134 74 41
-1.131687 -4.698729 -0.583699 138 74 39
-1.152025 -4.693990 -0.583400 134 72 39
-0.755601 -5.325978 -0.685301 50 22 12
-1.094781 -5.472793 -0.634135 45 21 9
-1.060153 -5.498253 -0.616089 44 21 10
-1.075334 -5.488187 -0.625083 46 22 12
-1.082706 -5.480453 -0.606379 49 22 11
-0.700460 -5.200832 -0.603794 127 72 47
-0.695519 -5.208576 -0.599455 135 73 54
-0.690451 -5.176542 -0.603329 141 78 52
-0.692798 -5.173142 -0.578786 134 75 41
-0.690682 -5.205895 -0.581329 131 77 49
-0.561334 -4.734792 -0.590055 73 60 36
-0.563454 -4.738437 -0.598579 70 53 32
-0.575082 -4.728854 -0.601247 69 52 27
-0.579197 -4.728502 -0.606860 92 49 21
-0.557872 -4.749150 -0.603351 92 45 16
-1.070173 -4.890017 -0.581801 127 71 40
-1.062923 -4.868767 -0.582321 125 70 37
-0.826606 -4.704653 -0.611143 72 52 34
-0.862274 -4.707353 -0.614796 114 62 39
-0.860923 -5.263517 -0.575690 141 85 52
-0.897326 -5.248540 -0.575137 146 88 52
-0.930001 -5.360105 -0.572952 140 82 51
-0.695690 -4.660384 -0.438617 104 83 52
-0.951379 -4.604236 -0.734037 69 59 54
-0.939528 -4.597380 -0.733676 69 56 52
-0.960152 -4.591700 -0.734805 55 54 54
-0.947083 -4.574806 -0.731195 60 50 44
-0.647809 -5.077025 -0.602336 133 74 45
-0.631501 -5.070405 -0.599571 129 72 39
-0.620645 -5.063465 -0.600161 110 73 51
-0.645242 -5.068430 -0.581651 137 77 49
-0.626704 -5.089639 -0.596194 74 52 45
-0.639145 -5.093146 -0.585330 135 77 46
-0.617940 -5.057975 -0.591274 82 64 46
-0.621180 -5.073377 -0.590724 77 62 51
-0.618154 -5.069186 -0.596708 79 54 45
-1.229271 -4.730740 -0.711638 35 31 35
-1.228007 -4.747861 -0.718092 59 44 34
-0.724645 -4.775352 -0.585249 125 64 26
-1.156048 -5.156392 -0.577423 129 76 43
-1.141423 -5.384109 -0.571920 139 87 60
-0.846319 -5.574960 -0.584228 38 39 51
-0.855059 -5.598007 -0.586704 53 41 46
-0.848101 -5.583463 -0.587220 37 40 41
-0.864454 -5.573058 -0.576356 104 76 67
-0.848704 -5.584141 -0.583966 40 41 48
-0.865897 -5.586833 -0.577578 60 48 46
-0.850767 -5.571561 -0.594731 109 75 52
-0.859969 -5.573340 -0.596400 130 76 49
-0.872093 -5.579334 -0.593863 130 77 48
-0.862573 -5.590764 -0.593435 91 55 39
-0.675226 -5.236556 -0.591852 135 73 50
-0.673560 -5.219980 -0.598349 132 72 45
-0.669255 -5.207402 -0.596593 130 72 51
-0.688381 -5.229547 -0.581028 130 68 43
-0.666702 -5.203430 -0.588656 126 70 46
-0.838222 -5.251345 -0.575978 138 81 55
-0.796987 -5.264649 -0.575807 139 76 49
-0.823182 -5.288219 -0.574893 146 82 58
-1.057513 -4.822354 -0.653162 173 153 131
-0.866948 -5.561143 -0.593068 128 74 49
-0.851675 -5.548318 -0.594536 130 73 45
-0.852164 -5.531731 -0.577290 131 76 50
-0.834974 -5.523221 -0.575158 133 74 49
-0.840463 -5.563830 -0.582351 40 37 42
-0.869538 -5.559760 -0.577188 136 82 47
-0.852085 -5.553585 -0.577209 138 83 55
-0.856885 -5.542858 -0.594394 134 81 48
-0.844480 -5.538891 -0.596617 90 49 33
-0.725730 -5.252376 -0.661405 49 24 10
-1.101932 -5.467604 -0.617183 46 19 10
-1.113641 -5.459187 -0.634428 46 20 12
-1.034816 -5.499037 -0.570302 135 82 49
-1.194423 -4.914517 -0.581459 132 74 36
-1.229798 -4.909517 -0.580582 131 73 44
-0.712478 -5.319091 -0.592190 39 38 42
-1.017086 -4.951891 -0.580692 127 74 41
-0.616552 -4.754462 -0.439166 81 61 34
-0.644023 -4.751902 -0.431286 82 57 34
-0.790907 -5.423285 -0.579149 130 72 35
-0.801224 -5.413563 -0.599947 107 62 35
-0.777774 -5.428538 -0.594709 120 76 48
-0.771660 -5.416882 -0.597225 128 69 42
-0.799209 -5.428147 -0.595263 132 72 47
-0.779981 -5.400644 -0.577928 138 74 49
-0.787590 -5.416065 -0.595642 129 71 46
-0.588519 -4.754796 -0.408129 87 68 39
-0.606644 -4.756747 -0.434384 82 60 28
-0.595780 -4.756881 -0.421282 82 56 33
-1.095493 -4.806264 -0.675792 170 155 133
-0.581365 -4.690579 -0.438387 73 60 40
-0.577046 -4.663892 -0.473887 67 53 37
-0.578575 -4.671767 -0.436137 85 69 56
-0.579013 -4.667310 -0.420158 83 68 50
-0.561675 -4.717854 -0.420200 139 113 83
-0.583209 -4.708162 -0.437269 94 80 57
-0.579374 -4.710917 -0.422757 111 99 71
-0.569096 -4.706840 -0.414495 111 99 71
-0.583591 -4.695508 -0.418888 111 101 74
-0.581546 -4.691758 -0.415930 112 97 78
-0.559027 -4.727132 -0.439936 72 61 41
-0.572555 -4.718831 -0.431712 81 69 43
-0.564538 -4.726821 -0.447750 74 59 44
-0.930303 -5.156582 -0.577004 140 84 51
-1.028798 -4.724767 -0.584157 136 71 35
-1.036153 -4.722369 -0.606047 137 72 38
-1.064161 -4.702743 -0.606645 139 73 38
-1.044219 -4.706368 -0.583800 138 74 34
-0.559782 -4.761471 -0.583103 79 58 31
-0.580596 -4.762815 -0.565727 82 59 36
-0.608369 -4.894130 -0.719985 49 27 17
-0.605887 -4.883891 -0.749690 52 25 7
-0.568502 -4.851617 -0.600311 82 54 47
-0.578040 -4.862313 -0.590660 137 80 49
-0.568937 -4.850327 -0.596136 41 33 37
-0.565550 -4.825433 -0.595506 85 58 44
-0.568942 -4.836810 -0.602875 135 78 47
-0.572939 -4.833973 -0.590366 132 77 44
-0.790979 -5.391018 -0.647376 54 26 15
-0.785647 -5.379120 -0.625220 46 27 10
-0.793296 -5.396569 -0.624819 54 26 14
-1.013460 -4.749984 -0.607078 135 69 33
-1.027184 -4.731410 -0.607254 128 67 30
-1.012490 -5.127278 -0.577411 137 79 50
-0.837058 -5.483315 -0.600015 106 67 39
-0.848981 -5.498260 -0.601173 45 26 10
-0.827512 -5.465700 -0.703256 49 26 8
-0.821777 -5.452816 -0.664658 52 23 12
-0.807079 -5.425130 -0.693014 54 25 14
-0.812635 -5.434937 -0.679090 54 22 16
-0.974128 -5.463466 -0.570779 138 81 55
-0.984947 -5.496404 -0.569605 125 77 52
-1.156081 -5.427436 -0.580841 50 26 11
-1.180615 -5.405134 -0.580896 52 24 11
-1.181585 -5.410250 -0.592467 47 22 10
-0.898020 -5.181387 -0.576723 142 84 53
-0.555169 -4.756667 -0.559860 77 63 40
-0.561529 -4.732947 -0.567125 75 63 42
-0.569651 -4.761837 -0.572140 81 55 25
-0.560784 -4.790839 -0.604630 98 62 44
-0.574149 -4.785343 -0.605826 120 60 28
-0.571891 -4.767141 -0.583928 98 49 20
-0.560782 -4.787312 -0.595224 76 49 36
-0.555715 -4.774315 -0.600220 45 34 34
-0.557093 -4.765232 -0.604176 59 41 31
-0.560397 -4.770142 -0.591400 94 57 30
-0.566467 -4.786344 -0.591241 120 61 28
-0.566150 -4.775681 -0.590006 100 54 20
-0.577356 -4.770601 -0.607094 105 48 17
-0.677725 -5.156679 -0.671269 50 29 20
-0.680398 -5.167324 -0.671238 56 28 18
-1.000597 -4.625261 -0.735895 30 31 30
-1.019901 -4.611641 -0.724151 96 76 69
-1.000550 -4.610420 -0.728877 92 69 63
-1.001850 -4.617148 -0.726469 55 42 36
-1.012010 -4.628534 -0.724749 32 30 30
-1.012275 -4.619782 -0.723072 47 37 34
-1.027747 -4.621611 -0.726833 76 59 57
-1.173481 -5.412536 -0.602198 46 24 12
-1.158320 -5.430277 -0.592317 51 24 10
-1.146010 -5.429194 -0.574899 115 75 56
-0.770027 -5.356361 -0.692880 49 24 18
-0.765635 -5.346398 -0.676536 52 25 13
-1.129738 -4.628037 -0.716081 63 68 66
-1.156323 -4.621737 -0.712700 65 68 70
-1.139493 -4.610208 -0.711803 116 90 78
-1.153418 -4.608930 -0.711282 108 90 79
-1.129918 -4.613692 -0.713365 117 91 81
-0.865096 -4.736123 -0.584688 130 69 33
-0.695711 -4.757897 -0.580846 81 44 20
-0.694270 -4.753441 -0.575887 69 45 23
-0.577593 -4.724471 -0.554890 76 63 43
-0.565616 -4.732148 -0.526397 74 64 37
-0.974754 -5.070118 -0.578352 135 77 47
-0.951514 -5.030421 -0.579018 132 75 43
-0.692175 -5.172481 -0.618136 48 23 10
-0.688877 -5.167899 -0.634431 50 25 13
-0.683187 -5.148384 -0.608794 48 24 12
-0.994936 -4.690038 -0.607720 131 76 48
-0.983570 -4.692811 -0.613840 135 73 39
-1.169743 -4.943651 -0.581300 134 74 42
-0.889652 -4.754752 -0.584421 134 69 35
-0.889298 -4.728173 -0.584190 128 65 30
-1.013533 -5.489406 -0.569905 132 82 46
-1.033923 -5.469767 -0.570245 141 81 50
-0.676631 -4.720535 -0.404518 149 118 82
-0.580345 -4.688767 -0.476137 69 54 40
-0.677005 -5.125281 -0.579186 139 81 46
-0.657617 -5.145538 -0.583630 135 77 47
-0.669923 -5.156767 -0.582378 140 78 49
-0.678638 -5.148235 -0.602947 92 52 33
-0.664024 -5.132813 -0.600599 141 76 48
-0.673762 -5.136977 -0.602173 137 78 49
-0.645256 -5.131538 -0.587472 137 76 55
-0.672547 -5.127764 -0.606428 45 25 11
-0.661952 -5.107961 -0.603120 142 76 51
-0.729253 -5.361218 -0.591945 76 48 38
-0.732315 -5.361384 -0.588912 66 46 46
-0.728222 -5.345071 -0.588177 45 38 42
-0.725869 -5.330631 -0.597006 116 68 48
-0.735491 -5.349949 -0.596981 131 73 44
-1.058343 -5.066778 -0.578318 117 65 39
-1.051867 -5.113362 -0.577946 123 70 39
-1.069053 -5.109010 -0.577843 119 69 42
-0.797906 -5.212755 -0.576366 134 82 55
-0.928971 -5.447905 -0.571416 132 82 44
-0.932150 -5.585417 -0.571340 137 82 44
-0.913205 -5.582139 -0.570026 136 78 49
-0.900835 -5.596976 -0.576000 133 77 48
-1.230108 -4.630292 -0.703353 61 58 51
-0.982946 -5.568022 -0.592005 53 24 14
-1.025923 -4.754267 -0.584145 130 70 34
-1.051649 -4.740091 -0.606224 137 71 36
-1.065272 -4.719199 -0.584512 132 72 29
-1.055365 -4.735256 -0.583984 134 71 34
-1.034608 -4.746674 -0.606730 133 67 33
-1.210409 -5.391781 -0.707338 44 21 11
-0.678232 -5.174968 -0.740977 46 26 15
-0.672040 -5.157046 -0.730060 55 28 18
-0.675598 -5.165556 -0.711733 48 28 11
-1.200589 -5.328551 -0.573433 143 91 60
-1.185605 -5.371042 -0.572331 140 86 58
-1.166153 -5.367117 -0.572422 137 86 57
-0.904157 -4.579593 -0.733757 52 48 40
-1.095326 -5.302921 -0.573205 135 82 62
-1.148972 -4.807871 -0.612128 135 88 66
-1.137178 -4.813806 -0.626709 138 115 92
-1.125732 -4.813225 -0.612846 109 74 56
-0.588828 -4.764918 -0.576491 76 52 35
-0.575423 -4.762221 -0.526137 82 61 33
-0.710682 -4.950064 -0.581939 131 68 36
-0.707962 -4.920269 -0.582276 125 65 35
-0.688298 -4.938267 -0.582650 127 66 37
-0.690349 -5.199845 -0.731672 28 16 11
-0.686657 -5.192945 -0.716333 49 26 15
-0.687633 -5.192568 -0.723041 29 15 11
-0.766998 -5.345887 -0.604219 54 27 17
-0.772601 -5.359176 -0.575510 138 77 51
-0.746578 -5.332482 -0.579616 134 77 45
-0.762220 -5.368975 -0.579982 130 74 48
-0.767048 -5.355712 -0.598520 128 72 46
-0.748450 -5.346135 -0.596887 136 74 50
-1.115473 -5.466737 -0.738742 48 22 11
-1.015506 -5.538131 -0.576898 53 22 16
-1.002268 -5.554517 -0.591814 52 22 11
-1.017768 -5.542537 -0.587823 48 25 11
-1.014095 -5.543577 -0.591808 49 23 11
-1.025088 -5.539005 -0.591630 50 24 12
-1.013465 -5.532581 -0.599690 50 24 12
-1.112170 -4.592258 -0.716776 78 72 64
-1.095894 -4.580764 -0.716765 106 78 58
-1.115898 -4.579530 -0.715095 75 54 46
-0.725130 -5.169775 -0.577650 138 78 51
-0.725673 -5.135392 -0.578459 138 77 44
-1.199304 -4.667171 -0.604827 121 67 45
-1.193979 -4.684218 -0.585397 110 65 43
-1.216849 -4.689660 -0.584581 150 80 52
-1.221286 -4.680609 -0.585894 138 73 47
-1.214374 -4.675517 -0.607186 140 75 44
-1.186643 -4.675339 -0.606472 138 78 34
-1.226154 -4.684669 -0.609346 144 77 41
-1.184328 -4.666856 -0.595095 104 65 42
-1.215104 -4.672690 -0.589685 119 70 40
-0.581321 -4.739267 -0.658387 55 47 27
-0.583803 -4.753129 -0.674574 47 34 27
-1.091183 -4.817234 -0.626808 161 143 119
-1.072636 -4.820316 -0.618172 155 117 95
-1.072020 -4.811070 -0.608579 145 91 63
-1.105976 -4.809371 -0.678768 170 155 133
-1.116790 -4.811397 -0.683398 171 154 134
-1.189123 -4.793668 -0.608254 132 91 69
-0.960866 -5.522791 -0.569069 133 75 53
-0.955439 -5.493955 -0.570001 128 81 50
-0.953923 -4.778017 -0.584364 133 68 38
-0.963764 -4.814822 -0.583500 133 74 34
-0.947292 -4.695551 -0.598553 57 47 42
-0.944312 -4.714443 -0.587293 113 63 33
-0.962107 -4.698743 -0.594372 116 65 39
-1.221401 -5.261062 -0.574772 125 73 45
-0.752755 -5.119429 -0.578667 138 75 49
-0.792665 -4.738559 -0.587117 122 65 35
-0.809423 -4.761767 -0.585672 127 64 28
-0.781197 -4.744744 -0.585823 128 65 28
-1.001179 -4.744306 -0.611272 153 116 87
-0.999984 -4.758300 -0.612645 156 117 91
-1.003999 -4.765489 -0.608290 136 77 42
-1.233042 -4.790637 -0.622708 94 60 39
-1.213890 -4.785687 -0.607958 146 109 89
-0.817284 -5.442488 -0.604206 54 25 15
-0.811326 -5.458747 -0.594576 127 71 48
-0.814235 -5.438998 -0.599623 93 51 30
-0.640135 -5.031415 -0.613772 55 28 12
-0.630528 -4.994079 -0.626148 53 28 21
-0.631165 -5.000952 -0.638164 54 26 15
-0.632980 -5.004913 -0.611773 52 27 12
-1.137179 -5.012415 -0.579629 128 72 42
-0.704982 -4.647767 -0.476137 88 74 47
-0.702836 -4.668829 -0.463691 94 76 51
-0.839491 -5.330803 -0.574216 146 87 51
-1.115318 -5.460266 -0.668257 48 24 13
-1.111487 -5.465473 -0.683996 49 25 11
-1.105657 -5.472397 -0.703794 46 21 9
-1.129343 -5.452313 -0.677659 49 24 13
-0.705173 -4.977642 -0.581449 127 70 43
-0.682923 -4.958267 -0.581955 130 67 35
-1.009989 -5.066110 -0.578300 128 71 45
-0.764330 -4.706513 -0.617013 88 67 34
-0.771999 -4.702119 -0.620118 91 67 40
-0.748955 -4.701047 -0.623900 84 65 36
-0.753088 -4.707211 -0.615151 80 69 44
-1.120607 -4.690264 -0.587734 114 64 38
-1.113718 -4.683391 -0.606194 139 74 40
-1.122297 -4.673358 -0.600121 84 54 38
-1.139337 -4.670373 -0.600228 68 56 44
-1.106933 -4.690188 -0.587769 120 67 37
-0.675838 -5.154114 -0.687615 59 29 16
-0.681257 -5.177130 -0.713235 56 31 14
-0.733972 -4.577267 -0.582402 94 77 55
-0.870423 -4.964017 -0.580499 131 78 49
-0.906001 -4.953381 -0.580312 129 75 47
-0.832423 -5.431267 -0.571882 128 71 41
-0.818213 -5.408712 -0.571735 130 72 45
-0.648426 -4.865760 -0.584371 136 68 31
-1.020429 -4.808010 -0.583515 136 72 33
-1.015730 -4.803553 -0.607757 139 78 33
-1.000326 -4.802906 -0.609813 137 75 36
-0.569835 -4.661148 -0.717951 70 61 48
-1.147114 -5.057736 -0.579107 120 66 42
-1.221163 -5.206074 -0.576342 127 74 43
-1.116923 -5.119017 -0.578013 128 70 43
-1.074641 -4.682280 -0.605774 125 68 40
-1.083704 -4.677194 -0.599845 65 53 48
-1.065398 -4.682735 -0.596154 115 72 34
-1.076843 -4.683889 -0.592748 89 57 47
-1.091924 -4.680820 -0.604311 122 69 35
-1.093617 -4.687205 -0.605779 135 69 39
-1.061992 -4.696039 -0.587761 128 71 33
-1.098584 -4.679036 -0.595516 121 66 40
-1.191877 -5.287629 -0.574131 133 83 44
-1.217405 -5.281874 -0.573958 132 81 49
-0.658772 -5.099343 -0.670887 51 25 11
-0.648646 -5.071367 -0.692012 49 23 14
-0.655337 -5.095767 -0.700137 49 26 15
-0.704151 -4.703824 -0.461175 92 73 43
-0.699746 -4.718056 -0.452158 99 76 45
-0.711797 -4.706267 -0.494992 95 73 42
-0.703109 -4.720758 -0.471017 94 71 47
-1.192446 -4.771001 -0.583451 137 73 39
-1.210726 -4.769901 -0.583813 132 68 37
-1.200061 -4.783654 -0.608261 132 71 40
-1.209058 -4.768856 -0.607218 136 73 39
-1.227107 -4.783368 -0.583292 133 72 34
-0.733904 -4.602642 -0.583498 91 73 47
-0.739871 -4.634582 -0.605529 91 73 49
-1.100786 -5.476001 -0.722832 48 22 10
-0.859480 -4.759389 -0.584735 132 68 34
-0.941392 -5.327204 -0.573939 133 80 54
-0.698668 -5.067390 -0.580583 135 74 48
-0.750865 -5.214198 -0.576716 142 81 48
-1.213012 -4.739717 -0.612799 140 102 84
-0.790852 -5.245446 -0.576499 141 81 55
-0.574095 -4.668093 -0.663033 71 62 47
-0.572800 -4.703017 -0.666387 74 61 48
-1.059423 -4.823767 -0.582974 137 70 36
-1.064071 -4.799162 -0.583529 131 70 33
-1.049322 -4.805626 -0.609054 133 73 37
-0.766347 -4.610196 -0.704776 73 59 40
-0.842854 -5.494206 -0.716663 29 12 11
-0.668408 -4.743437 -0.426263 82 64 33
-0.662974 -4.748005 -0.438805 95 72 41
-0.663235 -5.072158 -0.580215 137 78 44
-0.641423 -5.024267 -0.581938 136 75 50
