ply
format ascii 1.0
element vertex 1281
property float x
property float y
property float z
property uchar red
property uchar green
property uchar blue
end_header
0.771585 0.166912 0.296014 174 165 141
0.656209 0.089619 0.161924 28 24 22
0.629149 0.090006 0.145585 27 25 22
0.653170 0.106702 0.130316 19 25 14
0.656394 0.106966 0.154607 26 26 18
0.637336 0.096307 0.151071 40 33 26
0.649406 0.097571 0.157690 32 28 24
0.646404 0.103355 0.138498 26 24 19
0.638187 0.097934 0.132317 35 31 24
0.636851 0.079711 0.164070 29 27 20
0.780076 0.230259 0.389818 162 156 138
0.731597 0.314451 0.321153 190 83 69
0.749762 0.317509 0.304721 117 46 40
0.748810 0.317747 0.315562 189 72 54
0.721405 0.307932 0.304588 140 52 42
0.745427 0.312624 0.295033 164 56 47
0.713928 0.311383 0.327433 187 68 51
0.731388 0.293861 -0.067654 129 116 90
0.733241 0.271527 -0.036921 139 125 96
0.708973 0.096783 -0.013883 33 32 23
0.718292 0.093725 -0.027614 37 32 25
0.714378 0.102638 -0.019801 43 40 29
0.729339 0.092029 0.004716 30 29 19
0.726227 0.105816 -0.009394 56 52 50
0.716179 0.098390 -0.002007 40 33 31
0.717012 0.089758 -0.003321 22 21 16
0.666604 0.088105 -0.053429 21 20 16
0.681458 0.093622 -0.042693 30 28 16
0.669018 0.092206 -0.041486 19 19 12
0.673907 0.098860 -0.041797 28 27 17
0.671496 0.093641 -0.047929 24 25 17
0.733512 0.123001 0.018735 67 67 55
0.729835 0.115691 -0.022000 61 57 40
0.732064 0.318363 0.173549 54 53 40
0.716885 0.300016 0.173560 62 59 50
0.732996 0.285181 0.167224 67 48 39
0.731920 0.314706 0.166220 57 53 39
0.718199 0.308466 0.173676 64 59 48
0.714159 0.315946 0.178114 51 49 39
0.760805 0.239523 0.247913 143 134 110
0.759113 0.252909 0.232758 116 98 90
0.758023 0.247408 0.245437 133 124 103
0.761442 0.251255 0.259420 148 139 112
0.758170 0.242075 0.256523 150 139 112
0.767894 0.266751 0.251081 150 141 123
0.732712 0.300014 0.030629 112 99 83
0.734976 0.221374 0.046688 107 105 82
0.734533 0.256665 0.068130 90 84 78
0.733771 0.227285 0.033474 105 99 80
0.737173 0.319611 0.110795 106 96 93
0.737495 0.321565 0.124127 90 80 71
0.734890 0.337193 0.105640 102 89 89
0.732445 0.209403 -0.012314 98 89 75
0.732621 0.230859 -0.014036 109 94 83
0.722923 0.229604 -0.216293 114 99 78
0.725522 0.228165 -0.187368 104 97 82
0.747875 0.297514 0.260360 168 56 43
0.762257 0.298379 0.274470 168 56 43
0.765661 0.304155 0.295929 166 62 53
0.750753 0.303858 0.280715 177 57 47
0.732646 0.302389 0.283435 173 56 44
0.751314 0.309273 0.292025 152 55 45
0.779133 0.148266 0.373529 171 167 142
0.779212 0.163703 0.369954 171 163 140
0.735934 0.135269 0.080261 85 75 73
0.735127 0.161579 0.090120 84 74 79
0.733325 0.147067 0.067038 81 76 68
0.778087 0.123771 0.387822 171 169 142
0.777582 0.133895 0.374591 180 166 152
0.732292 0.270867 0.053770 96 92 78
0.732417 0.280669 0.057639 92 89 80
0.692177 0.055477 -0.037288 18 16 16
0.740542 0.119587 0.109227 74 68 70
0.741449 0.134477 0.124861 82 76 77
0.738259 0.113617 0.124854 68 65 59
0.734170 0.105514 0.125201 66 63 58
0.740048 0.113759 0.138194 58 55 59
0.732407 0.104415 0.110202 74 73 62
0.737088 0.120357 0.095893 69 68 68
0.736409 0.143652 0.103619 79 76 69
0.686786 0.145618 0.172304 44 36 27
0.690689 0.156286 0.176671 37 36 30
0.669304 0.156168 0.174068 48 43 32
0.663482 0.138654 0.166639 44 34 32
0.732222 0.335272 -0.035383 138 119 94
0.731481 0.358804 -0.046946 153 135 106
0.731694 0.354110 -0.027875 144 126 99
0.773905 0.112467 0.303998 171 159 138
0.759382 0.202901 0.305556 172 160 130
0.732659 0.189642 0.298295 195 176 142
0.714186 0.192100 0.298239 195 177 144
0.741593 0.197807 0.294354 193 174 144
0.739958 0.203492 0.290359 182 163 136
0.732279 0.200343 0.298383 186 167 138
0.738843 0.230944 0.237447 139 131 109
0.751715 0.234817 0.241800 147 138 119
0.751071 0.229392 0.260140 152 133 102
0.728177 0.232439 -0.117358 115 102 86
0.730331 0.250487 -0.106198 114 98 78
0.722221 0.032940 -0.027511 81 69 56
0.733681 0.058265 0.080214 27 23 18
0.732686 0.064680 0.088146 27 18 27
0.739102 0.057106 0.093346 59 55 46
0.730315 0.049590 0.068686 28 27 24
0.739565 0.021787 0.090365 44 46 32
0.733669 0.039931 0.075591 39 35 28
0.746118 0.217023 0.161465 48 44 38
0.737834 0.224922 0.148729 86 71 70
0.743442 0.232649 0.157789 42 39 30
0.747392 0.245199 0.165091 41 34 27
0.705190 0.245889 -0.353466 27 24 22
0.774005 0.145547 0.301100 170 165 146
0.773535 0.127758 0.291788 169 164 136
0.767442 0.147037 0.291884 170 166 142
0.736176 0.249287 0.127751 83 74 67
0.734756 0.245033 0.137196 81 73 68
0.719859 0.139670 -0.259860 81 79 64
0.718665 0.136181 -0.277729 58 57 43
0.720919 0.292608 0.262383 174 52 42
0.693292 0.283462 0.256782 179 55 43
0.702151 0.170000 -0.360066 26 23 25
0.712267 0.174119 -0.343885 26 23 16
0.703937 0.161706 -0.352405 25 22 15
0.727893 0.249581 -0.151334 121 109 92
0.719989 0.058887 -0.266046 119 102 69
0.719631 0.057405 -0.286413 97 79 52
0.718467 0.069983 -0.266319 128 108 77
0.731392 0.190871 -0.009578 85 77 65
0.736007 0.068227 0.115625 38 28 22
0.742464 0.058124 0.120973 52 47 37
0.732712 0.171239 -0.017465 97 94 70
0.729227 0.253540 -0.125546 133 119 97
0.728624 0.296703 -0.110150 155 139 112
0.729328 0.285210 -0.116581 144 130 101
0.730586 0.278813 -0.090518 155 138 109
0.728716 0.263116 -0.113059 140 123 95
0.720251 0.327408 -0.280850 157 137 104
0.729727 0.320913 -0.097699 158 136 111
0.711272 0.278125 0.217552 173 43 37
0.706015 0.106627 -0.346424 18 15 19
0.712226 0.100436 -0.354116 29 20 12
0.703491 0.087367 -0.357178 24 18 19
0.711291 0.074531 -0.345362 28 25 15
0.732321 0.223393 0.008146 115 106 91
0.732773 0.316359 0.052401 110 104 92
0.733665 0.303640 0.070872 95 92 80
0.759055 0.332777 0.364617 158 68 53
0.754374 0.327209 0.357840 159 59 43
0.755763 0.321406 0.355783 152 55 39
0.775553 0.316460 0.370866 160 110 97
0.773265 0.328241 0.385113 151 68 61
0.763632 0.326856 0.369971 146 62 51
0.770180 0.319380 0.360806 161 111 98
0.773916 0.001903 0.389234 160 148 131
0.782111 0.157092 0.422945 172 168 147
0.782317 0.167892 0.405223 167 168 150
0.779646 0.129334 0.402569 176 169 148
0.729669 0.154824 0.169814 35 33 26
0.731790 0.217567 -0.032655 110 101 88
0.731037 0.204128 -0.040996 109 92 81
0.765032 0.312211 0.312705 118 61 59
0.768697 0.309562 0.322154 116 41 32
0.717334 0.096327 -0.248192 93 78 48
0.719574 0.094949 -0.235632 77 67 40
0.721341 0.093161 -0.221024 62 51 37
0.720658 0.081236 -0.235483 88 80 52
0.715797 0.104902 -0.237792 40 38 24
0.714601 0.102328 -0.225854 43 44 25
0.775535 0.125523 0.336366 179 167 151
0.777431 0.151351 0.347512 170 166 145
0.778583 0.140382 0.355079 174 165 144
0.609567 0.080582 0.195124 54 47 29
0.725373 0.064248 -0.088212 21 19 16
0.615075 0.095396 -0.121259 28 28 17
0.764449 0.358401 0.269325 147 133 107
0.775139 0.381929 0.283045 116 112 87
0.777348 0.361735 0.287447 113 110 86
0.767432 0.353011 0.291266 110 98 79
0.727058 0.192494 -0.130046 100 92 74
0.727540 0.223771 -0.128046 104 95 76
0.725920 0.221688 -0.154546 99 90 77
0.723360 0.249276 -0.236790 116 102 89
0.722054 0.245645 -0.249750 101 98 81
0.771865 0.021136 0.235398 147 146 122
0.730546 0.197470 -0.030889 105 92 71
0.731428 0.181075 -0.037935 102 97 81
0.721028 0.075628 -0.035160 18 24 17
0.718136 0.080650 -0.049322 22 20 15
0.718462 0.087378 -0.049252 25 20 20
0.714674 0.080076 -0.029328 34 27 21
0.718211 0.097675 -0.035180 29 28 19
0.717284 0.087641 -0.035142 25 23 17
0.706921 0.093057 -0.040497 29 23 19
0.723241 0.108018 -0.021428 40 36 28
0.724658 0.106643 -0.036345 57 55 45
0.711540 0.097906 -0.036420 27 28 19
0.711501 0.088211 -0.053954 20 21 15
0.724119 0.106636 -0.056897 55 52 39
0.700114 0.095677 -0.047864 20 18 13
0.718319 0.103653 -0.044082 41 44 35
0.706554 0.097713 -0.049954 28 34 26
0.628223 0.100131 -0.322651 19 20 16
0.626137 0.123244 -0.318785 24 22 20
0.623392 0.097585 -0.318963 36 29 14
0.626822 0.115810 -0.314820 17 19 11
0.621337 0.105688 -0.304523 19 19 14
0.628434 0.125680 -0.337960 26 22 17
0.608823 0.128484 -0.344645 27 20 19
0.727642 0.096019 0.058121 25 29 20
0.721584 0.098883 0.051046 24 24 19
0.714861 0.103790 0.055919 27 27 18
0.717342 0.104427 0.043624 35 36 26
0.715002 0.101058 0.048663 28 25 17
0.730130 0.104155 0.068891 48 50 45
0.722131 0.099764 0.063941 37 34 23
0.735995 0.094788 0.038506 31 27 16
0.720219 0.067513 -0.243462 122 103 77
0.721824 0.057384 -0.235046 122 103 77
0.722375 0.034076 -0.228287 90 81 57
0.689207 0.226807 0.178543 85 74 64
0.677429 0.217192 0.174648 34 31 25
0.675283 0.223971 0.177386 40 30 24
0.658573 0.217938 0.178302 39 33 27
0.775640 0.275387 0.336953 166 157 142
0.725519 0.120463 0.258860 167 146 116
0.747140 0.113702 0.242716 169 143 112
0.735044 0.272952 0.108467 101 101 94
0.734855 0.285755 0.089954 99 93 89
0.732733 0.141690 0.052212 79 76 52
0.734699 0.129911 0.037674 77 76 59
0.733143 0.112772 0.042273 61 59 44
0.731777 0.109371 0.074358 52 54 46
0.733087 0.117081 0.064909 60 62 52
0.729903 0.109990 0.055901 60 68 54
0.734572 0.128743 0.066979 78 75 62
0.768436 0.014823 0.405448 236 212 174
0.735556 0.073345 0.082471 36 29 25
0.733934 0.087402 0.082253 29 28 25
0.735289 0.072402 0.095739 32 26 28
0.735646 0.083288 0.102845 33 30 25
0.734193 0.093460 0.095020 31 28 24
0.731533 0.074349 0.063641 40 38 34
0.723620 0.252883 -0.221046 116 102 82
0.724946 0.281151 -0.199598 139 122 94
0.629477 0.099748 0.202799 105 86 59
0.620680 0.097689 0.198497 60 50 34
0.627495 0.120629 0.205064 121 96 66
0.701282 0.084872 0.178456 103 87 62
0.729874 0.091047 0.185124 149 131 93
0.727897 0.091906 0.178227 70 63 46
0.736514 0.098014 0.171159 85 75 61
0.729995 0.046718 0.057663 30 31 20
0.734433 0.054580 0.044808 26 26 21
0.737117 0.052870 0.035135 60 55 32
0.732024 0.059517 0.059090 28 27 22
0.774981 0.034691 0.368073 175 165 149
0.772767 0.038600 0.389263 168 154 137
0.620317 0.101647 -0.278441 65 58 32
0.611817 0.099556 -0.295795 75 69 43
0.620510 0.100641 -0.302754 39 28 16
0.617462 0.111998 -0.302382 52 45 31
0.713267 0.089696 -0.343654 101 85 63
0.713291 0.094930 -0.325509 87 75 50
0.712806 0.099275 -0.335221 74 67 43
0.711541 0.108571 -0.327519 60 51 35
0.712986 0.098734 -0.315797 74 66 38
0.642715 0.108203 0.027990 48 46 42
0.641611 0.102488 0.009917 47 46 42
0.641581 0.104869 0.029120 47 48 34
0.778083 0.078902 0.366924 176 171 148
0.776610 0.110182 0.374393 177 170 147
0.741140 0.134214 0.137688 52 45 51
0.740466 0.123570 0.137055 42 42 42
0.743274 0.122676 0.147473 38 39 37
0.771176 0.003093 0.222346 138 134 114
0.747911 0.091761 0.189171 127 110 78
0.760992 0.086341 0.188955 141 124 96
0.737137 0.092836 0.199814 156 137 103
0.757027 0.090255 0.178350 64 54 35
0.743431 0.097974 0.164356 70 63 49
0.745437 0.093722 0.175085 78 71 55
0.752908 0.072664 0.167853 41 38 31
0.725680 0.208062 -0.164546 102 99 80
0.725319 0.179346 -0.176126 98 90 75
0.727024 0.145326 -0.131534 82 78 68
0.723237 0.273350 0.186684 93 42 35
0.736234 0.278453 0.173266 63 42 30
0.706039 0.266133 0.181259 68 45 39
0.737425 0.272632 0.166893 44 39 31
0.738758 0.276301 0.183637 113 46 39
0.720925 0.263680 -0.285338 119 105 83
0.718176 0.218991 -0.290315 106 97 80
0.721560 0.237659 -0.266046 100 92 69
0.723111 0.098608 0.212040 173 150 113
0.716947 0.090770 0.200549 168 145 108
0.735668 0.099663 0.212083 184 160 128
0.715588 0.111368 0.227448 231 208 163
0.701475 0.104639 0.220662 197 169 132
0.739991 0.347849 0.298429 166 75 54
0.740427 0.359125 0.302270 167 63 55
0.727537 0.344314 0.296552 177 67 61
0.600549 0.098268 -0.242895 75 66 41
0.596777 0.095857 -0.227591 88 76 50
0.703270 0.094691 0.167800 46 42 37
0.730759 0.047140 -0.076398 46 33 22
0.733961 0.035669 -0.071738 71 59 51
0.733994 0.047334 -0.069084 114 97 78
0.729131 0.058641 -0.054457 20 20 11
0.722118 0.056673 -0.059873 27 22 20
0.726725 0.071312 -0.077262 36 29 19
0.720788 0.064573 -0.067232 50 38 26
0.722178 0.050594 -0.087693 24 16 16
0.732342 0.038417 -0.083774 99 79 56
0.728944 0.061254 -0.080820 43 32 22
0.728779 0.051111 -0.061033 34 29 24
0.641017 0.107571 0.043594 59 50 42
0.658988 0.103724 0.065770 21 21 16
0.645499 0.097660 0.064366 23 21 18
0.665093 0.100720 0.063489 23 23 19
0.648043 0.107143 0.055946 28 28 18
0.650479 0.103440 0.057247 31 34 21
0.638889 0.088047 0.065745 27 23 13
0.634614 0.093546 0.060316 26 21 16
0.640529 0.103207 0.042843 35 38 31
0.637158 0.100134 0.053227 27 26 20
0.660175 0.095926 0.070806 32 23 20
0.732698 0.309060 -0.058199 158 140 111
0.730519 0.304941 -0.096162 139 121 92
0.718192 0.087749 -0.275498 105 87 60
0.712735 0.102514 -0.280533 76 62 42
0.717218 0.078823 -0.305550 101 82 56
0.717244 0.087287 -0.313397 92 79 52
0.713852 0.112069 -0.311298 62 50 31
0.714442 0.098327 -0.291054 79 63 45
0.710594 0.104109 -0.303959 64 51 35
0.732025 0.156709 -0.021274 93 81 72
0.732216 0.151572 0.012660 84 82 68
0.774883 0.393485 0.296368 143 81 71
0.763545 0.387036 0.306059 158 87 73
0.773638 0.398096 0.304757 148 94 80
0.776151 0.406871 0.298271 120 111 95
0.766883 0.395202 0.312605 158 93 93
0.769320 0.381313 0.307450 161 78 67
0.751966 0.380949 0.313411 157 94 80
0.770628 0.399304 0.322619 167 105 98
0.732498 0.290639 -0.003496 158 142 110
0.721850 0.257502 -0.262546 123 112 90
0.732712 0.280109 0.021990 116 105 89
0.732043 0.264600 0.010656 133 115 91
0.731152 0.267770 0.026912 99 92 76
0.766495 0.256667 0.263634 151 143 120
0.761317 0.242519 0.269781 154 139 116
0.762602 0.237648 0.282880 156 142 126
0.616747 0.107932 -0.255829 64 50 30
0.616814 0.108094 -0.293193 58 52 39
0.621003 0.100540 -0.264840 82 66 50
0.621224 0.105099 -0.262617 58 51 29
0.607873 0.098952 -0.267711 80 68 45
0.603228 0.106771 -0.268075 60 51 35
0.616711 0.106509 -0.271542 53 48 32
0.696992 0.068362 -0.053766 29 21 17
0.678799 0.063519 -0.053421 30 21 17
0.706521 0.057749 -0.034435 24 22 15
0.688668 0.058065 -0.028779 23 22 16
0.691510 0.064755 -0.044445 22 19 13
0.718533 0.059271 -0.037463 23 22 17
0.703854 0.053584 -0.054771 19 17 12
0.709344 0.075875 -0.056481 25 18 16
0.708465 0.052072 -0.029536 40 34 27
0.721890 0.066416 -0.034672 31 30 11
0.705437 0.064460 -0.026586 31 30 15
0.717372 0.070961 -0.044087 23 17 14
0.721573 0.062090 -0.043635 22 18 13
0.703765 0.057923 -0.042429 25 20 15
0.719380 0.207108 -0.278211 86 78 62
0.736105 0.175101 0.118987 74 59 65
0.721152 0.112274 -0.178645 41 42 23
0.725590 0.079385 -0.177474 43 43 24
0.723828 0.092930 -0.163824 32 31 25
0.720681 0.107377 -0.169156 31 33 21
0.720078 0.100977 -0.154703 36 40 27
0.724553 0.071978 -0.184440 58 52 39
0.599109 0.098354 -0.253823 71 62 39
0.721230 0.143673 -0.235375 87 82 65
0.722446 0.170657 -0.219811 91 80 68
0.635380 0.109854 -0.012790 56 53 46
0.631745 0.112032 0.003839 46 49 38
0.644088 0.102345 -0.009730 45 42 29
0.631652 0.096585 -0.002438 36 32 25
0.752806 0.160170 0.284450 166 151 125
0.754752 0.145537 0.285974 120 138 107
0.731527 0.151143 0.280187 143 136 116
0.703576 0.221788 0.264978 149 136 112
0.651457 0.094860 -0.059547 41 34 30
0.630512 0.109313 -0.054265 52 51 43
0.633374 0.107100 -0.069508 36 42 35
0.644805 0.098558 -0.063588 42 41 37
0.632836 0.103080 -0.079722 33 32 21
0.656518 0.165951 0.268923 208 173 137
0.665122 0.166413 0.276393 108 67 41
0.644553 0.180437 0.254801 86 83 52
0.751648 0.119892 0.265022 184 160 129
0.767329 0.121292 0.276694 202 185 153
0.766949 0.133186 0.285724 215 200 164
0.770986 0.113858 0.274846 191 172 134
0.772392 0.103012 0.287067 170 166 137
0.765075 0.114461 0.266564 174 155 117
0.767306 0.057879 0.403983 226 199 169
0.767544 0.086882 0.412986 233 208 175
0.771208 0.088084 0.398007 214 189 161
0.774244 0.061199 0.387369 169 155 133
0.782084 0.439027 0.416649 162 150 132
0.778248 0.415020 0.389386 160 150 126
0.777493 0.432134 0.378259 152 147 124
0.721045 0.213423 -0.252147 99 93 73
0.730605 0.174810 -0.058982 101 90 76
0.737464 0.266087 0.142776 79 71 70
0.735206 0.258166 0.102398 81 66 69
0.735986 0.260572 0.119528 87 74 68
0.738564 0.283623 0.126354 88 72 77
0.676723 0.060887 -0.043284 20 19 14
0.613397 0.087494 0.043980 33 32 29
0.605532 0.083254 0.026269 33 29 20
0.721685 0.216795 -0.221665 105 93 82
0.767516 0.057444 0.182203 118 114 94
0.766649 0.027602 0.181380 67 64 49
0.765367 0.040549 0.178523 44 40 30
0.767525 0.046721 0.188386 118 110 95
0.770337 0.389325 0.340364 147 143 116
0.734448 0.198037 0.123242 82 78 77
0.735673 0.192357 0.103761 94 83 78
0.731686 0.156215 -0.051218 89 88 71
0.739274 0.365773 0.158866 59 48 47
0.744748 0.376105 0.161666 53 48 35
0.730686 0.294697 0.164016 63 52 41
0.739043 0.296099 0.153412 70 57 48
0.740088 0.305803 0.158291 62 50 41
0.648194 0.105883 0.072896 49 54 42
0.665472 0.090490 0.078211 37 30 20
0.653264 0.086858 0.078372 32 29 20
0.657872 0.088101 0.073962 36 29 20
0.658500 0.094171 0.087700 42 39 28
0.622988 0.089142 0.098124 29 26 25
0.643239 0.094889 0.090338 57 54 38
0.664872 0.100286 0.094682 35 36 28
0.660151 0.105602 0.096005 24 23 14
0.636077 0.097572 0.096811 35 31 30
0.646929 0.110011 0.089413 62 61 52
0.650760 0.099804 0.094132 37 36 25
0.717619 0.190790 -0.311421 88 83 63
0.735469 0.170667 0.102239 78 67 64
0.732406 0.177260 0.080506 88 82 76
0.723789 0.189979 -0.193296 99 97 76
0.723971 0.210731 -0.189546 100 95 77
0.723266 0.194141 -0.213046 99 93 75
0.723139 0.207107 -0.207287 99 92 73
0.779055 0.247377 0.369304 165 156 141
0.778403 0.227410 0.343330 164 151 128
0.778224 0.245651 0.333586 162 152 134
0.773809 0.449012 0.365975 161 151 127
0.659777 0.155921 0.262979 149 98 62
0.684832 0.134400 0.267773 139 123 100
0.771803 0.028125 0.208218 149 138 118
0.771426 0.041779 0.201908 162 149 129
0.741201 0.056370 0.139370 44 42 32
0.741440 0.061932 0.151471 22 24 17
0.733509 0.216311 0.099929 91 81 79
0.733410 0.204999 0.090291 96 90 83
0.774723 0.150141 0.325635 173 164 145
0.776340 0.178536 0.332036 173 165 136
0.778257 0.170243 0.356698 171 164 147
0.764540 0.164476 0.289224 172 165 143
0.748420 0.169961 0.285207 211 189 154
0.758152 0.178698 0.292161 161 137 103
0.732504 0.324046 0.014546 166 142 116
0.732793 0.323119 0.033326 124 114 96
0.733581 0.337981 0.038337 149 128 106
0.731726 0.355425 0.017125 145 127 103
0.731620 0.344766 0.005954 160 139 117
0.735520 0.157719 0.112839 75 71 71
0.737661 0.160092 0.131547 68 67 63
0.737052 0.181874 0.170444 46 42 25
0.744285 0.194798 0.172924 39 40 38
0.740681 0.200597 0.171026 43 42 37
0.745424 0.163964 0.165547 42 35 26
0.743329 0.190270 0.164433 45 42 28
0.743365 0.209906 0.170293 44 39 30
0.729331 0.115150 0.242920 138 117 89
0.727826 0.305981 -0.145327 150 133 103
0.727514 0.335665 -0.144945 148 128 106
0.728865 0.033862 -0.090506 28 23 19
0.675038 0.078202 0.186003 83 78 62
0.690788 0.084518 0.195513 121 101 71
0.667625 0.089443 0.165190 33 31 26
0.656765 0.084630 0.165930 32 26 23
0.660136 0.071871 0.172828 32 26 23
0.660030 0.070964 0.177494 36 30 21
0.687405 0.086282 0.171074 36 28 25
0.712943 0.094869 0.170351 39 33 28
0.682542 0.086441 0.169946 35 28 24
0.677588 0.075168 0.176140 34 27 22
0.658642 0.076244 0.190367 86 69 49
0.702486 0.085450 0.188694 105 92 67
0.633634 0.078525 0.073915 30 30 19
0.780472 0.282155 0.376602 162 158 141
0.780545 0.280997 0.390716 166 158 137
0.781067 0.243253 0.388954 165 157 144
0.732532 0.114058 0.033208 55 56 43
0.726394 0.103755 0.019716 53 54 40
0.729515 0.112907 0.007654 58 55 42
0.732844 0.132731 0.001704 87 79 65
0.675721 0.048601 -0.003320 35 32 19
0.705274 0.037815 -0.015411 36 32 25
0.644775 0.157841 0.168324 34 29 28
0.634414 0.137109 0.166539 32 28 26
0.620906 0.117765 0.200145 98 77 70
0.621955 0.142741 0.198158 93 78 69
0.720770 0.081362 -0.254966 115 97 66
0.718227 0.097873 -0.259679 109 94 64
0.713461 0.106678 -0.267622 54 47 36
0.717152 0.111425 -0.249532 48 42 32
0.717696 0.097503 -0.273133 88 77 50
0.714329 0.109439 -0.288672 57 51 23
0.716910 0.283570 -0.340070 127 116 90
0.770808 0.057782 0.258468 166 159 135
0.770838 0.046750 0.283071 168 162 143
0.772073 0.074436 0.268954 168 162 133
0.661907 0.107357 0.226300 235 209 168
0.694886 0.088312 0.204789 210 181 135
0.666421 0.079714 0.206318 201 176 135
0.683839 0.082638 0.206926 155 126 90
0.649916 0.081854 0.206484 146 119 78
0.775519 0.246629 0.317876 157 150 126
0.774522 0.263422 0.310454 158 150 127
0.772391 0.259040 0.289368 159 147 129
0.772335 0.231505 0.307375 156 150 127
0.772450 0.249425 0.296264 159 149 129
0.766016 0.231799 0.295094 158 147 127
0.781867 0.273206 0.409346 167 162 143
0.734550 0.067747 0.047652 36 35 22
0.738573 0.087843 0.046030 39 33 25
0.730651 0.089698 0.062526 34 24 26
0.719094 0.128855 -0.244340 51 53 42
0.731613 0.157026 -0.006928 88 85 66
0.773073 0.282066 0.317131 162 150 130
0.771552 0.304755 0.328195 166 139 119
0.772119 0.295923 0.308158 162 149 132
0.727551 0.268881 -0.136648 136 120 98
0.726942 0.282657 -0.146501 147 131 105
0.733757 0.355906 0.097874 99 89 84
0.713352 0.070241 -0.339234 94 80 51
0.716164 0.060472 -0.325611 89 72 53
0.642127 0.127741 -0.342111 21 20 21
0.635879 0.120832 -0.322378 16 17 13
0.640521 0.125634 -0.328721 32 29 21
0.708933 0.222544 0.251488 188 161 125
0.712990 0.222439 0.245780 152 136 103
0.717680 0.223139 0.259895 157 138 112
0.719338 0.177366 -0.277909 90 85 68
0.720115 0.160889 -0.269804 88 86 70
0.722750 0.104076 -0.124164 44 39 26
0.725796 0.094201 -0.127896 40 36 24
0.720684 0.102904 -0.134918 39 34 22
0.726958 0.082245 -0.140741 40 41 28
0.726913 0.092238 -0.139981 27 23 17
0.643129 0.096283 0.216859 162 136 98
0.636342 0.080040 0.198233 103 83 55
0.637587 0.116130 0.215899 221 193 158
0.634410 0.088905 0.202315 93 75 47
0.660393 0.085910 0.214274 227 200 159
0.651126 0.111071 0.224196 224 201 168
0.654023 0.147827 0.169310 35 28 23
0.632413 0.185660 0.168811 39 35 35
0.660342 0.171236 0.170049 38 36 35
0.732923 0.239448 -0.032142 116 105 81
0.733182 0.254511 -0.011944 136 118 99
0.732978 0.232990 0.008218 122 111 86
0.617987 0.094128 -0.081110 30 23 17
0.627743 0.085434 -0.066938 30 30 21
0.708060 0.048787 -0.350669 18 17 11
0.742518 0.368410 0.317791 170 86 79
0.735145 0.349096 0.335116 165 102 88
0.753432 0.369825 0.333951 165 89 77
0.733664 0.366183 0.060413 105 95 91
0.631669 0.100719 0.021497 37 28 29
0.620217 0.091031 0.010567 42 39 27
0.634810 0.111646 0.019232 62 59 50
0.625171 0.093606 0.030816 33 33 25
0.606878 0.111809 0.021016 58 61 48
0.609258 0.112800 0.033303 73 67 57
0.779699 0.219259 0.374454 169 162 138
0.779320 0.208885 0.351329 166 158 140
0.777975 0.197499 0.375761 169 157 145
0.779707 0.210330 0.388622 168 159 139
0.705615 0.153776 0.276155 148 121 80
0.729501 0.173706 0.285856 149 122 83
0.728231 0.165188 0.281099 187 154 121
0.722369 0.183694 0.295166 165 140 98
0.778260 0.183779 0.369231 171 161 141
0.765871 0.021180 0.191463 97 91 81
0.775690 0.054327 0.362704 172 167 150
0.776015 0.102488 0.382911 166 159 144
0.776383 0.065345 0.376993 172 164 146
0.721705 0.102609 -0.105398 37 36 29
0.719662 0.102644 -0.112540 37 36 25
0.726582 0.088855 -0.109633 29 26 17
0.728287 0.095259 -0.112868 31 31 25
0.722775 0.098867 -0.098190 37 35 29
0.723853 0.076150 -0.095498 24 22 22
0.716775 0.101084 -0.091204 40 38 33
0.719195 0.288299 -0.289873 143 111 90
0.719514 0.287359 -0.277849 149 113 95
0.720781 0.307164 -0.256037 156 127 100
0.721006 0.324009 -0.263768 157 124 96
0.710504 0.049637 -0.006221 39 35 23
0.727362 0.066828 -0.000119 29 23 13
0.708459 0.062665 -0.003878 26 25 20
0.692909 0.087002 -0.014646 26 22 17
0.700634 0.085544 -0.021761 29 25 20
0.694552 0.074781 -0.014889 25 24 16
0.719316 0.074622 -0.004542 25 26 15
0.697526 0.074380 -0.010477 28 26 18
0.695859 0.086266 -0.009946 23 22 16
0.691240 0.064270 -0.021063 39 38 19
0.704440 0.073894 -0.022882 28 27 19
0.771748 0.067116 0.219863 166 155 128
0.772125 0.076515 0.248052 165 154 132
0.771946 0.046514 0.243166 166 155 127
0.721966 0.079328 -0.225358 108 94 72
0.720581 0.069190 -0.226853 128 107 73
0.712077 0.217654 -0.347506 27 24 19
0.696738 0.213608 -0.364097 28 26 27
0.704327 0.222878 -0.355562 33 31 28
0.696969 0.211336 -0.371844 38 40 32
0.658705 0.107357 0.142707 22 26 15
0.678574 0.133449 0.164263 38 37 36
0.644321 0.126551 0.161612 41 42 40
0.647923 0.115676 0.153876 56 55 60
0.654979 0.123279 0.163328 45 42 43
0.653809 0.110107 0.145697 21 20 15
0.775961 0.067108 0.348829 176 168 151
0.718118 0.160596 -0.307758 86 80 71
0.717992 0.152469 -0.290371 81 75 60
0.775806 0.101136 0.315395 176 171 146
0.777616 0.093609 0.353937 177 169 151
0.776236 0.092517 0.327954 183 169 147
0.732115 0.198924 0.068086 82 89 70
0.733679 0.226135 0.067484 90 87 66
0.732064 0.177091 0.062429 97 91 80
0.732598 0.200262 0.039882 81 81 71
0.734049 0.317153 0.083954 103 96 91
0.734739 0.327022 0.095148 106 97 90
0.733775 0.365018 0.077055 107 100 97
0.732827 0.324052 0.075281 111 101 100
0.734315 0.340750 0.284839 135 54 38
0.755857 0.347936 0.283448 123 95 88
0.741516 0.343482 0.271362 136 63 56
0.731097 0.339005 0.268812 143 61 52
0.774772 0.422382 0.318588 141 130 107
0.773754 0.429377 0.288394 107 99 100
0.776464 0.411702 0.309838 118 116 98
0.773044 0.432328 0.307282 131 120 104
0.774365 0.416971 0.295631 111 107 87
0.771841 0.409733 0.271846 100 90 82
0.766211 0.438744 0.278337 144 127 112
0.773199 0.428388 0.275865 132 121 101
0.767944 0.435690 0.295662 150 138 120
0.700899 0.110294 0.234488 175 156 129
0.678708 0.111936 0.235382 168 152 126
0.703825 0.110450 0.252092 155 137 112
0.681782 0.112905 0.253698 116 106 79
0.671909 0.114366 0.237438 185 171 139
0.725847 0.127224 -0.130576 72 71 57
0.726383 0.130306 -0.138940 79 75 60
0.725878 0.143519 -0.159730 85 76 63
0.755024 0.383312 0.186451 49 45 41
0.759543 0.392859 0.172626 33 32 28
0.754520 0.376571 0.179565 49 48 37
0.762938 0.396728 0.185110 44 46 36
0.765831 0.411134 0.179744 39 42 34
0.768304 0.412891 0.196544 53 48 44
0.756945 0.350169 0.363409 171 100 81
0.770276 0.375139 0.363864 159 143 121
0.762817 0.372422 0.353177 168 93 82
0.733859 0.234342 0.068555 94 88 84
0.651361 0.151262 0.247157 207 179 142
0.642904 0.161430 0.248853 177 151 125
0.633910 0.158849 0.227027 211 187 152
0.679269 0.163088 0.277585 184 149 113
0.703655 0.164538 0.280740 188 155 118
0.693726 0.176514 0.292964 163 124 86
0.673169 0.179619 0.289809 185 152 108
0.692217 0.198016 0.292711 222 189 159
0.626234 0.094190 -0.015831 27 27 18
0.621484 0.111675 -0.016622 63 54 47
0.626001 0.091636 -0.032063 21 23 18
0.601821 0.112148 -0.006620 58 57 41
0.605111 0.112301 0.005311 65 58 47
0.778608 0.198214 0.362431 172 161 133
0.776811 0.228082 0.325794 166 156 131
0.717477 0.271184 0.177906 63 41 35
0.700357 0.263225 0.176966 75 44 39
0.717819 0.290246 0.167956 80 70 59
0.718853 0.275278 0.170526 78 71 59
0.702509 0.273580 0.171453 66 55 41
0.699010 0.286450 0.172738 82 40 33
0.704190 0.266745 0.173376 47 38 38
0.722973 0.127708 0.274228 172 166 132
0.714069 0.121063 0.269117 151 134 104
0.751402 0.127770 0.274823 152 152 118
0.736084 0.137481 0.279814 81 101 61
0.719916 0.135913 0.278842 76 95 59
0.740018 0.125522 0.269277 176 170 127
0.709571 0.192111 -0.349174 20 19 17
0.688598 0.193885 -0.369829 39 39 25
0.682661 0.202957 -0.373408 30 28 19
0.682509 0.167320 -0.367631 31 29 17
0.695042 0.174850 -0.372189 47 41 23
0.695169 0.203187 -0.368699 43 38 24
0.694220 0.184687 -0.367302 23 19 15
0.703397 0.196383 -0.357163 21 21 18
0.739732 0.102820 0.086184 65 64 63
0.736887 0.119544 0.080348 84 76 79
0.733765 0.109804 0.086585 73 68 67
0.732610 0.109345 0.097057 77 68 73
0.734968 0.088863 0.113371 27 27 22
0.739508 0.098657 0.109820 31 31 21
0.741435 0.098597 0.131667 27 24 26
0.738820 0.073705 0.117853 30 25 28
0.731618 0.066221 0.027586 57 50 29
0.735139 0.055860 0.025676 62 58 35
0.735232 0.028517 0.026605 64 56 36
0.732406 0.037149 0.002578 52 46 29
0.636897 0.123311 0.158865 59 50 53
0.632840 0.129711 0.163009 41 35 38
0.649907 0.125161 -0.335476 22 21 20
0.657899 0.128073 -0.341333 21 19 21
0.773898 0.061684 0.306255 165 162 144
0.771597 0.060453 0.290746 166 164 141
0.772360 0.084102 0.291143 172 165 145
0.776051 0.092188 0.316623 175 164 146
0.658946 0.109158 0.125610 51 47 39
0.657051 0.104798 0.105583 22 21 14
0.729671 0.185429 -0.081652 99 93 77
0.730398 0.203361 -0.081278 99 95 74
0.730542 0.201654 -0.063546 100 99 76
0.773337 0.399738 0.334554 148 137 118
0.776315 0.417980 0.341606 141 137 118
0.776013 0.426438 0.342936 143 138 119
0.772253 0.435639 0.333702 149 132 115
0.754210 0.361947 0.306508 168 73 65
0.752110 0.372362 0.307716 158 87 73
0.766893 0.371879 0.310083 149 80 68
0.744209 0.369954 0.308728 163 78 70
0.731413 0.322710 -0.024161 151 136 106
0.721664 0.106885 -0.080176 64 57 53
0.718868 0.099832 -0.077584 56 50 44
0.726045 0.110985 -0.069818 56 51 38
0.721957 0.094511 -0.063220 53 49 40
0.716692 0.089006 -0.059258 36 33 29
0.730063 0.080793 -0.085932 31 23 22
0.729350 0.086826 -0.089905 25 21 17
0.722720 0.096365 -0.085415 42 36 27
0.730131 0.083812 -0.070163 26 25 15
0.730627 0.090481 -0.074890 38 30 25
0.711010 0.071821 -0.061313 24 22 13
0.673556 0.129642 -0.347392 34 32 27
0.667806 0.134858 -0.352985 22 19 22
0.650739 0.133216 -0.352468 27 23 21
0.742238 0.017359 0.141206 30 30 21
0.753835 0.025607 0.163476 39 35 30
0.732371 0.266907 -0.020787 133 117 98
0.731605 0.269290 -0.005210 151 133 106
0.772897 0.420597 0.252478 107 96 85
0.770896 0.430778 0.253107 117 96 80
0.730585 0.073410 0.001140 44 43 27
0.733541 0.074980 0.015454 41 43 19
0.732045 0.083986 0.030317 37 32 20
0.730903 0.074036 0.037817 37 32 20
0.736790 0.090744 0.034100 32 33 24
0.726448 0.221878 0.252026 156 138 107
0.721892 0.226651 0.233083 201 171 147
0.741500 0.219379 0.171769 42 36 34
0.742030 0.229705 0.168462 37 35 31
0.738590 0.222434 0.177693 47 44 39
0.746369 0.238770 0.173168 37 37 31
0.746268 0.236411 0.191355 55 50 41
0.756203 0.243594 0.183183 59 55 45
0.684585 0.164883 0.177975 38 38 31
0.693982 0.170824 0.179088 38 39 26
0.696992 0.187404 0.178139 43 36 22
0.678979 0.186938 0.175332 44 38 24
0.700186 0.188569 0.181140 47 45 38
0.752937 0.095730 0.211355 182 161 122
0.764763 0.076243 0.191711 176 154 117
0.753435 0.090019 0.204553 189 166 128
0.734936 0.236086 0.093182 150 134 115
0.779326 0.320136 0.410704 164 161 141
0.780574 0.293271 0.409413 166 161 142
0.731228 0.321575 -0.075918 162 141 118
0.733144 0.319869 -0.051588 162 144 117
0.731698 0.343955 -0.057007 158 139 113
0.729150 0.085103 0.004826 31 33 32
0.734054 0.096802 0.020208 31 30 35
0.724989 0.101609 0.007461 47 46 35
0.721620 0.102825 0.032205 40 42 29
0.613728 0.095485 -0.316536 23 19 14
0.717258 0.299183 -0.326309 147 125 95
0.719510 0.294331 -0.300518 156 122 98
0.716210 0.294454 -0.340626 116 105 85
0.716533 0.334933 -0.331383 163 130 104
0.714259 0.320796 -0.345191 152 136 109
0.727919 0.166793 -0.110796 93 82 62
0.728785 0.151446 -0.113804 85 79 60
0.736021 0.302328 0.108540 100 90 84
0.737753 0.318399 0.134528 88 82 76
0.631931 0.109467 -0.036838 55 52 39
0.609677 0.110588 -0.044620 59 52 38
0.713291 0.203053 0.294473 210 182 154
0.636663 0.112472 0.056951 57 60 46
0.605235 0.113468 0.071530 63 60 46
0.624139 0.091573 0.047160 33 32 20
0.619790 0.112486 0.041179 60 61 47
0.634324 0.111499 0.039654 56 58 43
0.720413 0.115125 -0.211944 64 56 46
0.723321 0.141083 -0.207796 76 67 56
0.721301 0.113439 -0.192888 56 54 40
0.724864 0.141140 -0.191175 83 82 65
0.772771 0.026792 0.251504 156 156 128
0.686343 0.120166 0.265126 104 99 82
0.669817 0.195942 0.173436 43 33 27
0.662765 0.213869 0.173986 35 31 25
0.650597 0.188212 0.170134 43 36 33
0.620482 0.100698 -0.247405 61 54 32
0.622092 0.099978 -0.232786 85 74 49
0.624512 0.103131 -0.229925 52 52 28
0.619668 0.107873 -0.228978 53 50 33
0.620587 0.100657 -0.216136 76 68 43
0.609533 0.107720 -0.221795 43 38 27
0.606669 0.106837 -0.241760 62 53 29
0.601442 0.093224 -0.173289 36 38 24
0.778081 0.322956 0.397247 161 105 93
0.728511 0.212153 -0.104546 112 101 85
0.766530 0.267472 0.226044 135 79 65
0.760311 0.277936 0.203124 160 55 53
0.768339 0.280428 0.229141 166 61 49
0.757138 0.330395 0.341642 183 71 59
0.764588 0.316929 0.335306 184 74 57
0.775252 0.312708 0.356841 174 98 85
0.738254 0.320446 0.347387 188 75 63
0.752232 0.318939 0.335609 195 82 71
0.762185 0.334380 0.352250 165 85 73
0.743489 0.111208 0.223258 169 147 117
0.732885 0.195342 0.052788 92 92 70
0.733378 0.177809 0.026954 88 87 57
0.734990 0.211765 0.109553 95 69 74
0.735916 0.222812 0.128518 78 63 61
0.735552 0.214242 0.136863 66 64 59
0.737713 0.232975 0.114703 109 102 95
0.728677 0.124423 -0.073497 63 56 41
0.725374 0.113798 -0.093785 53 49 38
0.731588 0.144551 -0.056702 81 82 66
0.739587 0.317308 0.155183 39 34 28
0.735485 0.346700 0.150352 57 57 55
0.738728 0.332528 0.142561 74 68 65
0.737676 0.340706 0.159017 59 48 43
0.736867 0.346571 0.134131 83 77 72
0.737835 0.327315 0.167616 62 50 44
0.737569 0.336371 0.166767 66 59 45
0.736486 0.358469 0.139539 81 80 78
0.767065 0.064736 0.190717 117 105 82
0.763380 0.062724 0.175790 95 88 74
0.765106 0.078964 0.180633 110 105 87
0.718878 0.247135 -0.299601 115 100 76
0.705221 0.055592 -0.354042 21 20 14
0.725679 0.233400 -0.176046 109 102 83
0.727923 0.253189 -0.164534 107 97 79
0.772911 0.018874 0.280919 172 162 146
0.729708 0.218288 -0.083939 108 101 83
0.728322 0.192959 -0.097851 104 95 82
0.675623 0.131917 0.232122 138 123 93
0.645632 0.123664 0.220879 216 188 159
0.661722 0.134849 0.226317 107 114 78
0.719354 0.248866 -0.316328 120 105 91
0.714970 0.231002 -0.341639 103 96 78
0.714333 0.261396 -0.344130 109 97 81
0.724523 0.062599 -0.189791 68 61 37
0.725642 0.069220 -0.140718 65 58 40
0.725487 0.050042 -0.171796 65 58 41
0.725535 0.059996 -0.168391 73 64 47
0.741245 0.100087 0.139381 24 21 23
0.739141 0.068456 0.141797 46 42 29
0.746572 0.074858 0.155268 32 29 23
0.749635 0.090950 0.167326 34 27 24
0.736083 0.088002 0.130343 31 32 26
0.739904 0.086361 0.144380 36 29 28
0.746553 0.091956 0.151828 36 35 25
0.741815 0.077268 0.150066 54 43 39
0.725649 0.311281 -0.193259 152 134 103
0.726791 0.308845 -0.166046 163 141 113
0.725788 0.329663 -0.179463 157 140 110
0.635073 0.113255 0.082833 60 58 48
0.636319 0.111736 0.074496 51 59 43
0.619152 0.112738 0.079115 62 67 54
0.723001 0.155974 -0.216046 91 82 72
0.719309 0.174979 -0.255628 96 87 70
0.719877 0.158042 -0.248013 87 80 69
0.728904 0.321784 -0.114421 156 137 106
0.739335 0.325266 0.335721 193 70 65
0.718330 0.327708 0.333315 169 53 47
0.722207 0.316858 0.332465 201 80 69
0.714523 0.315654 0.331981 189 73 55
0.732347 0.327161 0.173897 51 47 36
0.731922 0.336497 0.176823 41 40 29
0.738332 0.356556 0.168360 54 48 41
0.740929 0.363888 0.167429 52 50 42
0.728849 0.343484 0.174563 55 44 35
0.715361 0.198136 0.285971 187 157 120
0.725008 0.204295 0.289008 202 176 139
0.732049 0.192877 0.289593 172 147 114
0.729289 0.199366 0.294562 199 174 141
0.720078 0.198392 0.292384 198 173 140
0.757890 0.286635 0.230986 181 55 47
0.725527 0.285967 0.235390 175 51 42
0.744557 0.291753 0.247586 172 51 40
0.761222 0.290676 0.251872 172 56 40
0.732964 0.318208 0.339448 184 66 58
0.727710 0.329214 0.339431 174 62 57
0.740874 0.321819 0.354772 176 65 54
0.738347 0.342276 0.350374 165 104 79
0.759923 0.338132 0.358851 166 73 59
0.741065 0.336479 0.350501 189 81 73
0.749674 0.353558 0.354237 160 112 93
0.725968 0.334855 0.338078 161 57 48
0.625929 0.102726 -0.155798 38 34 26
0.622169 0.099819 -0.167940 39 39 25
0.628590 0.100959 -0.186142 39 34 24
0.625362 0.105921 -0.185762 35 32 23
0.621822 0.107915 -0.184842 42 35 28
0.620326 0.107616 -0.169045 44 35 31
0.604215 0.108446 -0.187463 36 39 27
0.773228 0.401950 0.282568 110 106 93
0.770978 0.390547 0.269637 118 108 100
0.767979 0.378838 0.267810 121 116 97
0.721904 0.200521 -0.234046 98 95 75
0.720239 0.192314 -0.255883 94 94 75
0.734134 0.270293 0.075708 108 99 97
0.733845 0.253765 0.088031 105 98 93
0.730777 0.096070 0.073866 30 28 20
0.732742 0.098859 0.101231 26 25 25
0.722544 0.103396 0.101818 30 29 27
0.731239 0.103610 0.097133 43 42 41
0.730676 0.105316 0.080640 55 49 47
0.722214 0.068781 -0.199161 66 60 44
0.762633 0.245821 0.198036 125 100 82
0.759093 0.266375 0.174306 56 46 40
0.756625 0.250289 0.176307 75 68 57
0.765371 0.269588 0.185789 51 41 34
0.775950 0.302424 0.355626 165 157 137
0.778408 0.301996 0.387704 161 155 136
0.672436 0.195283 0.286608 219 191 158
0.656565 0.181682 0.274737 113 111 70
0.674494 0.209760 0.271907 199 177 150
0.667037 0.185280 0.287033 226 191 150
0.728860 0.162306 -0.092586 90 83 71
0.729367 0.143385 -0.084046 94 85 71
0.616051 0.116408 0.131996 78 73 76
0.608605 0.114877 0.114153 77 73 74
0.699901 0.051496 -0.366184 27 28 20
0.696072 0.062776 -0.368698 47 43 34
0.699065 0.074913 -0.364916 41 35 25
0.705004 0.079867 -0.356965 40 35 22
0.751898 0.371038 0.188021 45 46 38
0.757889 0.370374 0.197372 86 63 53
0.749739 0.379094 0.171724 42 38 31
0.744963 0.367353 0.175911 45 40 30
0.682316 0.266042 0.175112 49 47 27
0.706707 0.280221 -0.350579 46 40 26
0.693406 0.284067 -0.354883 20 18 11
0.693806 0.271582 -0.352731 35 29 20
0.776357 0.114819 0.345692 177 170 148
0.768383 0.291151 0.275966 163 71 58
0.770662 0.294818 0.292753 154 147 119
0.770622 0.282293 0.273789 158 137 112
0.778836 0.253103 0.352843 164 155 135
0.640237 0.115242 0.140619 67 60 57
0.636012 0.118014 0.152154 61 56 57
0.624129 0.116182 0.143886 61 58 55
0.609930 0.124022 0.163836 43 41 36
0.614735 0.119827 0.157229 60 53 55
0.757637 0.275453 0.187336 157 65 52
0.700337 0.233927 -0.364844 39 34 30
0.694606 0.246617 -0.364366 39 32 28
0.706693 0.255353 -0.348865 49 42 32
0.684999 0.256662 -0.348889 8 9 12
0.687103 0.242384 -0.372015 47 39 29
0.678822 0.247440 -0.367777 41 38 34
0.618621 0.107253 -0.210989 52 42 29
0.624221 0.098672 -0.188637 44 43 26
0.622019 0.106088 -0.200787 45 46 26
0.610205 0.107453 -0.199183 54 46 31
0.611828 0.096668 -0.198137 62 54 34
0.766651 0.378831 0.248048 114 107 91
0.772217 0.396918 0.256384 90 82 79
0.770499 0.386160 0.257609 83 81 69
0.769817 0.398561 0.237650 83 78 66
0.718252 0.039842 -0.022069 82 73 50
0.730106 0.116808 -0.044953 56 52 40
0.731237 0.138732 -0.035550 85 84 63
0.732099 0.126503 -0.032896 71 73 62
0.764102 0.217233 0.303722 160 150 123
0.754444 0.224580 0.290221 159 147 124
0.745845 0.207294 0.299377 166 152 127
0.736879 0.209860 0.294212 161 146 124
0.660072 0.107718 0.116289 26 23 17
0.639556 0.102080 0.110573 24 23 18
0.653908 0.111103 0.108447 78 74 74
0.632962 0.113624 0.101046 79 76 75
0.652603 0.110360 0.137059 56 49 51
0.639665 0.115344 0.125619 66 63 63
0.652428 0.106888 0.113714 30 30 22
0.649917 0.112242 0.116961 56 52 43
0.784020 0.252511 0.413530 169 160 140
0.780000 0.230954 0.405395 171 162 141
0.772000 0.079697 0.224071 161 155 125
0.773433 0.096875 0.248466 165 155 125
0.600801 0.096730 -0.209132 69 60 44
0.734068 0.057065 0.002598 32 32 21
0.723887 0.045172 -0.004206 40 35 22
0.729104 0.057935 -0.002709 35 29 23
0.715121 0.067637 -0.004239 26 26 19
0.775656 0.026021 0.339668 174 170 145
0.774825 0.059160 0.331101 176 169 149
0.774915 0.046038 0.342200 179 168 151
0.772953 0.036452 0.323514 176 167 144
0.730543 0.233584 -0.081793 107 95 82
0.731977 0.225387 -0.056046 92 83 71
0.748807 0.352530 0.248943 140 122 102
0.760435 0.368399 0.254825 120 109 97
0.755487 0.353641 0.261189 142 100 86
0.757743 0.364169 0.262503 136 127 101
0.760659 0.361828 0.258194 139 127 104
0.756552 0.361967 0.238749 133 98 85
0.721525 0.291947 -0.243478 140 124 93
0.722646 0.316603 -0.243066 158 138 109
0.722534 0.324787 -0.230293 159 139 108
0.717529 0.103967 -0.213908 40 38 23
0.719707 0.106044 -0.196328 35 33 23
0.722442 0.078118 -0.209576 62 50 34
0.721546 0.088447 -0.206198 54 47 34
0.723913 0.094348 -0.192305 32 34 23
0.716648 0.101873 -0.205674 38 33 19
0.723377 0.089463 -0.181304 40 43 24
0.701964 0.227709 0.192624 86 75 70
0.693499 0.228444 0.226971 76 73 56
0.681466 0.226238 0.198299 60 53 44
0.687922 0.226230 0.210284 70 66 51
0.662255 0.220148 0.219875 83 78 61
0.731872 0.296784 0.049795 98 91 84
0.768833 0.363750 0.277300 142 136 108
0.771062 0.107976 0.266524 197 180 143
0.750560 0.113356 0.236662 208 183 149
0.746623 0.121345 0.258813 171 146 116
0.765656 0.108345 0.251635 185 162 131
0.752324 0.113524 0.250622 166 141 108
0.768446 0.105140 0.240445 179 160 127
0.765354 0.108439 0.230823 206 185 149
0.769536 0.098095 0.226643 188 171 133
0.740949 0.113960 0.230572 223 201 162
0.707261 0.295687 0.285735 165 49 42
0.641150 0.139250 -0.360495 19 22 18
0.643451 0.154899 -0.358735 18 16 15
0.629490 0.141925 -0.358401 20 17 15
0.630804 0.130630 -0.351977 20 19 20
0.621009 0.152219 -0.353969 20 16 21
0.727451 0.059336 -0.150509 63 56 36
0.695220 0.228051 0.237197 148 128 107
0.690821 0.222963 0.255701 149 129 108
0.679963 0.226160 0.231031 144 127 108
0.669566 0.219101 0.252502 159 139 116
0.691762 0.093549 0.212916 199 174 130
0.691686 0.107084 0.226893 220 198 158
0.682153 0.099617 0.220467 239 212 169
0.732121 0.302347 -0.017725 148 138 107
0.718542 0.032248 -0.313329 82 70 52
0.716120 0.058749 -0.339980 68 58 39
0.739352 0.145168 0.129856 42 34 35
0.736202 0.153200 0.139396 47 48 47
0.743734 0.155474 0.168011 36 27 23
0.744594 0.170397 0.155469 39 38 33
0.739882 0.159086 0.151612 41 42 40
0.738830 0.151055 0.160023 44 40 38
0.737106 0.142135 0.140269 48 49 48
0.738085 0.148928 0.152600 37 31 35
0.740431 0.141602 0.148817 37 31 35
0.782434 0.362794 0.295024 62 52 45
0.643517 0.135912 0.219834 135 137 105
0.652241 0.143035 0.227043 89 94 58
0.639923 0.148122 0.224581 102 100 64
0.634158 0.137601 0.213521 193 165 134
0.630608 0.145351 0.208856 165 145 113
0.733240 0.345129 0.055517 101 98 86
0.737998 0.351906 0.237914 134 92 74
0.695250 0.131431 0.273976 110 104 70
0.690510 0.147828 0.272106 132 108 82
0.710145 0.140694 0.278136 101 95 59
0.780448 0.393087 0.402115 158 147 124
0.772797 0.379016 0.389134 155 151 128
0.717124 0.069000 -0.284252 104 87 56
0.717704 0.075702 -0.292546 109 94 64
0.716520 0.066021 -0.310803 101 85 59
0.724180 0.114009 -0.117154 54 50 43
0.728048 0.130085 -0.108060 80 74 56
0.753517 0.362856 0.222649 116 105 95
0.735522 0.352077 0.219745 106 90 74
0.758895 0.381743 0.200393 76 76 63
0.755520 0.369171 0.226839 88 86 71
0.756963 0.371631 0.214860 93 90 74
0.749797 0.362747 0.205559 75 69 62
0.778480 0.399438 0.389586 160 150 127
0.775487 0.394295 0.362043 151 148 124
0.776368 0.388525 0.376467 156 150 126
0.716484 0.114194 -0.273032 37 34 21
0.716877 0.121536 -0.277366 40 37 27
0.729902 0.107217 0.135609 26 23 16
0.732423 0.320195 -0.006230 154 132 105
0.732025 0.344303 -0.009122 151 136 108
0.715221 0.165240 -0.337453 84 83 66
0.715118 0.148202 -0.336192 81 76 62
0.716015 0.176315 -0.331314 92 86 69
0.772061 0.112603 0.406845 189 174 154
0.768508 0.099587 0.405992 241 211 181
0.657750 0.157032 -0.362681 19 19 17
0.714083 0.285552 -0.346015 47 41 29
0.716793 0.195341 -0.332844 95 90 82
0.715961 0.215313 -0.338504 95 88 75
0.717035 0.311931 -0.315263 153 121 92
0.728306 0.077488 -0.109800 46 41 31
0.606593 0.096156 -0.305884 29 20 11
0.688841 0.145344 -0.361031 41 37 25
0.708057 0.114907 -0.352656 21 17 13
0.711169 0.158413 -0.345483 23 20 17
0.703576 0.128503 -0.354124 22 21 18
0.689347 0.128851 -0.352767 22 21 16
0.699291 0.137684 -0.349900 20 21 16
0.699122 0.146421 -0.351610 19 20 15
0.625245 0.106507 -0.148732 38 42 25
0.620605 0.108222 -0.140851 40 40 28
0.627822 0.101642 -0.128097 29 32 22
0.615912 0.096778 -0.139132 28 30 17
0.609904 0.094126 -0.134255 29 34 21
0.726944 0.348220 -0.172831 151 134 111
0.684471 0.187353 0.295143 216 188 158
0.691754 0.182140 0.295771 172 143 109
0.738320 0.305519 0.146634 83 75 77
0.657461 0.172812 -0.362375 20 18 16
0.668320 0.181310 -0.365135 20 19 17
0.668814 0.199734 -0.366131 22 22 16
0.657904 0.197209 -0.362849 19 18 17
0.673512 0.209218 -0.364902 20 18 17
0.729553 0.108188 0.145127 27 23 18
0.721133 0.105416 0.146540 36 32 23
0.731743 0.102530 0.145703 37 24 22
0.734583 0.101689 0.157576 55 55 42
0.725704 0.102239 0.159649 27 25 19
0.733279 0.147626 0.029859 85 81 65
0.715492 0.124009 -0.293978 60 63 47
0.733974 0.045438 -0.039471 53 50 39
0.736265 0.050762 -0.053907 82 78 63
0.731501 0.055705 -0.043134 22 20 16
0.723494 0.050972 -0.030987 52 41 33
0.719034 0.054359 -0.028285 47 39 32
0.674790 0.116485 0.253588 144 133 115
0.672765 0.119218 0.244610 136 113 95
0.678591 0.125322 0.261655 89 87 75
0.688449 0.133839 0.251838 114 99 77
0.665993 0.118520 0.232473 128 114 89
0.628901 0.105250 -0.100688 33 34 22
0.626099 0.099442 -0.084296 37 37 26
0.627938 0.106433 -0.124254 38 34 22
0.618659 0.098652 -0.110521 40 32 20
0.618556 0.107940 -0.123777 39 36 27
0.626532 0.102156 -0.114387 38 33 21
0.624198 0.108933 -0.103693 58 45 38
0.723807 0.047682 -0.192381 66 63 42
0.723853 0.059323 -0.211403 66 59 40
0.612379 0.097053 -0.157339 35 32 25
0.600221 0.094410 -0.144781 35 31 22
0.773489 0.015669 0.265127 164 154 131
0.738690 0.178104 0.149807 48 44 46
0.737785 0.171920 0.134933 61 56 58
0.766346 0.385718 0.225269 82 80 68
0.767039 0.395700 0.204507 77 71 62
0.683466 0.204804 0.282636 164 145 121
0.707521 0.213426 0.280795 165 148 122
0.742267 0.029483 0.133852 56 52 39
0.718909 0.203712 -0.298228 96 89 72
0.717044 0.213140 -0.323071 94 83 68
0.767344 0.040618 0.410367 234 211 175
0.768470 0.024940 0.419117 230 206 168
0.732861 0.303609 -0.037535 144 130 100
0.723549 0.129644 -0.178474 82 78 59
0.723782 0.113007 -0.138645 54 54 42
0.724726 0.127275 -0.160439 63 60 46
0.694293 0.220467 -0.370906 41 37 34
0.689598 0.233014 -0.373009 39 39 29
0.679920 0.218180 -0.371861 23 20 17
0.678033 0.227480 -0.371524 27 25 20
0.665035 0.215020 -0.367128 22 19 13
0.767237 0.286536 0.251084 165 72 56
0.762086 0.107345 0.224114 201 180 143
0.765312 0.084171 0.212733 178 160 126
0.756538 0.282400 0.216513 172 52 40
0.745331 0.279886 0.202692 163 50 43
0.742311 0.286804 0.227895 176 49 46
0.727606 0.026091 -0.117605 67 59 46
0.726989 0.286727 -0.159427 137 124 93
0.726171 0.292154 -0.177829 133 117 94
0.727010 0.265934 -0.166926 128 117 90
0.725236 0.252578 -0.190825 127 114 97
0.773890 0.344426 0.380613 144 65 57
0.768104 0.359859 0.371696 160 140 122
0.769898 0.368717 0.382498 158 147 129
0.769100 0.346172 0.371051 132 63 46
0.765597 0.359174 0.368262 166 100 80
0.777548 0.352607 0.387954 139 78 73
0.771146 0.335671 0.387830 150 46 44
0.717638 0.273425 -0.308392 126 102 83
0.716269 0.266179 -0.337035 120 99 83
0.718022 0.237165 -0.331722 119 104 86
0.697099 0.093157 -0.045541 25 19 16
0.627701 0.109872 -0.063247 46 44 28
0.626534 0.096846 -0.075506 32 29 22
0.626832 0.109276 -0.083953 53 46 37
0.606000 0.111347 -0.063761 46 45 30
0.611870 0.110355 -0.072977 47 44 30
0.713287 0.226511 0.200221 64 57 49
0.715873 0.225210 0.218895 80 73 56
0.729032 0.229545 0.222968 105 99 88
0.723369 0.308535 -0.212273 148 132 99
0.724065 0.330033 -0.204587 155 135 106
0.753396 0.034412 0.164695 36 32 26
0.749133 0.045394 0.162274 32 29 22
0.748150 0.060666 0.161364 34 29 23
0.742572 0.040699 0.150090 37 32 24
0.776074 0.164641 0.309493 170 165 139
0.774355 0.196116 0.316303 167 159 136
0.764332 0.186018 0.301444 195 174 145
0.752824 0.190289 0.300829 201 186 150
0.773171 0.181100 0.307693 186 170 140
0.734067 0.251243 -0.041711 118 106 83
0.726175 0.169922 -0.156046 95 90 75
0.726129 0.166221 -0.134937 96 88 74
0.704700 0.226888 0.186010 41 42 29
0.771196 0.217758 0.310401 161 152 124
0.776517 0.218108 0.322820 164 152 127
0.768307 0.198437 0.309669 188 170 141
0.732245 0.255637 -0.066644 130 112 94
0.732424 0.274019 -0.063721 148 130 108
0.731730 0.263116 -0.079594 111 97 73
0.731189 0.279492 -0.078015 119 104 84
0.735108 0.278045 0.199291 154 61 39
0.736234 0.282295 0.217499 167 52 43
0.693032 0.200114 0.177571 48 44 35
0.688462 0.205481 0.175713 41 37 31
0.699586 0.206134 0.181615 35 35 27
0.697064 0.214849 0.177610 49 43 32
0.737662 0.193962 0.149952 55 52 48
0.738975 0.211840 0.149218 68 59 56
0.743110 0.201514 0.159760 50 44 34
0.735604 0.196461 0.138100 64 52 52
0.742768 0.189096 0.158205 48 43 34
0.771318 0.057955 0.274757 165 161 137
0.772699 0.041965 0.264681 165 160 138
0.772679 0.031987 0.300909 168 159 142
0.730476 0.227137 0.269964 150 140 118
0.718810 0.227218 0.263657 151 134 115
0.733444 0.310689 0.011742 164 140 113
0.765591 0.429179 0.220104 92 76 63
0.769478 0.400841 0.222154 87 80 67
0.769627 0.422146 0.223528 102 87 74
