ply
format ascii 1.0
element vertex 1254
property float x
property float y
property float z
property uchar red
property uchar green
property uchar blue
end_header
0.474541 0.092591 -0.065517 0 255 255
0.441850 0.164229 -0.044666 0 255 255
0.320811 0.259575 -0.012666 0 255 255
0.337918 0.151193 -0.065527 0 255 255
0.457798 0.220294 0.003333 0 255 255
0.347567 0.166455 -0.052667 0 255 255
0.474834 0.229309 -0.012268 0 255 255
0.353169 0.262207 0.017333 0 255 255
0.427420 0.179996 -0.003875 0 255 255
0.441331 0.254952 0.018487 0 255 255
0.463158 0.271288 -0.000666 0 255 255
0.446962 0.174595 -0.026666 0 255 255
0.316231 0.212720 -0.046666 0 255 255
0.306709 0.236925 -0.039829 0 255 255
0.371175 0.180604 -0.000666 0 255 255
0.319604 0.209427 -0.026666 0 255 255
0.470432 0.263959 -0.007156 0 255 255
0.457368 0.174836 -0.040666 0 255 255
0.318489 0.272468 -0.018666 0 255 255
0.434103 0.281855 0.010376 0 255 255
0.475783 0.180946 -0.065698 0 255 255
0.469063 0.289202 -0.022666 0 255 255
0.418850 0.155860 -0.040666 0 255 255
0.403557 0.144294 -0.065289 0 255 255
0.305717 0.230996 -0.050666 0 255 255
0.457371 0.273634 0.003333 0 255 255
0.387639 0.184177 0.006314 0 255 255
0.414494 0.237663 0.027334 0 255 255
0.446366 0.188060 -0.023644 0 255 255
0.473422 0.205326 -0.044666 0 255 255
0.369186 0.073500 -0.070667 0 255 255
0.344018 0.208871 0.003333 0 255 255
0.418586 0.172488 -0.008666 0 255 255
0.324625 0.283306 -0.024667 0 255 255
0.443052 0.233063 0.017333 0 255 255
0.489124 0.227808 -0.044666 0 255 255
0.469399 0.177594 -0.065716 0 255 255
0.351968 0.179882 -0.038667 0 255 255
0.436110 0.167017 -0.067661 0 255 255
0.352164 0.095398 -0.071565 0 255 255
0.476041 0.194996 -0.052667 0 255 255
0.458940 0.116352 -0.071568 0 255 255
0.311520 0.254519 -0.048667 0 255 255
0.410650 0.201868 0.007333 0 255 255
0.312779 0.275545 -0.054666 0 255 255
0.397154 0.255573 0.022338 0 255 255
0.445428 0.160004 -0.065616 0 255 255
0.342822 0.255251 0.010413 0 255 255
0.482278 0.206406 -0.050666 0 255 255
0.399573 0.163791 -0.040666 0 255 255
0.448422 0.185832 -0.010667 0 255 255
0.331195 0.226308 -0.000666 0 255 255
0.382398 0.268257 0.021333 0 255 255
0.385118 0.236728 0.027383 0 255 255
0.426827 0.155223 -0.058666 0 255 255
0.458035 0.212976 -0.014666 0 255 255
0.395756 0.223151 0.027334 0 255 255
0.503964 0.142931 -0.068666 0 255 255
0.351215 0.143763 -0.065721 0 255 255
0.346947 0.246773 0.007333 0 255 255
0.409978 0.186255 0.007333 0 255 255
0.348691 0.215419 -0.002667 0 255 255
0.326493 0.233818 -0.018666 0 255 255
0.494167 0.243366 -0.064666 0 255 255
0.385352 0.214582 0.023334 0 255 255
0.472211 0.261761 -0.017661 0 255 255
0.358848 0.197258 -0.007655 0 255 255
0.486100 0.274379 -0.046666 0 255 255
0.309397 0.282896 -0.058666 0 255 255
0.322836 0.199032 -0.057660 0 255 255
0.430872 0.193710 -0.005628 0 255 255
0.389946 0.163823 -0.016667 0 255 255
0.428870 0.270339 0.014407 0 255 255
0.441862 0.202610 -0.005631 0 255 255
0.496833 0.132479 -0.071519 0 255 255
0.374323 0.191419 0.009334 0 255 255
0.460316 0.267034 0.003333 0 255 255
0.334636 0.306386 -0.030667 0 255 255
0.389729 0.204067 0.019851 0 255 255
0.447638 0.085364 -0.065424 0 255 255
0.311271 0.242068 -0.026666 0 255 255
0.491602 0.235777 -0.048667 0 255 255
0.387412 0.296817 0.014151 0 255 255
0.375908 0.225630 0.024807 0 255 255
0.380701 0.156439 -0.036666 0 255 255
0.315407 0.215900 -0.028667 0 255 255
0.460600 0.208685 -0.006161 0 255 255
0.407943 0.166898 -0.012666 0 255 255
0.408778 0.232231 0.028143 0 255 255
0.321044 0.277650 -0.029633 0 255 255
0.485741 0.103480 -0.071538 0 255 255
0.324369 0.232741 -0.006667 0 255 255
0.495788 0.122535 -0.071529 0 255 255
0.372366 0.153676 -0.064666 0 255 255
0.475992 0.190978 -0.064666 0 255 255
0.397470 0.239452 0.029708 0 255 255
0.419869 0.261230 0.020341 0 255 255
0.324926 0.218922 -0.011795 0 255 255
0.346502 0.156324 -0.071543 0 255 255
0.477133 0.232057 -0.028667 0 255 255
0.304624 0.263288 -0.056667 0 255 255
0.410411 0.152105 -0.050666 0 255 255
0.358829 0.273601 0.017333 0 255 255
0.413058 0.158156 -0.032666 0 255 255
0.383654 0.222805 0.025875 0 255 255
0.504888 0.165820 -0.066667 0 255 255
0.401245 0.198834 0.017221 0 255 255
0.460409 0.092066 -0.066179 0 255 255
0.461245 0.100022 -0.065469 0 255 255
0.310391 0.244582 -0.048667 0 255 255
0.333415 0.165744 -0.066563 0 255 255
0.469052 0.258072 -0.002667 0 255 255
0.354757 0.253996 0.018800 0 255 255
0.342422 0.136643 -0.066056 0 255 255
0.472425 0.187255 -0.056667 0 255 255
0.446670 0.248358 0.008414 0 255 255
0.415813 0.088709 -0.065447 0 255 255
0.429522 0.123466 -0.065883 0 255 255
0.339748 0.307860 -0.022666 0 255 255
0.340200 0.181118 -0.026666 0 255 255
0.461753 0.200519 -0.011613 0 255 255
0.407756 0.069445 -0.065496 0 255 255
0.303969 0.249280 -0.054666 0 255 255
0.375818 0.129111 -0.065811 0 255 255
0.374253 0.095088 -0.065693 0 255 255
0.376654 0.137067 -0.065773 0 255 255
0.464584 0.170057 -0.065493 0 255 255
0.364498 0.212752 0.017351 0 255 255
0.396532 0.211396 0.022667 0 255 255
0.430972 0.165545 -0.056667 0 255 255
0.314685 0.199888 -0.058666 0 255 255
0.342948 0.122510 -0.065892 0 255 255
0.329025 0.123974 -0.065792 0 255 255
0.398364 0.152288 -0.050666 0 255 255
0.354667 0.157477 -0.065886 0 255 255
0.339471 0.261636 0.006973 0 255 255
0.481124 0.174351 -0.065776 0 255 255
0.478431 0.269152 -0.020667 0 255 255
0.421545 0.181504 0.001334 0 255 255
0.462494 0.150166 -0.065887 0 255 255
0.436224 0.110696 -0.065640 0 255 255
0.430041 0.147543 -0.065291 0 255 255
0.347350 0.087861 -0.065550 0 255 255
0.398934 0.253376 0.029717 0 255 255
0.385142 0.083888 -0.065717 0 255 255
0.445327 0.139904 -0.065649 0 255 255
0.488534 0.215803 -0.062667 0 255 255
0.417062 0.138853 -0.065527 0 255 255
0.472331 0.167231 -0.065569 0 255 255
0.309350 0.208494 -0.058666 0 255 255
0.313201 0.232221 -0.046666 0 255 255
0.328473 0.240671 -0.000666 0 255 255
0.322734 0.178932 -0.065357 0 255 255
0.342022 0.180927 -0.060666 0 255 255
0.405862 0.127964 -0.065743 0 255 255
0.390482 0.077293 -0.065761 0 255 255
0.438410 0.188896 -0.000234 0 255 255
0.325459 0.166580 -0.071614 0 255 255
0.423453 0.103994 -0.065535 0 255 255
0.442907 0.212554 0.000379 0 255 255
0.353520 0.127433 -0.065603 0 255 255
0.448683 0.095309 -0.065734 0 255 255
0.382209 0.094252 -0.071481 0 255 255
0.443756 0.144091 -0.071574 0 255 255
0.365968 0.188465 0.004123 0 255 255
0.364510 0.136332 -0.065451 0 255 255
0.325560 0.186679 -0.071610 0 255 255
0.430991 0.099180 -0.065637 0 255 255
0.362832 0.158630 -0.071515 0 255 255
0.341275 0.106597 -0.071548 0 255 255
0.402449 0.152883 -0.042667 0 255 255
0.466477 0.111538 -0.065631 0 255 255
0.423663 0.105983 -0.071537 0 255 255
0.475790 0.142735 -0.065272 0 255 255
0.458097 0.146606 -0.071626 0 255 255
0.476202 0.184923 -0.071539 0 255 255
0.322531 0.138733 -0.071562 0 255 255
0.332471 0.175898 -0.071562 0 255 255
0.458288 0.263225 -0.001637 0 255 255
0.359260 0.239446 0.020672 0 255 255
0.416435 0.132886 -0.071488 0 255 255
0.400731 0.136547 -0.071571 0 255 255
0.479350 0.138339 -0.071555 0 255 255
0.317610 0.149306 -0.071571 0 255 255
0.429104 0.119488 -0.071587 0 255 255
0.328696 0.197384 -0.052667 0 255 255
0.370274 0.095506 -0.071503 0 255 255
0.369098 0.256511 0.018410 0 255 255
0.352266 0.115498 -0.071494 0 255 255
0.341795 0.130676 -0.071499 0 255 255
0.486443 0.234122 -0.060666 0 255 255
0.480191 0.108085 -0.065541 0 255 255
0.397159 0.159953 -0.058666 0 255 255
0.433184 0.139169 -0.071525 0 255 255
0.359589 0.146905 -0.071516 0 255 255
0.357904 0.207412 0.000406 0 255 255
0.443033 0.079814 -0.065769 0 255 255
0.442394 0.150267 -0.071564 0 255 255
0.423973 0.128071 -0.065969 0 255 255
0.416960 0.118753 -0.065864 0 255 255
0.411937 0.109226 -0.071538 0 255 255
0.351943 0.169829 -0.071641 0 255 255
0.438111 0.090387 -0.071560 0 255 255
0.407231 0.083578 -0.071537 0 255 255
0.488972 0.191625 -0.071577 0 255 255
0.365663 0.128167 -0.065577 0 255 255
0.477804 0.208887 -0.054666 0 255 255
0.491803 0.161162 -0.071547 0 255 255
0.367969 0.111837 -0.071565 0 255 255
0.451814 0.163355 -0.065724 0 255 255
0.385016 0.216628 0.014389 0 255 255
0.403037 0.120217 -0.065565 0 255 255
0.362948 0.159728 -0.040666 0 255 255
0.403754 0.222703 0.018380 0 255 255
0.395182 0.141153 -0.071533 0 255 255
0.316350 0.175581 -0.071579 0 255 255
0.407108 0.158945 -0.064666 0 255 255
0.389197 0.256410 0.022401 0 255 255
0.452757 0.153200 -0.071551 0 255 255
0.428883 0.174782 -0.026666 0 255 255
0.449096 0.137497 -0.071553 0 255 255
0.434653 0.114883 -0.071547 0 255 255
0.421249 0.140424 -0.071483 0 255 255
0.396867 0.080645 -0.071529 0 255 255
0.332046 0.190992 -0.062667 0 255 255
0.490340 0.147239 -0.071523 0 255 255
0.393493 0.220749 0.017333 0 255 255
0.406179 0.111843 -0.065650 0 255 255
0.493482 0.138865 -0.071547 0 255 255
0.391091 0.197891 0.006408 0 255 255
0.469930 0.125252 -0.071556 0 255 255
0.376337 0.153188 -0.071564 0 255 255
0.401574 0.106294 -0.065420 0 255 255
0.380632 0.136649 -0.071538 0 255 255
0.469202 0.099186 -0.065704 0 255 255
0.488877 0.133315 -0.071539 0 255 255
0.355086 0.161455 -0.071516 0 255 255
0.338755 0.159149 -0.071551 0 255 255
0.393511 0.125240 -0.071528 0 255 255
0.358854 0.159048 -0.053301 0 255 255
0.315394 0.262155 -0.037661 0 255 255
0.479956 0.210672 -0.064666 0 255 255
0.427819 0.298604 0.004378 0 255 255
-0.353265 0.109212 -0.072666 255 255 0
-0.290110 0.222099 -0.068666 255 255 0
-0.366732 0.191068 -0.070667 255 255 0
-0.288039 0.146134 -0.064666 255 255 0
-0.290882 0.070479 -0.066667 255 255 0
-0.335520 0.153600 -0.064136 255 255 0
-0.337069 0.065278 -0.072666 255 255 0
-0.335356 0.223969 -0.068666 255 255 0
-0.310074 0.108695 -0.071583 255 255 0
-0.306209 0.183728 -0.070667 255 255 0
-0.372890 0.142444 -0.068666 255 255 0
-0.369604 0.078044 -0.066667 255 255 0
-0.335526 0.191810 -0.064037 255 255 0
-0.363749 0.218909 -0.068666 255 255 0
-0.331846 0.092883 -0.064461 255 255 0
-0.332270 0.127116 -0.071561 255 255 0
-0.360381 0.165790 -0.064666 255 255 0
-0.313544 0.209610 -0.063552 255 255 0
-0.311024 0.157059 -0.071584 255 255 0
-0.313744 0.073779 -0.078666 255 255 0
-0.287635 0.120412 -0.070667 255 255 0
-0.309554 0.132772 -0.063705 255 255 0
-0.289360 0.095298 -0.070667 255 255 0
-0.286565 0.198428 -0.064666 255 255 0
-0.287472 0.170671 -0.063669 255 255 0
-0.351324 0.137162 -0.064760 255 255 0
-0.327462 0.172863 -0.071599 255 255 0
-0.350584 0.086809 -0.073589 255 255 0
-0.372378 0.099155 -0.068666 255 255 0
-0.310175 0.088595 -0.063732 255 255 0
-0.369004 0.122020 -0.068666 255 255 0
-0.350392 0.203427 -0.071577 255 255 0
-0.349700 0.181234 -0.072666 255 255 0
-0.292495 0.161144 -0.079675 255 255 0
-0.356662 0.067240 -0.074666 255 255 0
-0.328184 0.108587 -0.073656 255 255 0
-0.322536 0.143190 -0.072666 255 255 0
-0.329874 0.207304 -0.071618 255 255 0
-0.325550 0.076247 -0.064666 255 255 0
-0.351641 0.153283 -0.073652 255 255 0
-0.294891 0.080955 -0.079643 255 255 0
-0.308004 0.224046 -0.070667 255 255 0
-0.295213 0.135287 -0.075545 255 255 0
-0.308497 0.066297 -0.064634 255 255 0
-0.319195 0.194115 -0.071584 255 255 0
-0.298546 0.208034 -0.070667 255 255 0
-0.344001 0.168569 -0.063924 255 255 0
-0.318974 0.119685 -0.063795 255 255 0
-0.345041 0.120413 -0.064579 255 255 0
-0.303802 0.168365 -0.063174 255 255 0
-0.341475 0.077807 -0.064482 255 255 0
-0.348929 0.217351 -0.064616 255 255 0
-0.295942 0.109220 -0.064042 255 255 0
-0.287997 0.184803 -0.071636 255 255 0
-0.319493 0.095608 -0.073637 255 255 0
-0.340396 0.105848 -0.064666 255 255 0
-0.302643 0.121990 -0.071636 255 255 0
-0.337757 0.141769 -0.072666 255 255 0
-0.357494 0.097590 -0.064957 255 255 0
-0.304113 0.146277 -0.064118 255 255 0
-0.304853 0.196630 -0.064196 255 255 0
-0.322749 0.160302 -0.063886 255 255 0
-0.296670 0.083153 -0.063606 255 255 0
-0.355571 0.125542 -0.072666 255 255 0
-0.367254 0.205199 -0.070667 255 255 0
-0.301706 0.150046 -0.079577 255 255 0
-0.362004 0.150351 -0.064482 255 255 0
-0.355607 0.077282 -0.064545 255 255 0
-0.318460 0.181973 -0.064001 255 255 0
-0.329647 0.075533 -0.078666 255 255 0
-0.291963 0.108801 -0.077385 255 255 0
-0.321563 0.218496 -0.070667 255 255 0
-0.366155 0.176930 -0.070667 255 255 0
-0.300196 0.068734 -0.076667 255 255 0
-0.365761 0.076338 -0.079639 255 255 0
-0.345772 0.075184 -0.078666 255 255 0
-0.286599 0.208789 -0.076667 255 255 0
-0.353636 0.191702 -0.065312 255 255 0
-0.322629 0.065770 -0.072666 255 255 0
-0.364507 0.088272 -0.073602 255 255 0
-0.361270 0.138207 -0.073652 255 255 0
-0.291652 0.130890 -0.063473 255 255 0
-0.294902 0.157375 -0.063252 255 255 0
-0.313539 0.171400 -0.071610 255 255 0
-0.303581 0.093935 -0.073662 255 255 0
-0.364404 0.108380 -0.064666 255 255 0
-0.320647 0.103773 -0.063831 255 255 0
-0.341582 0.095917 -0.073612 255 255 0
-0.340859 0.160194 -0.073652 255 255 0
-0.340029 0.206361 -0.063992 255 255 0
-0.319917 0.129839 -0.071508 255 255 0
-0.336571 0.181865 -0.071595 255 255 0
-0.343482 0.192647 -0.073664 255 255 0
-0.331349 0.116747 -0.064666 255 255 0
-0.329235 0.136851 -0.064388 255 255 0
-0.296581 0.179673 -0.064019 255 255 0
-0.343995 0.130359 -0.073635 255 255 0
-0.370030 0.159239 -0.068666 255 255 0
-0.287269 0.210870 -0.064459 255 255 0
-0.318759 0.083464 -0.071592 255 255 0
-0.351958 0.169405 -0.073638 255 255 0
-0.305045 0.080011 -0.071627 255 255 0
-0.315838 0.149521 -0.063575 255 255 0
-0.334671 0.085137 -0.073616 255 255 0
-0.306932 0.100321 -0.063652 255 255 0
-0.289651 0.149939 -0.076667 255 255 0
-0.347952 0.066422 -0.066667 255 255 0
-0.357786 0.209612 -0.064666 255 255 0
-0.346092 0.148678 -0.064213 255 255 0
-0.357393 0.117690 -0.064306 255 255 0
-0.341689 0.114028 -0.073635 255 255 0
-0.295637 0.169518 -0.071623 255 255 0
-0.324535 0.200710 -0.064009 255 255 0
-0.344198 0.090159 -0.064203 255 255 0
-0.313419 0.076870 -0.064110 255 255 0
-0.310707 0.140937 -0.071599 255 255 0
-0.294908 0.195585 -0.071659 255 255 0
-0.362106 0.130251 -0.064831 255 255 0
-0.356879 0.179977 -0.064257 255 255 0
-0.302763 0.216521 -0.064402 255 255 0
-0.332562 0.165355 -0.064666 255 255 0
-0.363043 0.102195 -0.073644 255 255 0
-0.351013 0.159250 -0.064530 255 255 0
-0.327563 0.152764 -0.071649 255 255 0
-0.341182 0.214526 -0.071647 255 255 0
-0.307249 0.116442 -0.063553 255 255 0
-0.310193 0.203225 -0.071610 255 255 0
-0.339599 0.133919 -0.064078 255 255 0
-0.326208 0.184797 -0.071629 255 255 0
-0.323161 0.118113 -0.073652 255 255 0
-0.329038 0.215260 -0.063651 255 255 0
-0.293508 0.189771 -0.062667 255 255 0
-0.289245 0.080362 -0.070667 255 255 0
-0.330585 0.066608 -0.064445 255 255 0
-0.363778 0.114339 -0.073611 255 255 0
-0.337718 0.170946 -0.072666 255 255 0
-0.287333 0.162612 -0.070667 255 255 0
-0.297404 0.095297 -0.063965 255 255 0
-0.300661 0.159992 -0.071571 255 255 0
-0.300547 0.103671 -0.071571 255 255 0
-0.294269 0.125132 -0.077502 255 255 0
-0.296269 0.144366 -0.070667 255 255 0
-0.344275 0.184685 -0.064666 255 255 0
-0.293008 0.098857 -0.079622 255 255 0
-0.322109 0.089849 -0.063862 255 255 0
-0.319082 0.137796 -0.064132 255 255 0
-0.356551 0.087436 -0.064378 255 255 0
-0.361377 0.156318 -0.073647 255 255 0
-0.296885 0.119374 -0.063718 255 255 0
-0.330191 0.098742 -0.072666 255 255 0
-0.354478 0.221956 -0.071645 255 255 0
-0.360965 0.198506 -0.064127 255 255 0
-0.364454 0.069642 -0.068666 255 255 0
-0.345052 0.196834 -0.064271 255 255 0
-0.314798 0.197675 -0.063255 255 255 0
-0.301694 0.073627 -0.063810 255 255 0
-0.326202 0.146588 -0.063866 255 255 0
-0.312797 0.121047 -0.071556 255 255 0
-0.308933 0.176949 -0.063525 255 255 0
-0.314165 0.165433 -0.063565 255 255 0
-0.298982 0.137694 -0.063671 255 255 0
-0.351527 0.096964 -0.073598 255 255 0
-0.330920 0.197360 -0.071588 255 255 0
-0.319930 0.206259 -0.071605 255 255 0
-0.352686 0.143339 -0.073629 255 255 0
-0.328823 0.179039 -0.063998 255 255 0
-0.330591 0.104818 -0.064415 255 255 0
-0.296270 0.201761 -0.063457 255 255 0
-0.325580 0.190765 -0.063897 255 255 0
-0.303587 0.132144 -0.071592 255 255 0
-0.359407 0.184265 -0.072666 255 255 0
-0.361060 0.140197 -0.064176 255 255 0
-0.350691 0.104920 -0.064464 255 255 0
-0.321495 0.172236 -0.064127 255 255 0
-0.298598 0.064808 -0.066667 255 255 0
-0.326303 0.126488 -0.064122 255 255 0
-0.355815 0.075293 -0.079721 255 255 0
-0.370665 0.133161 -0.068666 255 255 0
-0.337705 0.075400 -0.073633 255 255 0
-0.341904 0.150249 -0.073655 255 255 0
-0.366496 0.088482 -0.064329 255 255 0
-0.306836 0.158630 -0.063298 255 255 0
-0.289059 0.104474 -0.068666 255 255 0
-0.311831 0.215463 -0.070667 255 255 0
-0.297130 0.087224 -0.072666 255 255 0
-0.352369 0.127217 -0.064072 255 255 0
-0.332832 0.083503 -0.064666 255 255 0
-0.351441 0.212582 -0.072666 255 255 0
-0.318442 0.067343 -0.064594 255 255 0
-0.312060 0.089792 -0.072666 255 255 0
-0.318448 0.105552 -0.073658 255 255 0
-0.291449 0.171089 -0.079581 255 255 0
-0.297408 0.114404 -0.072666 255 255 0
-0.288225 0.140585 -0.072666 255 255 0
-0.311015 0.099744 -0.072666 255 255 0
-0.344619 0.105291 -0.072666 255 255 0
-0.299162 0.222176 -0.070667 255 255 0
-0.312588 0.065648 -0.072666 255 255 0
-0.310271 0.193178 -0.070667 255 255 0
-0.296965 0.185746 -0.070667 255 255 0
-0.368187 0.168060 -0.068666 255 255 0
-0.321691 0.074697 -0.072666 255 255 0
-0.303808 0.206576 -0.063199 255 255 0
-0.337198 0.175898 -0.064267 255 255 0
-0.315832 0.111310 -0.064100 255 255 0
-0.302016 0.127958 -0.063494 255 255 0
-0.344324 0.222900 -0.071551 255 255 0
-0.349228 0.118843 -0.073655 255 255 0
-0.305164 0.174542 -0.071602 255 255 0
-0.318352 0.163862 -0.071649 255 255 0
-0.360331 0.166263 -0.073644 255 255 0
-0.326297 0.088278 -0.073661 255 255 0
-0.353737 0.171603 -0.064769 255 255 0
-0.355416 0.193901 -0.073664 255 255 0
-0.338458 0.202173 -0.071559 255 255 0
-0.316053 0.185742 -0.071541 255 255 0
-0.362535 0.202693 -0.077612 255 255 0
-0.292925 0.214453 -0.072666 255 255 0
-0.288206 0.182815 -0.062960 255 255 0
-0.356652 0.067337 -0.065456 255 255 0
-0.291748 0.072581 -0.075102 255 255 0
-0.367971 0.150978 -0.071627 255 255 0
-0.340829 0.160483 -0.064666 255 255 0
-0.336666 0.123555 -0.064184 255 255 0
-0.289983 0.088483 -0.064666 255 255 0
-0.353630 0.134354 -0.072666 255 255 0
-0.303910 0.186476 -0.062843 255 255 0
-0.286948 0.175648 -0.070667 255 255 0
-0.359710 0.210440 -0.073651 255 255 0
-0.328465 0.134759 -0.072666 255 255 0
-0.338553 0.143864 -0.064427 255 255 0
-0.289148 0.114539 -0.064666 255 255 0
-0.354466 0.145536 -0.064953 255 255 0
-0.326948 0.225096 -0.070667 255 255 0
-0.349012 0.082622 -0.065096 255 255 0
-0.342836 0.083984 -0.071524 255 255 0
-0.365035 0.182846 -0.064666 255 255 0
-0.315306 0.097178 -0.064066 255 255 0
-0.359166 0.081678 -0.073664 255 255 0
-0.305683 0.150465 -0.071642 255 255 0
-0.320867 0.178204 -0.071584 255 255 0
-0.317618 0.151719 -0.071629 255 255 0
-0.330819 0.217458 -0.071654 255 255 0
-0.296014 0.211789 -0.062667 255 255 0
-0.338275 0.069987 -0.064666 255 255 0
-0.287878 0.128541 -0.072666 255 255 0
-0.328507 0.162918 -0.071570 255 255 0
-0.333210 0.118166 -0.072666 255 255 0
-0.357297 0.175999 -0.071561 255 255 0
-0.295320 0.153397 -0.071663 255 255 0
-0.296055 0.165541 -0.063971 255 255 0
-0.339669 0.114118 -0.064666 255 255 0
-0.371122 0.111089 -0.068666 255 255 0
-0.313645 0.189510 -0.063893 255 255 0
-0.332281 0.203535 -0.064621 255 255 0
-0.340853 0.121984 -0.071573 255 255 0
-0.347143 0.176943 -0.064814 255 255 0
-0.346541 0.067870 -0.074666 255 255 0
-0.347866 0.112666 -0.064894 255 255 0
-0.316148 0.127432 -0.064087 255 255 0
-0.340764 0.218503 -0.064334 255 255 0
-0.347776 0.209185 -0.064886 255 255 0
-0.345351 0.098325 -0.064401 255 255 0
-0.321709 0.208457 -0.063641 255 255 0
-0.304107 0.108067 -0.063961 255 255 0
-0.311752 0.130991 -0.071593 255 255 0
-0.360225 0.148153 -0.073647 255 255 0
-0.308198 0.164805 -0.071592 255 255 0
-0.336457 0.106410 -0.072666 255 255 0
-0.295948 0.147430 -0.063004 255 255 0
-0.346112 0.138625 -0.072666 255 255 0
-0.363272 0.128363 -0.072666 255 255 0
-0.330388 0.145016 -0.071560 255 255 0
-0.349813 0.161135 -0.072666 255 255 0
-0.286208 0.192659 -0.070667 255 255 0
-0.350462 0.078752 -0.072666 255 255 0
-0.352590 0.201648 -0.063978 255 255 0
-0.333745 0.189612 -0.071623 255 255 0
-0.289885 0.205112 -0.069488 255 255 0
-0.304835 0.082000 -0.063799 255 255 0
-0.365344 0.099435 -0.064666 255 255 0
-0.302248 0.192335 -0.070667 255 255 0
-0.315001 0.157477 -0.064047 255 255 0
-0.291127 0.116758 -0.077486 255 255 0
-0.294801 0.177475 -0.071636 255 255 0
-0.323788 0.112147 -0.064030 255 255 0
-0.291856 0.090692 -0.077486 255 255 0
-0.328058 0.080419 -0.072666 255 255 0
-0.336604 0.133604 -0.072666 255 255 0
-0.290817 0.138847 -0.063584 255 255 0
-0.310707 0.140937 -0.063727 255 255 0
-0.361564 0.173675 -0.064666 255 255 0
-0.343165 0.176524 -0.071547 255 255 0
-0.302751 0.140101 -0.071626 255 255 0
-0.359178 0.158098 -0.064495 255 255 0
-0.330376 0.068597 -0.075245 255 255 0
-0.305671 0.074044 -0.077632 255 255 0
-0.310510 0.219346 -0.064193 255 255 0
-0.302341 0.201399 -0.070667 255 255 0
-0.288308 0.162715 -0.063103 255 255 0
-0.298400 0.075291 -0.072666 255 255 0
-0.370892 0.084921 -0.069479 255 255 0
-0.335310 0.155589 -0.071539 255 255 0
-0.344210 0.166580 -0.071551 255 255 0
-0.356160 0.110290 -0.064666 255 255 0
-0.305268 0.211817 -0.070667 255 255 0
-0.358767 0.200286 -0.071574 255 255 0
-0.349866 0.189295 -0.071591 255 255 0
-0.311639 0.074672 -0.071521 255 255 0
-0.317612 0.113508 -0.071599 255 255 0
-0.336362 0.183854 -0.064374 255 255 0
-0.322002 0.071738 -0.079504 255 255 0
-0.363262 0.070042 -0.076667 255 255 0
-0.347956 0.073532 -0.064666 255 255 0
-0.365490 0.144685 -0.068666 255 255 0
-0.320905 0.082172 -0.064666 255 255 0
-0.285857 0.214744 -0.070667 255 255 0
-0.360021 0.188351 -0.064181 255 255 0
-0.327354 0.154753 -0.064660 255 255 0
-0.325252 0.098223 -0.064517 255 255 0
-0.334852 0.093200 -0.072666 255 255 0
-0.304626 0.064857 -0.070667 255 255 0
-0.301287 0.154025 -0.063835 255 255 0
-0.366230 0.080409 -0.072666 255 255 0
-0.291020 0.098647 -0.063489 255 255 0
-0.363145 0.082096 -0.064750 255 255 0
-0.356638 0.115599 -0.072666 255 255 0
-0.344204 0.128370 -0.064437 255 255 0
-0.308401 0.124607 -0.063805 255 255 0
-0.316173 0.222861 -0.068666 255 255 0
-0.335424 0.211910 -0.064284 255 255 0
-0.351946 0.092985 -0.064640 255 255 0
-0.293319 0.076768 -0.063809 255 255 0
-0.303790 0.091946 -0.063535 255 255 0
-0.316896 0.215996 -0.064333 255 255 0
-0.312481 0.104926 -0.063817 255 255 0
-0.337395 0.097489 -0.064320 255 255 0
-0.344007 0.206779 -0.071640 255 255 0
-0.290500 0.122725 -0.063809 255 255 0
-0.312702 0.179356 -0.071623 255 255 0
-0.357913 0.093612 -0.073592 255 255 0
-0.310193 0.203225 -0.063666 255 255 0
-0.307249 0.116442 -0.071606 255 255 0
-0.298038 0.127539 -0.071665 255 255 0
-0.324535 0.200710 -0.071629 255 255 0
-0.322957 0.158313 -0.071638 255 255 0
-0.344939 0.140513 -0.064751 255 255 0
-0.317092 0.137587 -0.071600 255 255 0
-0.356885 0.218188 -0.066089 255 255 0
-0.362942 0.122295 -0.065008 255 255 0
-0.372149 0.092099 -0.068666 255 255 0
-0.363045 0.121316 -0.072666 255 255 0
-0.288477 0.134578 -0.068666 255 255 0
-0.338124 0.071422 -0.079394 255 255 0
-0.288483 0.156701 -0.066667 255 255 0
-0.333372 0.074945 -0.064666 255 255 0
-0.294715 0.066860 -0.072666 255 255 0
-0.338158 0.198120 -0.064666 255 255 0
-0.353686 0.152964 -0.064666 255 255 0
-0.325269 0.212853 -0.071596 255 255 0
-0.294598 0.217673 -0.066092 255 255 0
-0.344740 0.199805 -0.072666 255 255 0
-0.294378 0.162355 -0.070667 255 255 0
-0.370791 0.105021 -0.071651 255 255 0
-0.297508 0.094318 -0.076667 255 255 0
-0.366842 0.094550 -0.072666 255 255 0
-0.365045 0.197951 -0.070667 255 255 0
-0.292276 0.144099 -0.078666 255 255 0
-0.345369 0.155553 -0.064666 255 255 0
-0.342120 0.186470 -0.071511 255 255 0
-0.369072 0.072664 -0.074666 255 255 0
-0.326100 0.166687 -0.063650 255 255 0
-0.363707 0.115016 -0.064666 255 255 0
-0.316579 0.199873 -0.069546 255 255 0
-0.324523 0.124290 -0.071644 255 255 0
-0.289765 0.110582 -0.071152 255 255 0
-0.363548 0.212196 -0.066667 255 255 0
-0.362327 0.204682 -0.066048 255 255 0
-0.350837 0.185375 -0.064666 255 255 0
-0.367237 0.138835 -0.066048 255 255 0
-0.299121 0.107543 -0.076667 255 255 0
-0.346410 0.145654 -0.072666 255 255 0
-0.291280 0.102697 -0.074666 255 255 0
-0.313646 0.208642 -0.070667 255 255 0
-0.365404 0.156270 -0.064666 255 255 0
-0.290070 0.086481 -0.072666 255 255 0
-0.324728 0.103201 -0.072666 255 255 0
-0.297813 0.119471 -0.076667 255 255 0
-0.345362 0.155622 -0.072666 255 255 0
-0.356874 0.160888 -0.072666 255 255 0
-0.337813 0.089489 -0.064666 255 255 0
-0.304543 0.218719 -0.071610 255 255 0
-0.354991 0.102280 -0.072666 255 255 0
-0.309453 0.152872 -0.064275 255 255 0
-0.324526 0.066863 -0.066667 255 255 0
-0.306385 0.067252 -0.076667 255 255 0
-0.315109 0.175587 -0.064212 255 255 0
-0.299095 0.194014 -0.063511 255 255 0
-0.304209 0.087967 -0.071556 255 255 0
-0.348600 0.124810 -0.071555 255 255 0
-0.373381 0.127414 -0.068666 255 255 0
-0.299197 0.173915 -0.063385 255 255 0
-0.287037 0.190735 -0.064666 255 255 0
-0.321596 0.152136 -0.064148 255 255 0
-0.359463 0.107853 -0.072666 255 255 0
-0.330920 0.197360 -0.064157 255 255 0
-0.332061 0.129104 -0.064567 255 255 0
-0.290823 0.177057 -0.063625 255 255 0
-0.331439 0.173281 -0.064636 255 255 0
-0.336358 0.164761 -0.072666 255 255 0
-0.319822 0.188148 -0.064347 255 255 0
-0.298557 0.103462 -0.063710 255 255 0
-0.332377 0.145226 -0.064738 255 255 0
-0.319804 0.073519 -0.064292 255 255 0
-0.356551 0.087436 -0.071569 255 255 0
-0.312284 0.183335 -0.063620 255 255 0
-0.323687 0.132246 -0.064355 255 255 0
-0.288705 0.168790 -0.070667 255 255 0
-0.346414 0.203010 -0.064449 255 255 0
-0.361783 0.075920 -0.064954 255 255 0
-0.358856 0.103767 -0.064791 255 255 0
-0.301491 0.113825 -0.063804 255 255 0
-0.320443 0.143971 -0.063773 255 255 0
-0.316351 0.087233 -0.063961 255 255 0
-0.333220 0.175479 -0.071499 255 255 0
-0.325150 0.118323 -0.063736 255 255 0
-0.352375 0.165427 -0.064549 255 255 0
-0.320121 0.089640 -0.071587 255 255 0
-0.321703 0.170247 -0.071599 255 255 0
-0.327569 0.190974 -0.071592 255 255 0
-0.316256 0.145543 -0.071613 255 255 0
-0.347866 0.112666 -0.073638 255 255 0
-0.330185 0.185216 -0.063993 255 255 0
-0.303898 0.110056 -0.071546 255 255 0
-0.346940 0.217142 -0.071618 255 255 0
-0.301814 0.168157 -0.071653 255 255 0
-0.335632 0.209921 -0.071587 255 255 0
-0.342836 0.083984 -0.064478 255 255 0
-0.300559 0.180091 -0.071578 255 255 0
-0.310803 0.082628 -0.071618 255 255 0
-0.340220 0.089742 -0.071600 255 255 0
-0.337096 0.195998 -0.071569 255 255 0
-0.351216 0.119052 -0.064617 255 255 0
-0.341701 0.190448 -0.065010 255 255 0
-0.360785 0.190443 -0.072666 255 255 0
-0.366508 0.184023 -0.070667 255 255 0
-0.285907 0.204694 -0.064692 255 255 0
-0.343464 0.078017 -0.073602 255 255 0
-0.298994 0.214114 -0.069551 255 255 0
-0.289531 0.199042 -0.070667 255 255 0
-0.336146 0.147633 -0.071524 255 255 0
-0.298868 0.081373 -0.071645 255 255 0
-0.349341 0.175164 -0.071592 255 255 0
-0.326714 0.084300 -0.064621 255 255 0
-0.338237 0.127742 -0.073665 255 255 0
-0.296270 0.201761 -0.071623 255 255 0
-0.289015 0.148712 -0.070667 255 255 0
-0.329783 0.221372 -0.066667 255 255 0
-0.297616 0.074163 -0.078666 255 255 0
-0.342630 0.212666 -0.064666 255 255 0
-0.333942 0.111203 -0.064396 255 255 0
-0.297730 0.101364 -0.076667 255 255 0
-0.352255 0.070897 -0.077440 255 255 0
0.765258 0.045947 -0.037459 255 0 255
0.780300 0.208190 0.047334 255 0 255
0.746604 0.174602 -0.073628 255 0 255
0.785388 0.103531 0.099333 255 0 255
0.796229 0.130144 -0.004666 255 0 255
0.793941 0.050977 0.038376 255 0 255
0.753419 0.105511 -0.071492 255 0 255
0.756752 0.213756 -0.017692 255 0 255
0.823986 0.049829 -0.065631 255 0 255
0.773565 0.145625 0.053333 255 0 255
0.769197 0.083418 0.001334 255 0 255
0.755696 0.157558 -0.024667 255 0 255
0.811333 0.055181 -0.012666 255 0 255
0.792991 0.099341 0.050337 255 0 255
0.780526 0.152937 0.102326 255 0 255
0.792519 0.181842 -0.004666 255 0 255
0.749989 0.216477 -0.062667 255 0 255
0.760256 0.113162 -0.028667 255 0 255
0.764368 0.176757 0.025333 255 0 255
0.765360 0.066047 -0.073653 255 0 255
0.770282 0.117816 0.023334 255 0 255
0.758059 0.141222 -0.058666 255 0 255
0.777459 0.047236 0.001334 255 0 255
0.771990 0.081439 -0.038667 255 0 255
0.749226 0.188404 -0.040666 255 0 255
0.789033 0.042549 -0.062667 255 0 255
0.766383 0.209715 0.015334 255 0 255
0.763904 0.147867 0.007333 255 0 255
0.801282 0.092437 -0.002667 255 0 255
0.785994 0.176495 0.053333 255 0 255
0.757636 0.183896 -0.006667 255 0 255
0.776559 0.076935 0.032391 255 0 255
0.788890 0.213385 -0.006667 255 0 255
0.777807 0.127080 0.116026 255 0 255
0.806391 0.054627 -0.042667 255 0 255
0.775140 0.111272 -0.004666 255 0 255
0.758665 0.040607 -0.064223 255 0 255
0.780113 0.110749 0.072352 255 0 255
0.804932 0.059877 0.014317 255 0 255
0.787630 0.154202 0.075334 255 0 255
0.769617 0.135985 -0.016667 255 0 255
0.767139 0.063849 -0.016992 255 0 255
0.792892 0.155795 0.001334 255 0 255
0.785975 0.138288 0.031333 255 0 255
0.789425 0.046273 -0.024667 255 0 255
0.791731 0.125617 0.054387 255 0 255
0.794252 0.073066 0.052080 255 0 255
0.756673 0.165500 -0.050666 255 0 255
0.766082 0.102170 -0.050666 255 0 255
0.781606 0.096515 0.017333 255 0 255
0.781443 0.161672 0.033334 255 0 255
0.759981 0.064601 -0.050666 255 0 255
0.748587 0.212603 -0.039802 255 0 255
0.777032 0.054764 0.023334 255 0 255
0.768167 0.188424 0.045188 255 0 255
0.764099 0.092322 -0.020110 255 0 255
0.756124 0.135393 -0.036666 255 0 255
0.742879 0.195104 -0.064666 255 0 255
0.755566 0.083164 -0.062667 255 0 255
0.775503 0.113245 0.045333 255 0 255
0.771040 0.168011 0.001334 255 0 255
0.753235 0.119607 -0.054666 255 0 255
0.761049 0.178100 -0.026666 255 0 255
0.781575 0.067254 0.007333 255 0 255
0.774982 0.129388 0.005334 255 0 255
0.784992 0.051917 -0.044666 255 0 255
0.802104 0.071248 -0.002667 255 0 255
0.767877 0.147400 0.027334 255 0 255
0.796234 0.111066 0.003426 255 0 255
0.779157 0.197324 0.030340 255 0 255
0.769092 0.188326 0.009334 255 0 255
0.804198 0.052899 -0.070667 255 0 255
0.755674 0.203496 -0.000666 255 0 255
0.788487 0.113892 0.030394 255 0 255
0.794070 0.119338 0.107334 255 0 255
0.748600 0.155326 -0.070667 255 0 255
0.779477 0.085563 0.049333 255 0 255
0.771213 0.045204 -0.018666 255 0 255
0.759978 0.197329 -0.026666 255 0 255
0.797803 0.049452 -0.000666 255 0 255
0.790700 0.089527 0.033334 255 0 255
0.771242 0.163968 0.049333 255 0 255
0.751741 0.127809 -0.071645 255 0 255
0.782634 0.058198 0.051823 255 0 255
0.765382 0.208826 0.035333 255 0 255
0.774748 0.048972 -0.072666 255 0 255
0.774064 0.063121 -0.034667 255 0 255
0.767570 0.154300 -0.010667 255 0 255
0.777745 0.078822 -0.014666 255 0 255
0.793718 0.067988 0.031333 255 0 255
0.787012 0.157252 0.057333 255 0 255
0.772050 0.129696 0.039166 255 0 255
0.774796 0.098431 0.035333 255 0 255
0.781343 0.179853 0.033334 255 0 255
0.762312 0.151854 -0.040666 255 0 255
0.773413 0.041068 -0.052667 255 0 255
0.753302 0.180926 -0.058666 255 0 255
0.762216 0.120675 -0.012666 255 0 255
0.773293 0.160657 0.017333 255 0 255
0.762765 0.194430 0.025333 255 0 255
0.775920 0.147389 0.086569 255 0 255
0.809307 0.044113 -0.056667 255 0 255
0.817129 0.052562 -0.028667 255 0 255
0.791261 0.111589 0.085333 255 0 255
0.768914 0.099861 0.006515 255 0 255
0.784413 0.056000 -0.011672 255 0 255
0.759993 0.094766 -0.036666 255 0 255
0.765135 0.121309 -0.042667 255 0 255
0.780623 0.096467 0.063333 255 0 255
0.752340 0.202154 -0.052667 255 0 255
0.757342 0.167440 -0.010667 255 0 255
0.773114 0.082424 0.017333 255 0 255
0.775406 0.095156 -0.008666 255 0 255
0.789905 0.050847 0.013334 255 0 255
0.774182 0.157626 0.067333 255 0 255
0.775819 0.127289 0.054689 255 0 255
0.777840 0.117022 0.103333 255 0 255
0.782611 0.191919 0.051334 255 0 255
0.801566 0.056209 -0.026666 255 0 255
0.779089 0.110857 0.011333 255 0 255
0.772486 0.105518 -0.020667 255 0 255
0.776220 0.141324 0.015334 255 0 255
0.783885 0.138507 0.107334 255 0 255
0.821188 0.052135 -0.046666 255 0 255
0.789317 0.140915 0.055334 255 0 255
0.764416 0.076201 -0.025939 255 0 255
0.751830 0.170031 -0.036666 255 0 255
0.779035 0.062228 0.037334 255 0 255
0.762861 0.134684 -0.002667 255 0 255
0.767558 0.086958 -0.052667 255 0 255
0.768389 0.056599 -0.060666 255 0 255
0.742202 0.209252 -0.073665 255 0 255
0.770909 0.061442 -0.002435 255 0 255
0.768618 0.126035 -0.028667 255 0 255
0.781032 0.100357 0.083334 255 0 255
0.784091 0.110332 0.057914 255 0 255
0.767150 0.073903 -0.060666 255 0 255
0.771079 0.177866 0.055334 255 0 255
0.805925 0.059772 0.029334 255 0 255
0.766505 0.144356 -0.028667 255 0 255
0.758977 0.052641 -0.072666 255 0 255
0.750763 0.152043 -0.050666 255 0 255
0.762528 0.096509 -0.063657 255 0 255
0.764024 0.196903 -0.012666 255 0 255
0.787532 0.200465 -0.000119 255 0 255
0.792304 0.103435 0.069334 255 0 255
0.796902 0.044632 -0.048667 255 0 255
0.767420 0.174425 0.039333 255 0 255
0.766717 0.118191 0.009334 255 0 255
0.761443 0.175053 0.011333 255 0 255
0.780107 0.148960 0.041023 255 0 255
0.771172 0.055381 -0.046666 255 0 255
0.799947 0.060400 0.047334 255 0 255
0.767438 0.162357 0.030516 255 0 255
0.789404 0.152004 0.089334 255 0 255
0.769405 0.131985 0.025333 255 0 255
0.785264 0.074010 0.019334 255 0 255
0.767399 0.202581 0.049333 255 0 255
0.775289 0.160520 0.081333 255 0 255
0.747757 0.166437 -0.061503 255 0 255
0.762969 0.110540 -0.062667 255 0 255
0.779152 0.044200 -0.034667 255 0 255
0.758982 0.145147 -0.016667 255 0 255
0.792143 0.167804 -0.005569 255 0 255
0.770326 0.103734 -0.034667 255 0 255
0.785764 0.126244 0.038075 255 0 255
0.759880 0.078688 -0.044666 255 0 255
0.757815 0.109071 -0.041495 255 0 255
0.758257 0.199520 -0.040666 255 0 255
0.749701 0.206452 -0.026666 255 0 255
0.771321 0.103629 0.022513 255 0 255
0.787162 0.077833 0.041334 255 0 255
0.786760 0.104018 0.039333 255 0 255
0.778056 0.098899 0.049333 255 0 255
0.761991 0.129666 -0.052667 255 0 255
0.793403 0.141529 0.001740 255 0 255
0.797710 0.048570 -0.014435 255 0 255
0.773621 0.125509 -0.007663 255 0 255
0.750029 0.142066 -0.070667 255 0 255
0.759220 0.198962 0.011333 255 0 255
0.754088 0.188400 -0.018666 255 0 255
0.761644 0.048338 -0.052667 255 0 255
0.793616 0.086146 0.049333 255 0 255
0.749949 0.187297 -0.072666 255 0 255
0.780560 0.086570 0.007333 255 0 255
0.772504 0.143726 -0.004666 255 0 255
0.762913 0.160822 0.009334 255 0 255
0.786499 0.056708 0.001334 255 0 255
0.764646 0.102320 -0.010667 255 0 255
0.799491 0.046371 -0.035026 255 0 255
0.781686 0.136728 0.045333 255 0 255
0.777421 0.056735 -0.022666 255 0 255
0.793101 0.062119 0.019334 255 0 255
0.806812 0.058627 0.001334 255 0 255
0.758543 0.133127 -0.022666 255 0 255
0.756985 0.062905 -0.064508 255 0 255
0.757070 0.178517 -0.044666 255 0 255
0.781226 0.050302 0.041334 255 0 255
0.781398 0.072405 0.051334 255 0 255
0.774160 0.057078 0.009334 255 0 255
0.763878 0.166753 -0.021654 255 0 255
0.779268 0.074640 -0.002667 255 0 255
0.777702 0.126076 0.017333 255 0 255
0.770944 0.091603 -0.030667 255 0 255
0.779377 0.112838 0.089334 255 0 255
0.762113 0.140795 -0.046666 255 0 255
0.756459 0.077037 -0.073595 255 0 255
0.774035 0.067146 0.017333 255 0 255
0.752810 0.202104 -0.014666 255 0 255
0.780806 0.050347 -0.056667 255 0 255
0.772901 0.185915 0.025333 255 0 255
0.754680 0.105378 -0.054666 255 0 255
0.756889 0.093080 -0.050666 255 0 255
0.765844 0.055940 -0.028667 255 0 255
0.770705 0.069507 -0.046666 255 0 255
0.777379 0.209577 0.031333 255 0 255
0.766906 0.195563 -0.000666 255 0 255
0.761268 0.122785 -0.063656 255 0 255
0.742763 0.207182 -0.058666 255 0 255
0.747563 0.190589 -0.052667 255 0 255
0.766711 0.084004 -0.010667 255 0 255
0.799275 0.082592 0.004342 255 0 255
0.773323 0.111463 0.033334 255 0 255
0.766501 0.134301 0.012996 255 0 255
0.796030 0.051723 -0.058666 255 0 255
0.766279 0.208732 0.002350 255 0 255
0.774504 0.089218 0.027334 255 0 255
0.767219 0.179402 -0.000666 255 0 255
0.778843 0.173225 0.043334 255 0 255
0.784308 0.054992 -0.032666 255 0 255
0.763849 0.176812 -0.014666 255 0 255
0.762203 0.066379 -0.038667 255 0 255
0.789692 0.053434 0.027334 255 0 255
0.765025 0.196798 0.036953 255 0 255
0.788697 0.115881 0.096366 255 0 255
0.777503 0.066781 -0.011641 255 0 255
0.772565 0.172866 0.015334 255 0 255
0.755784 0.157549 -0.060666 255 0 255
0.750198 0.132263 -0.060666 255 0 255
0.770807 0.041342 -0.064388 255 0 255
0.789245 0.063696 0.043334 255 0 255
0.760108 0.159106 -0.002667 255 0 255
0.761365 0.161967 -0.034667 255 0 255
0.771762 0.155869 0.003333 255 0 255
0.784392 0.116333 0.113334 255 0 255
0.770832 0.051395 -0.008666 255 0 255
0.774864 0.071081 -0.024667 255 0 255
0.776139 0.197641 0.043334 255 0 255
0.774451 0.171675 0.028369 255 0 255
0.771776 0.117659 -0.018666 255 0 255
0.770440 0.141932 0.037334 255 0 255
0.755237 0.147552 -0.030667 255 0 255
0.789040 0.129921 0.113334 255 0 255
0.782640 0.106462 0.023334 255 0 255
0.771680 0.073426 0.007333 255 0 255
0.755934 0.091169 -0.071605 255 0 255
0.769831 0.154062 0.039333 255 0 255
0.770185 0.198267 0.017333 255 0 255
0.768836 0.166232 -0.010667 255 0 255
0.814351 0.053825 -0.060666 255 0 255
0.752385 0.157906 -0.040666 255 0 255
0.758986 0.187377 -0.034667 255 0 255
0.761782 0.185073 0.017588 255 0 255
0.784554 0.086151 0.021333 255 0 255
0.765760 0.184655 0.034251 255 0 255
0.785877 0.050785 -0.070667 255 0 255
0.776932 0.149293 0.075334 255 0 255
0.746907 0.215748 -0.050666 255 0 255
0.751782 0.115738 -0.066667 255 0 255
0.778524 0.124994 0.029334 255 0 255
0.764410 0.114411 -0.051711 255 0 255
0.748544 0.173926 -0.050666 255 0 255
0.747084 0.200694 -0.042667 255 0 255
0.811573 0.046533 -0.036666 255 0 255
0.779999 0.167070 0.055805 255 0 255
0.762191 0.208094 -0.008666 255 0 255
0.761359 0.102665 -0.024667 255 0 255
0.807720 0.048144 -0.020667 255 0 255
0.749113 0.198470 -0.073647 255 0 255
0.774798 0.089187 -0.018666 255 0 255
0.775441 0.142829 0.101333 255 0 255
0.769043 0.091803 -0.042667 255 0 255
0.764886 0.116372 -0.002667 255 0 255
0.749751 0.196393 -0.032666 255 0 255
0.758699 0.189419 0.005334 255 0 255
0.778870 0.147078 0.029334 255 0 255
0.768600 0.073750 -0.006667 255 0 255
0.792115 0.052729 0.049333 255 0 255
0.765555 0.152500 0.017333 255 0 255
0.757858 0.125155 -0.032666 255 0 255
0.761841 0.146857 -0.004666 255 0 255
0.764196 0.166720 0.019334 255 0 255
0.757461 0.211670 -0.032666 255 0 255
0.786354 0.091995 0.043334 255 0 255
0.784059 0.120389 0.047334 255 0 255
0.778649 0.096826 0.002340 255 0 255
0.761845 0.084515 -0.032666 255 0 255
0.760147 0.169510 0.001334 255 0 255
0.780183 0.149687 0.061334 255 0 255
0.788703 0.077671 0.030371 255 0 255
0.748509 0.146247 -0.060666 255 0 255
0.754858 0.127481 -0.044666 255 0 255
0.795369 0.121965 0.003333 255 0 255
0.792470 0.056112 -0.020667 255 0 255
0.757907 0.074874 -0.054666 255 0 255
0.787565 0.047714 -0.004666 255 0 255
0.794671 0.057922 -0.008666 255 0 255
0.784990 0.042349 -0.050666 255 0 255
0.777396 0.084891 -0.005631 255 0 255
0.766493 0.153365 -0.022666 255 0 255
0.771388 0.093567 0.015334 255 0 255
0.744200 0.182898 -0.064666 255 0 255
0.794877 0.059882 0.007333 255 0 255
0.777694 0.183400 0.046373 255 0 255
0.761186 0.150948 -0.052667 255 0 255
0.783508 0.096316 0.029334 255 0 255
0.753623 0.145710 -0.041223 255 0 255
0.752678 0.136729 -0.050666 255 0 255
0.763936 0.205566 0.025333 255 0 255
0.777294 0.064793 0.027145 255 0 255
0.764188 0.084269 -0.068666 255 0 255
0.783244 0.121406 0.059333 255 0 255
0.778295 0.189114 0.037334 255 0 255
0.777028 0.088952 0.039333 255 0 255
0.798412 0.102793 -0.002667 255 0 255
0.753934 0.167798 -0.026153 255 0 255
0.781390 0.046364 -0.016667 255 0 255
0.778954 0.157125 0.047760 255 0 255
0.762544 0.110585 -0.016667 255 0 255
0.798172 0.052543 0.021333 255 0 255
0.775440 0.137384 0.113334 255 0 255
0.783666 0.125419 0.105334 255 0 255
0.775936 0.119233 0.003333 255 0 255
0.760267 0.122890 -0.022666 255 0 255
0.764764 0.126440 0.003333 255 0 255
0.777935 0.137122 0.057333 255 0 255
0.789286 0.044958 -0.036666 255 0 255
0.786309 0.093171 0.055334 255 0 255
0.769144 0.107881 0.013334 255 0 255
0.758334 0.157281 -0.014666 255 0 255
0.778845 0.156086 0.091333 255 0 255
0.773105 0.082335 -0.026666 255 0 255
0.799934 0.050596 0.009334 255 0 255
0.789048 0.148019 0.099333 255 0 255
0.794251 0.053928 -0.040666 255 0 255
0.763421 0.056196 -0.038667 255 0 255
0.799247 0.044063 -0.064666 255 0 255
0.797731 0.060633 0.037334 255 0 255
0.764195 0.131500 -0.042667 255 0 255
0.764753 0.066111 -0.028667 255 0 255
0.812574 0.056055 -0.050666 255 0 255
0.772984 0.053180 -0.036666 255 0 255
0.816238 0.052655 -0.071628 255 0 255
0.751867 0.180081 -0.034667 255 0 255
0.774074 0.139539 0.005334 255 0 255
0.761350 0.130821 -0.012666 255 0 255
0.813476 0.045509 -0.046666 255 0 255
0.793439 0.113371 0.055334 255 0 255
0.780491 0.098643 0.073334 255 0 255
0.758944 0.050633 -0.062667 255 0 255
0.756123 0.193712 -0.004666 255 0 255
0.750857 0.206332 -0.064666 255 0 255
0.772773 0.193973 0.052348 255 0 255
0.781674 0.116618 0.037334 255 0 255
0.767367 0.093990 -0.002667 255 0 255
0.788215 0.111294 0.105334 255 0 255
0.779730 0.049705 0.013334 255 0 255
0.783028 0.148653 0.051334 255 0 255
0.771085 0.043982 -0.028667 255 0 255
0.805832 0.049306 -0.006667 255 0 255
0.765989 0.106201 -0.000666 255 0 255
0.754769 0.175755 -0.018750 255 0 255
0.790106 0.103666 0.079334 255 0 255
0.787049 0.110020 0.047334 255 0 255
0.774052 0.157640 0.057333 255 0 255
0.752662 0.097546 -0.064666 255 0 255
0.772914 0.042252 -0.042667 255 0 255
0.755249 0.209892 -0.046666 255 0 255
0.774242 0.150555 0.011333 255 0 255
0.769572 0.115879 -0.030667 255 0 255
0.792349 0.103430 0.059333 255 0 255
0.757481 0.135250 -0.066667 255 0 255
0.784832 0.059978 0.014335 255 0 255
0.752571 0.173975 -0.065729 255 0 255
0.777841 0.137131 0.025333 255 0 255
0.816547 0.055585 -0.038667 255 0 255
0.760828 0.205283 -0.020667 255 0 255
0.751806 0.196176 -0.060666 255 0 255
0.775219 0.151484 0.021333 255 0 255
0.766758 0.073944 -0.016667 255 0 255
0.756567 0.073004 -0.064666 255 0 255
0.765477 0.134409 -0.032666 255 0 255
0.802620 0.057016 -0.016667 255 0 255
0.786526 0.200572 0.049333 255 0 255
0.756024 0.187689 -0.047659 255 0 255
0.778954 0.072662 0.041334 255 0 255
0.768074 0.111007 -0.040666 255 0 255
0.779696 0.116827 0.021333 255 0 255
0.764624 0.039913 -0.056667 255 0 255
0.767337 0.142257 0.019263 255 0 255
0.755924 0.148473 -0.066667 255 0 255
0.768168 0.054498 -0.018666 255 0 255
0.781678 0.144772 0.094213 255 0 255
0.791218 0.063329 0.052655 255 0 255
0.794030 0.147496 -0.005645 255 0 255
0.768422 0.200463 0.007333 255 0 255
0.779683 0.183191 0.055616 255 0 255
0.768202 0.126079 0.017333 255 0 255
0.781272 0.064374 -0.001662 255 0 255
0.772054 0.072343 -0.034667 255 0 255
0.746644 0.164542 -0.070667 255 0 255
0.801581 0.066261 0.005295 255 0 255
0.774894 0.075099 0.023334 255 0 255
0.773079 0.208018 0.041334 255 0 255
0.781473 0.076419 0.009334 255 0 255
0.786434 0.065843 0.025333 255 0 255
0.769740 0.126856 -0.018666 255 0 255
0.821996 0.050038 -0.055716 255 0 255
0.769019 0.062595 -0.052667 255 0 255
0.789431 0.103737 0.030425 255 0 255
0.768603 0.077772 -0.051661 255 0 255
0.790781 0.173981 0.001233 255 0 255
0.771518 0.182038 0.016356 255 0 255
0.786922 0.079869 0.050721 255 0 255
0.762752 0.184971 -0.020667 255 0 255
0.771748 0.050293 -0.054666 255 0 255
0.759321 0.209463 0.009334 255 0 255
0.772573 0.134677 -0.002667 255 0 255
0.786391 0.132211 0.058081 255 0 255
0.780355 0.161000 0.073334 255 0 255
0.808591 0.056435 -0.032666 255 0 255
0.756323 0.119283 -0.040666 255 0 255
0.751837 0.186118 -0.027679 255 0 255
0.762201 0.142797 -0.036666 255 0 255
0.804190 0.052821 -0.052667 255 0 255
0.793369 0.055059 -0.030667 255 0 255
0.770845 0.109713 -0.012666 255 0 255
0.768716 0.146135 -0.014666 255 0 255
0.764750 0.041107 -0.046666 255 0 255
0.770995 0.177061 0.007333 255 0 255
0.809577 0.046681 -0.066667 255 0 255
0.776594 0.107097 0.003333 255 0 255
0.774481 0.123408 0.045333 255 0 255
0.764207 0.074212 -0.069665 255 0 255
0.773095 0.139642 0.046402 255 0 255
0.768934 0.164212 0.039333 255 0 255
0.779799 0.107758 0.105334 255 0 255
0.783951 0.156600 0.083334 255 0 255
0.749452 0.160225 -0.054666 255 0 255
0.759387 0.104883 -0.033572 255 0 255
0.799592 0.047340 -0.024667 255 0 255
0.794959 0.050870 -0.070667 255 0 255
0.796753 0.068781 0.043334 255 0 255
0.783210 0.110424 0.081333 255 0 255
0.776552 0.163410 0.025333 255 0 255
0.780877 0.041487 -0.058666 255 0 255
0.766577 0.049831 -0.068666 255 0 255
0.783464 0.104364 0.066915 255 0 255
0.796952 0.060493 0.027334 255 0 255
0.774140 0.149587 0.095436 255 0 255
0.772814 0.204023 0.025333 255 0 255
0.776762 0.117135 0.054760 255 0 255
0.764295 0.138555 0.005334 255 0 255
0.775649 0.105186 0.041334 255 0 255
0.742017 0.215305 -0.066667 255 0 255
0.757511 0.101059 -0.046666 255 0 255
0.790671 0.107629 0.093334 255 0 255
0.766259 0.065953 -0.064666 255 0 255
0.763356 0.172842 -0.006667 255 0 255
0.783029 0.157621 0.065334 255 0 255
0.753298 0.210096 -0.056667 255 0 255
0.762966 0.074342 -0.034667 255 0 255
0.792051 0.052122 -0.050666 255 0 255
0.766070 0.187608 -0.004666 255 0 255
0.751992 0.123760 -0.062667 255 0 255
0.773251 0.119515 0.037334 255 0 255
0.779131 0.102809 0.057333 255 0 255
0.765043 0.082168 -0.019456 255 0 255
0.759654 0.088294 -0.042667 255 0 255
0.775621 0.048880 -0.063660 255 0 255
0.779297 0.132957 0.035333 255 0 255
0.748035 0.182495 -0.048667 255 0 255
0.779431 0.104255 0.091333 255 0 255
0.805189 0.045772 -0.042667 255 0 255
0.810579 0.056208 -0.022666 255 0 255
0.755143 0.113374 -0.048667 255 0 255
0.752215 0.198145 -0.022666 255 0 255
0.757296 0.084993 -0.053969 255 0 255
0.780074 0.052981 0.031333 255 0 255
0.745648 0.206879 -0.048667 255 0 255
0.755268 0.171680 -0.056667 255 0 255
0.769593 0.089734 0.007333 255 0 255
0.775664 0.155459 0.031333 255 0 255
0.760948 0.158008 -0.046666 255 0 255
0.772603 0.163825 0.009334 255 0 255
0.784094 0.129489 0.049333 255 0 255
0.756874 0.139336 -0.028667 255 0 255
0.779369 0.056530 -0.004666 255 0 255
0.759662 0.175241 -0.034667 255 0 255
0.797787 0.058616 -0.000666 255 0 255
0.804096 0.051921 -0.061654 255 0 255
0.753032 0.188003 -0.064666 255 0 255
0.758014 0.168356 -0.042667 255 0 255
0.765392 0.152517 -0.032666 255 0 255
0.769621 0.172183 0.047334 255 0 255
0.817455 0.045098 -0.062667 255 0 255
0.762066 0.092112 -0.028667 255 0 255
0.769219 0.160159 -0.003659 255 0 255
0.776972 0.119124 0.012249 255 0 255
0.760998 0.139354 -0.010667 255 0 255
0.762491 0.088469 -0.060666 255 0 255
0.747751 0.204647 -0.035087 255 0 255
0.789754 0.049406 0.004429 255 0 255
0.772576 0.096431 -0.022666 255 0 255
0.759649 0.179263 0.003333 255 0 255
0.744756 0.198928 -0.056667 255 0 255
0.796862 0.117033 -0.003496 255 0 255
0.778818 0.163172 0.041334 255 0 255
0.760261 0.056528 -0.054666 255 0 255
0.780840 0.171003 0.035333 255 0 255
0.772338 0.151573 0.047334 255 0 255
0.780929 0.064411 0.045333 255 0 255
0.771700 0.194085 0.027334 255 0 255
0.752860 0.107581 -0.062667 255 0 255
0.765417 0.057997 -0.070667 255 0 255
0.772592 0.202036 0.035333 255 0 255
0.775624 0.201968 0.051334 255 0 255
0.804825 0.058869 -0.008666 255 0 255
0.778226 0.131058 0.108368 255 0 255
0.772346 0.065312 0.005334 255 0 255
0.754280 0.161729 -0.068666 255 0 255
0.779899 0.146970 0.108170 255 0 255
0.779176 0.101828 0.011333 255 0 255
0.795108 0.042942 -0.056667 255 0 255
0.759687 0.201381 0.019334 255 0 255
0.781286 0.045368 -0.026666 255 0 255
0.782863 0.108450 0.033334 255 0 255
0.769780 0.186243 0.053333 255 0 255
0.763112 0.050195 -0.044666 255 0 255
0.794764 0.077946 0.045333 255 0 255
0.766157 0.160481 -0.016667 255 0 255
0.772062 0.053277 -0.000578 255 0 255
0.753722 0.195975 -0.046666 255 0 255
0.794556 0.133364 0.002808 255 0 255
0.789545 0.047417 -0.015551 255 0 255
0.746650 0.175039 -0.058666 255 0 255
0.774489 0.131451 0.047334 255 0 255
0.766030 0.158483 0.023334 255 0 255
