ply
format ascii 1.0
element vertex 1276
property float x
property float y
property float z
property uchar red
property uchar green
property uchar blue
end_header
-0.005853 0.080328 0.141595 255 0 255
0.098166 0.013428 0.189597 255 0 255
0.011698 0.041876 0.131597 255 0 255
0.006364 0.094558 0.187595 255 0 255
-0.050931 0.039758 0.155595 255 0 255
0.081236 0.021339 0.201999 255 0 255
0.007474 0.073007 0.039596 255 0 255
0.076468 -0.006295 0.109596 255 0 255
0.001959 0.070435 0.055596 255 0 255
0.023957 0.073189 0.087596 255 0 255
0.060462 0.046961 0.050560 255 0 255
0.043107 -0.034132 0.091596 255 0 255
0.015143 0.111021 0.219597 255 0 255
0.014393 0.145755 0.165596 255 0 255
-0.038804 0.102183 0.087596 255 0 255
0.026865 0.055568 0.121596 255 0 255
-0.047888 0.011884 0.109596 255 0 255
0.107721 0.007134 0.149595 255 0 255
-0.017002 -0.004609 0.081125 255 0 255
0.003342 0.150524 0.172594 255 0 255
0.041557 0.016515 0.087596 255 0 255
-0.040669 0.046144 0.106624 255 0 255
-0.057608 0.030414 0.209596 255 0 255
-0.019752 0.091205 0.176073 255 0 255
0.022830 0.103998 0.163597 255 0 255
0.064655 0.118419 0.217596 255 0 255
-0.000210 -0.012226 0.185350 255 0 255
-0.062585 0.045821 0.207596 255 0 255
-0.060203 0.021783 0.109596 255 0 255
-0.055690 0.061207 0.199596 255 0 255
0.071826 0.069914 0.080851 255 0 255
-0.070882 0.021021 0.196580 255 0 255
0.047510 -0.034109 0.174052 255 0 255
-0.004407 0.096155 0.090632 255 0 255
0.107964 0.093385 0.097596 255 0 255
-0.031361 0.059312 0.112504 255 0 255
0.109219 0.029975 0.187595 255 0 255
-0.007921 0.075297 0.077596 255 0 255
0.042392 0.024190 0.069596 255 0 255
0.061740 0.091543 0.095596 255 0 255
-0.002115 -0.028562 0.167596 255 0 255
-0.050851 0.001675 0.121596 255 0 255
-0.008388 0.114160 0.159827 255 0 255
-0.017441 -0.020261 0.139596 255 0 255
0.074625 0.139628 0.164486 255 0 255
0.004881 0.043111 0.056585 255 0 255
-0.070925 0.035312 0.193596 255 0 255
0.054420 0.069380 0.117595 255 0 255
0.036321 0.027745 0.033596 255 0 255
0.064687 0.037897 0.059830 255 0 255
0.092346 0.002246 0.168625 255 0 255
0.017428 0.096657 0.139596 255 0 255
0.034826 0.073542 0.115597 255 0 255
-0.020670 0.007990 0.161596 255 0 255
-0.019961 0.082189 0.155595 255 0 255
-0.034273 0.018233 0.126606 255 0 255
0.129997 0.087138 0.127595 255 0 255
-0.008341 -0.018448 0.177597 255 0 255
-0.032502 0.049953 0.197595 255 0 255
0.058634 -0.024836 0.075595 255 0 255
0.126666 0.024870 0.189597 255 0 255
-0.017924 -0.031520 0.131597 255 0 255
0.047641 0.003468 0.124605 255 0 255
0.083087 0.154608 0.138848 255 0 255
-0.001022 0.029325 0.073596 255 0 255
0.012813 0.087623 0.023596 255 0 255
-0.016157 -0.006421 0.190066 255 0 255
0.005878 0.145086 0.098625 255 0 255
-0.002744 0.139912 0.137595 255 0 255
-0.013734 0.016776 0.096664 255 0 255
0.022304 0.124058 0.156623 255 0 255
-0.008071 -0.037960 0.131718 255 0 255
0.083225 0.125918 0.165596 255 0 255
0.023360 0.093656 0.043595 255 0 255
-0.015169 0.126445 0.197595 255 0 255
0.101053 0.026167 0.108665 255 0 255
0.068585 0.100526 0.213596 255 0 255
-0.000420 0.089187 0.147596 255 0 255
0.021288 0.069448 0.155595 255 0 255
0.052141 0.102663 0.204602 255 0 255
0.046559 0.097854 0.131597 255 0 255
0.011296 0.081410 0.183248 255 0 255
0.026643 0.145942 0.219597 255 0 255
0.098100 0.031411 0.201595 255 0 255
0.061125 0.009755 0.099595 255 0 255
0.027224 0.009394 0.084446 255 0 255
0.003322 0.082105 0.057595 255 0 255
0.100160 0.069886 0.131597 255 0 255
-0.017603 0.006145 0.088607 255 0 255
0.027375 0.113182 0.214338 255 0 255
0.069336 0.077580 0.147596 255 0 255
0.002599 0.076399 0.095596 255 0 255
0.059627 0.081879 0.199144 255 0 255
0.027340 0.094328 0.127595 255 0 255
0.061429 0.049619 0.084925 255 0 255
-0.057960 0.002774 0.105259 255 0 255
-0.050220 0.024036 0.122602 255 0 255
0.038978 -0.015812 0.193596 255 0 255
-0.021148 0.106003 0.093596 255 0 255
-0.017504 0.057990 0.109596 255 0 255
0.031163 0.005678 0.165596 255 0 255
0.060733 0.053708 0.021596 255 0 255
0.046019 0.063737 0.111596 255 0 255
-0.021575 0.057255 0.158612 255 0 255
-0.001367 0.042313 0.093596 255 0 255
0.103222 0.007317 0.106632 255 0 255
-0.000811 -0.001472 0.168607 255 0 255
0.087777 0.002581 0.191597 255 0 255
-0.037594 0.093920 0.191597 255 0 255
0.076796 0.089886 0.091596 255 0 255
0.051623 -0.014536 0.126004 255 0 255
0.060574 0.018325 0.130270 255 0 255
-0.051449 0.126051 0.147596 255 0 255
-0.027337 -0.010840 0.159597 255 0 255
0.007294 0.044235 0.143596 255 0 255
-0.052311 0.071112 0.149595 255 0 255
0.092542 0.025487 0.147596 255 0 255
0.033017 0.020631 0.049596 255 0 255
0.059841 -0.008497 0.092646 255 0 255
0.050563 0.077652 0.144565 255 0 255
-0.029070 0.044933 0.158783 255 0 255
0.059482 0.013402 0.199596 255 0 255
-0.015678 -0.021645 0.154637 255 0 255
0.022304 0.124058 0.222274 255 0 255
-0.035644 0.002243 0.125596 255 0 255
-0.012020 0.081571 0.131597 255 0 255
0.125614 0.046446 0.197595 255 0 255
0.065910 0.082602 0.122769 255 0 255
0.073122 0.029275 0.087596 255 0 255
0.044716 0.063893 0.091596 255 0 255
-0.022167 0.101114 0.104189 255 0 255
0.074108 0.022429 0.157438 255 0 255
0.094973 0.093948 0.143596 255 0 255
0.060443 -0.019251 0.112396 255 0 255
-0.021683 0.116787 0.153596 255 0 255
-0.014717 0.082520 0.093596 255 0 255
0.077820 0.002093 0.127595 255 0 255
0.057371 -0.026861 0.089595 255 0 255
0.044045 0.053772 0.117595 255 0 255
0.026794 0.033977 0.125596 255 0 255
0.035562 0.057416 0.165596 255 0 255
-0.000088 -0.007755 0.092628 255 0 255
0.085607 0.054557 0.145597 255 0 255
0.034974 0.039489 0.157596 255 0 255
0.000147 -0.031920 0.141842 255 0 255
0.098150 0.018193 0.138608 255 0 255
-0.056959 0.031927 0.225596 255 0 255
-0.003370 0.046608 0.065596 255 0 255
0.011277 0.015199 0.188899 255 0 255
-0.056439 0.116027 0.155595 255 0 255
0.095879 0.098784 0.111412 255 0 255
-0.053602 0.031287 0.106754 255 0 255
0.039048 -0.049088 0.167023 255 0 255
-0.006839 0.108261 0.173595 255 0 255
-0.023691 0.094918 0.091596 255 0 255
0.051794 0.155464 0.070529 255 0 255
0.120378 0.032048 0.195596 255 0 255
-0.033071 -0.003275 0.086829 255 0 255
0.099006 0.049486 0.136551 255 0 255
-0.036433 0.070186 0.199350 255 0 255
0.004261 -0.012348 0.145921 255 0 255
0.004457 0.027465 0.035596 255 0 255
0.077376 0.043814 0.134733 255 0 255
0.003208 0.084558 0.039596 255 0 255
0.121490 0.086452 0.072609 255 0 255
-0.055361 0.091849 0.107596 255 0 255
0.059888 -0.006269 0.113595 255 0 255
0.031828 0.046845 0.139596 255 0 255
0.052499 0.026176 0.055596 255 0 255
-0.039045 0.106483 0.189597 255 0 255
-0.054100 0.032357 0.133596 255 0 255
0.043293 0.008060 0.133837 255 0 255
0.072270 -0.009323 0.189597 255 0 255
-0.003561 0.094343 0.102458 255 0 255
0.034638 0.050282 0.127595 255 0 255
0.040044 0.052887 0.080711 255 0 255
0.128995 0.072298 0.151596 255 0 255
0.013803 -0.023346 0.174614 255 0 255
0.051746 -0.010066 0.180690 255 0 255
0.001741 0.074748 0.083596 255 0 255
0.077273 0.105556 0.136598 255 0 255
0.008741 0.020636 0.078493 255 0 255
0.050910 0.024852 0.194636 255 0 255
-0.007305 -0.022154 0.093596 255 0 255
0.017006 0.028904 0.059596 255 0 255
0.000367 -0.020784 0.159597 255 0 255
-0.028995 0.006913 0.099595 255 0 255
-0.039407 0.090764 0.165596 255 0 255
0.047754 -0.025167 0.096417 255 0 255
-0.048815 0.110754 0.161596 255 0 255
0.039566 0.068111 0.146065 255 0 255
0.110013 0.092134 0.162786 255 0 255
-0.002909 0.019617 0.093596 255 0 255
0.025386 0.001917 0.201595 255 0 255
0.036766 -0.001604 0.192631 255 0 255
0.033346 0.138034 0.117595 255 0 255
0.056724 0.073905 0.084835 255 0 255
-0.051647 0.102814 0.174653 255 0 255
0.040449 0.101625 0.161596 255 0 255
0.124155 0.087695 0.143596 255 0 255
0.015880 0.052652 0.128826 255 0 255
0.047651 0.036573 0.188702 255 0 255
0.017134 0.033377 0.047596 255 0 255
0.029136 0.028956 0.021596 255 0 255
-0.009977 0.056043 0.080895 255 0 255
0.006856 0.050652 0.041596 255 0 255
0.110013 0.092134 0.076680 255 0 255
0.063795 0.120265 0.133596 255 0 255
0.056470 0.031859 0.074576 255 0 255
0.042083 0.045011 0.103595 255 0 255
0.042702 0.051919 0.158248 255 0 255
0.003558 0.060147 0.018571 255 0 255
-0.021356 0.134593 0.155595 255 0 255
0.038983 0.145077 0.098891 255 0 255
0.045594 0.026787 0.126401 255 0 255
0.039288 0.092367 0.199596 255 0 255
0.081969 0.048162 0.082632 255 0 255
0.005849 0.045768 0.159280 255 0 255
-0.033765 0.102325 0.124599 255 0 255
0.016104 -0.004618 0.192984 255 0 255
-0.003880 0.104492 0.201595 255 0 255
-0.004637 0.038672 0.053595 255 0 255
0.082702 0.074985 0.092570 255 0 255
0.096510 0.007513 0.143596 255 0 255
0.096217 0.090115 0.187595 255 0 255
0.035686 0.024374 0.133398 255 0 255
-0.032319 0.089760 0.096886 255 0 255
0.091188 0.141968 0.153596 255 0 255
0.047915 0.111726 0.194634 255 0 255
0.054605 0.045323 0.041596 255 0 255
0.033332 0.100408 0.213596 255 0 255
-0.014793 0.108965 0.148048 255 0 255
0.068376 0.008723 0.195596 255 0 255
0.065574 0.062586 0.061595 255 0 255
0.046511 0.093417 0.079596 255 0 255
-0.009055 0.012337 0.191597 255 0 255
-0.012615 -0.006976 0.153596 255 0 255
0.114487 -0.007376 0.101596 255 0 255
0.062677 0.056407 0.121596 255 0 255
0.001002 -0.000627 0.182608 255 0 255
0.028343 0.115839 0.160600 255 0 255
-0.048266 0.095564 0.193152 255 0 255
-0.040434 0.021980 0.208138 255 0 255
0.092678 0.108325 0.177597 255 0 255
0.057813 0.081034 0.043730 255 0 255
-0.027143 0.096587 0.159597 255 0 255
0.002294 0.050732 0.025596 255 0 255
-0.014090 0.036471 0.216583 255 0 255
0.078231 0.075107 0.194722 255 0 255
0.003464 0.154995 0.092600 255 0 255
0.061693 0.124771 0.169298 255 0 255
-0.048642 0.049047 0.216201 255 0 255
0.089287 0.086882 0.159597 255 0 255
-0.004997 0.140015 0.181641 255 0 255
0.023355 -0.001238 0.170542 255 0 255
-0.025475 0.039989 0.227596 255 0 255
0.101287 0.002001 0.160610 255 0 255
-0.010518 0.144061 0.103595 255 0 255
0.013808 0.082581 0.037596 255 0 255
0.110787 0.071544 0.191597 255 0 255
-0.040572 0.083704 0.083596 255 0 255
-0.010316 0.086779 0.155595 255 0 255
-0.059710 0.086979 0.165596 255 0 255
0.017306 -0.026126 0.148983 255 0 255
0.099888 0.009734 0.201595 255 0 255
0.049778 0.064046 0.125596 255 0 255
0.087711 0.061873 0.091596 255 0 255
0.077753 0.090331 0.198215 255 0 255
-0.011355 -0.011986 0.167596 255 0 255
-0.026557 -0.026710 0.135596 255 0 255
0.014892 -0.016217 0.190638 255 0 255
0.091290 0.042371 0.129596 255 0 255
0.041109 0.073244 0.127595 255 0 255
-0.022654 0.083233 0.199921 255 0 255
0.048001 0.136041 0.223597 255 0 255
-0.016738 0.070544 0.134768 255 0 255
0.073131 -0.013335 0.090643 255 0 255
0.120802 0.007476 0.105596 255 0 255
-0.034824 0.097418 0.077596 255 0 255
-0.052546 0.051640 0.149595 255 0 255
0.009239 0.071624 0.104635 255 0 255
0.114398 0.078732 0.081595 255 0 255
0.042683 -0.014292 0.131718 255 0 255
-0.034630 0.037926 0.198613 255 0 255
-0.019513 0.095731 0.151596 255 0 255
0.035123 0.016115 0.065596 255 0 255
0.093567 0.046951 0.205953 255 0 255
0.036584 0.057894 0.145597 255 0 255
0.071958 -0.027122 0.073596 255 0 255
0.024366 0.089711 0.025596 255 0 255
0.059138 0.063997 0.040570 255 0 255
-0.042169 0.087223 0.175596 255 0 255
0.050553 0.044547 0.136262 255 0 255
0.007671 0.079719 0.018869 255 0 255
-0.020482 -0.001876 0.181596 255 0 255
0.033451 0.065260 0.129596 255 0 255
-0.034019 0.060279 0.154630 255 0 255
0.030760 0.103727 0.137595 255 0 255
-0.069218 0.097903 0.165596 255 0 255
0.029281 0.019180 0.078550 255 0 255
-0.061657 0.018704 0.213596 255 0 255
0.085819 -0.007418 0.148080 255 0 255
0.063075 0.043766 0.141595 255 0 255
0.076017 0.046729 0.095596 255 0 255
0.008405 0.106542 0.090598 255 0 255
0.066623 0.047944 0.033596 255 0 255
-0.040254 0.094886 0.063596 255 0 255
0.015548 0.149596 0.105596 255 0 255
-0.044538 0.035513 0.103643 255 0 255
-0.003361 0.150701 0.163597 255 0 255
-0.023211 0.013437 0.093596 255 0 255
0.106090 0.095815 0.107596 255 0 255
0.015851 0.142630 0.225596 255 0 255
0.024051 -0.009740 0.163597 255 0 255
-0.014848 0.151673 0.097596 255 0 255
-0.013470 0.091929 0.104695 255 0 255
0.072264 0.078438 0.137595 255 0 255
0.034137 0.098681 0.189604 255 0 255
0.054704 0.021449 0.089595 255 0 255
0.061466 0.092131 0.199596 255 0 255
-0.053000 0.020534 0.098963 255 0 255
0.116154 0.022175 0.193856 255 0 255
0.091560 0.087943 0.135596 255 0 255
0.100241 0.023175 0.195596 255 0 255
0.104452 0.085128 0.178087 255 0 255
-0.071206 0.026447 0.187595 255 0 255
-0.002155 0.096059 0.123596 255 0 255
0.108058 0.020607 0.132645 255 0 255
0.026507 0.075261 0.109596 255 0 255
0.016255 0.099169 0.093403 255 0 255
-0.040312 0.026450 0.128610 255 0 255
0.009982 0.131552 0.100711 255 0 255
0.046225 0.115352 0.136313 255 0 255
0.113761 0.098295 0.132052 255 0 255
0.082998 0.046435 0.201595 255 0 255
0.072926 -0.020050 0.081595 255 0 255
-0.060128 0.083144 0.175596 255 0 255
0.065768 0.134962 0.167596 255 0 255
0.026164 0.101584 0.089417 255 0 255
0.094432 0.111350 0.138534 255 0 255
-0.033473 0.016516 0.221596 255 0 255
0.000277 0.102753 0.145597 255 0 255
-0.026932 0.039309 0.111596 255 0 255
0.062753 0.032582 0.084307 255 0 255
0.117255 0.088891 0.125596 255 0 255
-0.050587 0.010625 0.220443 255 0 255
-0.057128 0.064950 0.135596 255 0 255
0.033585 0.109328 0.221596 255 0 255
0.014086 0.118019 0.150647 255 0 255
-0.044059 0.020289 0.224172 255 0 255
-0.034386 0.046868 0.114721 255 0 255
0.058856 0.102461 0.087596 255 0 255
-0.014131 0.062932 0.091596 255 0 255
0.041288 0.125937 0.127595 255 0 255
0.003313 0.051206 0.078600 255 0 255
-0.007065 0.097123 0.138566 255 0 255
0.108754 0.023848 0.151596 255 0 255
-0.022383 0.089980 0.143596 255 0 255
0.020051 0.024776 0.069596 255 0 255
0.059392 0.042049 0.015595 255 0 255
0.080391 0.023152 0.148600 255 0 255
0.032212 0.126471 0.226951 255 0 255
-0.005182 0.050494 0.167596 255 0 255
-0.049746 0.051414 0.109596 255 0 255
0.023067 0.025109 0.033596 255 0 255
0.045624 0.126105 0.222910 255 0 255
-0.025821 0.000107 0.156639 255 0 255
0.096093 0.008407 0.117325 255 0 255
0.110838 0.024109 0.106601 255 0 255
0.018517 -0.014527 0.176665 255 0 255
-0.010221 0.047102 0.040379 255 0 255
-0.044963 0.052969 0.141595 255 0 255
0.086430 0.014935 0.195143 255 0 255
0.073339 0.092686 0.129596 255 0 255
-0.069562 0.070246 0.185596 255 0 255
0.084749 0.051665 0.192662 255 0 255
-0.039438 0.123955 0.160101 255 0 255
0.037483 0.053647 0.109596 255 0 255
0.057930 0.111983 0.165596 255 0 255
-0.022787 0.045656 0.218611 255 0 255
0.076262 0.117189 0.141595 255 0 255
-0.058052 0.097621 0.166857 255 0 255
-0.022611 0.052358 0.195596 255 0 255
-0.027637 0.076495 0.179596 255 0 255
-0.058554 0.056105 0.129596 255 0 255
0.088506 0.090932 0.114707 255 0 255
0.008936 0.027347 0.113595 255 0 255
0.057061 -0.012001 0.191348 255 0 255
0.102919 0.064756 0.111596 255 0 255
-0.046942 0.078528 0.188645 255 0 255
0.043680 0.156093 0.217596 255 0 255
0.056011 0.113294 0.134718 255 0 255
0.034978 0.017423 0.035596 255 0 255
0.007665 0.131789 0.131597 255 0 255
0.045620 -0.006396 0.123596 255 0 255
0.007053 0.097085 0.137595 255 0 255
0.019109 -0.058387 0.030634 255 0 255
-0.002918 0.059836 0.039596 255 0 255
0.098055 -0.000533 0.133596 255 0 255
0.001894 0.011659 0.161596 255 0 255
0.031430 0.080823 0.153596 255 0 255
0.061917 0.067500 0.147658 255 0 255
0.027528 0.103389 0.195596 255 0 255
-0.040921 0.060882 0.199596 255 0 255
0.047143 0.032930 0.023596 255 0 255
-0.029018 0.086885 0.161596 255 0 255
0.026999 0.066664 0.138937 255 0 255
0.035432 -0.017673 0.173985 255 0 255
0.058508 0.036954 0.037596 255 0 255
0.120503 0.017582 0.111175 255 0 255
0.049187 0.090068 0.203597 255 0 255
0.098381 0.091123 0.099595 255 0 255
0.076286 0.036686 0.199845 255 0 255
0.059073 0.127963 0.127595 255 0 255
0.022306 0.086196 0.157596 255 0 255
-0.019471 0.036169 0.131597 255 0 255
0.009639 0.120359 0.093596 255 0 255
0.040665 0.108345 0.188618 255 0 255
0.004264 0.051650 0.149595 255 0 255
0.069098 -0.018883 0.105596 255 0 255
0.049634 0.022857 0.035596 255 0 255
0.096001 0.103254 0.126640 255 0 255
0.053812 0.032826 0.116618 255 0 255
0.053999 0.072635 0.129596 255 0 255
0.028812 0.067510 0.080688 255 0 255
0.097977 0.079902 0.193596 255 0 255
-0.001209 0.035856 0.031597 255 0 255
0.043159 0.117193 0.203597 255 0 255
0.013635 0.091327 0.043595 255 0 255
0.015251 0.032498 0.021596 255 0 255
-0.022045 0.105585 0.132614 255 0 255
0.052732 0.058803 0.085437 255 0 255
0.053389 -0.015920 0.105596 255 0 255
0.055494 -0.003905 0.198375 255 0 255
-0.023011 0.102926 0.166089 255 0 255
-0.015395 -0.015839 0.090340 255 0 255
-0.075954 0.031897 0.202541 255 0 255
0.003558 0.060147 0.098621 255 0 255
0.106388 0.090444 0.148668 255 0 255
0.001790 -0.025980 0.149595 255 0 255
0.126947 0.022794 0.175596 255 0 255
0.078241 0.108213 0.167409 255 0 255
-0.042615 0.067305 0.101596 255 0 255
0.021445 0.163760 0.211595 255 0 255
0.068135 0.002110 0.129596 255 0 255
0.037010 0.007337 0.085441 255 0 255
-0.043999 0.088726 0.185596 255 0 255
-0.070863 0.087234 0.169255 255 0 255
0.097183 0.015535 0.176639 255 0 255
-0.010171 -0.000328 0.183595 255 0 255
0.024341 0.067632 0.100628 255 0 255
0.006834 0.030780 0.063596 255 0 255
0.079433 0.053601 0.136602 255 0 255
0.018180 0.019324 0.061595 255 0 255
0.106509 0.005000 0.127595 255 0 255
0.005351 -0.005220 0.190378 255 0 255
-0.044456 0.030604 0.227596 255 0 255
0.077640 0.118967 0.160627 255 0 255
-0.007675 0.074770 0.170093 255 0 255
-0.055788 0.012314 0.103595 255 0 255
0.109759 0.050088 0.200626 255 0 255
-0.009677 0.074330 0.095596 255 0 255
0.043812 -0.007145 0.187595 255 0 255
0.051490 -0.023715 0.117595 255 0 255
0.089830 0.073895 0.113033 255 0 255
0.074799 -0.021645 0.095596 255 0 255
-0.059660 0.086871 0.115597 255 0 255
0.044046 0.043720 0.085595 255 0 255
0.067102 0.027989 0.104544 255 0 255
-0.062183 0.021296 0.201595 255 0 255
-0.019650 0.029465 0.221997 255 0 255
0.062651 0.094323 0.139525 255 0 255
-0.003357 0.050303 0.017597 255 0 255
0.074098 0.012985 0.113595 255 0 255
0.080244 -0.014393 0.113595 255 0 255
-0.018204 0.016899 0.105371 255 0 255
-0.060476 0.074423 0.182684 255 0 255
0.098659 0.102287 0.136002 255 0 255
0.012874 0.106420 0.153132 255 0 255
0.042297 0.073799 0.099595 255 0 255
0.037601 -0.036522 0.174399 255 0 255
-0.026544 0.006389 0.138960 255 0 255
0.015297 0.129618 0.227090 255 0 255
0.072363 0.040368 0.147596 255 0 255
0.060652 0.003961 0.121596 255 0 255
0.059392 0.106044 0.210611 255 0 255
0.107272 0.017563 0.185596 255 0 255
-0.013103 0.105340 0.160634 255 0 255
-0.013862 -0.011972 0.075595 255 0 255
0.020899 0.112873 0.139596 255 0 255
0.050463 0.068402 0.141595 255 0 255
0.006327 0.011615 0.097596 255 0 255
-0.025859 -0.009275 0.083596 255 0 255
0.092105 0.106877 0.107596 255 0 255
0.060847 0.126584 0.221210 255 0 255
-0.050873 0.061247 0.153596 255 0 255
-0.016926 -0.013400 0.159597 255 0 255
-0.001222 0.065664 0.063596 255 0 255
0.086912 0.113281 0.185596 255 0 255
-0.002369 0.039730 0.072344 255 0 255
-0.001085 0.041708 0.039596 255 0 255
0.066999 0.089731 0.078597 255 0 255
-0.029364 0.099965 0.085595 255 0 255
0.052907 -0.017289 0.087596 255 0 255
0.059738 0.053243 0.139117 255 0 255
0.110011 0.016419 0.143596 255 0 255
0.055156 0.082001 0.030614 255 0 255
0.082300 0.092452 0.135596 255 0 255
0.057037 0.035375 0.065596 255 0 255
0.037311 0.117815 0.163597 255 0 255
0.100452 0.036920 0.112843 255 0 255
0.018395 -0.018998 0.164356 255 0 255
0.112778 0.031635 0.147596 255 0 255
-0.013358 0.065499 0.081595 255 0 255
0.042683 -0.014292 0.103033 255 0 255
0.059749 0.086350 0.086176 255 0 255
-0.007978 0.090076 0.129596 255 0 255
0.064575 0.066533 0.131471 255 0 255
0.102943 0.097833 0.159597 255 0 255
0.110258 0.101075 0.144717 255 0 255
0.052235 0.007816 0.203812 255 0 255
0.054667 0.064119 0.106634 255 0 255
0.006915 0.067144 0.139596 255 0 255
0.043506 0.135377 0.113595 255 0 255
0.007569 0.141461 0.155294 255 0 255
0.114361 0.087541 0.093444 255 0 255
0.065665 0.073661 0.088341 255 0 255
-0.050484 0.100320 0.161596 255 0 255
0.075676 0.014334 0.198310 255 0 255
0.026456 -0.069410 0.027597 255 0 255
-0.057919 0.044721 0.145597 255 0 255
0.042237 0.086042 0.137595 255 0 255
-0.066890 0.036124 0.210231 255 0 255
0.085907 0.107374 0.195596 255 0 255
-0.029060 0.078039 0.132654 255 0 255
0.037100 0.092328 0.167596 255 0 255
-0.001217 0.115297 0.153596 255 0 255
0.049533 -0.047914 0.161596 255 0 255
0.027906 0.017397 0.091596 255 0 255
-0.012389 0.065951 0.171488 255 0 255
0.065401 -0.001492 0.191679 255 0 255
0.119526 0.071733 0.085595 255 0 255
0.048882 0.114384 0.214666 255 0 255
0.084887 0.041905 0.191597 255 0 255
-0.030638 0.053029 0.206442 255 0 255
-0.046096 0.076715 0.089535 255 0 255
-0.013173 -0.012820 0.183595 255 0 255
0.036606 0.088655 0.179596 255 0 255
0.010900 -0.031319 0.155324 255 0 255
0.063384 0.121146 0.160644 255 0 255
-0.026309 -0.017775 0.142054 255 0 255
-0.009825 -0.003469 0.163597 255 0 255
0.008409 0.030814 0.043595 255 0 255
-0.045810 0.099763 0.125596 255 0 255
-0.008634 0.008120 0.093596 255 0 255
-0.023021 0.069821 0.196195 255 0 255
0.059719 -0.012968 0.120750 255 0 255
0.015044 0.089778 0.053595 255 0 255
0.108742 0.069474 0.123596 255 0 255
0.104077 0.038611 0.196678 255 0 255
0.007506 0.089537 0.179596 255 0 255
-0.045477 0.041695 0.113595 255 0 255
-0.018475 0.049873 0.085595 255 0 255
-0.082359 0.026704 0.183783 255 0 255
0.090946 0.120759 0.167596 255 0 255
0.009992 0.164659 0.094546 255 0 255
-0.053479 0.035757 0.097776 255 0 255
0.046247 0.015925 0.097596 255 0 255
-0.023604 0.032035 0.199596 255 0 255
0.122777 -0.006223 0.091596 255 0 255
-0.052154 0.018720 0.114614 255 0 255
-0.041636 0.043487 0.213026 255 0 255
0.123552 0.032245 0.175596 255 0 255
0.000385 0.090612 0.081595 255 0 255
0.081368 0.058916 0.084867 255 0 255
0.116099 0.036492 0.187595 255 0 255
0.017895 0.097728 0.191597 255 0 255
-0.042105 0.091816 0.131149 255 0 255
0.035593 0.119221 0.215810 255 0 255
-0.042044 0.080811 0.133596 255 0 255
-0.057681 0.053659 0.139596 255 0 255
-0.062664 0.027061 0.217894 255 0 255
0.051904 0.133447 0.101596 255 0 255
0.091290 0.023441 0.129596 255 0 255
0.040094 0.055117 0.133596 255 0 255
0.022621 -0.028060 0.164720 255 0 255
0.028831 0.133722 0.216671 255 0 255
-0.039804 0.110543 0.158809 255 0 255
0.003532 -0.003860 0.157596 255 0 255
0.087938 0.002397 0.139596 255 0 255
0.092617 0.077402 0.161596 255 0 255
0.113030 0.090397 0.141595 255 0 255
0.041260 0.104209 0.137595 255 0 255
-0.011854 -0.037516 0.141595 255 0 255
0.123037 0.078402 0.147596 255 0 255
0.011365 0.033938 0.105596 255 0 255
-0.041178 0.042506 0.203597 255 0 255
0.038866 -0.025038 0.091596 255 0 255
-0.012738 0.099827 0.145597 255 0 255
-0.049141 0.066468 0.141595 255 0 255
-0.059132 0.123598 0.140697 255 0 255
0.019956 0.119628 0.213596 255 0 255
-0.010597 0.000585 0.099115 255 0 255
-0.003796 0.118507 0.098691 255 0 255
-0.013860 0.026513 0.101596 255 0 255
0.018202 0.104461 0.209596 255 0 255
0.027616 0.025024 0.181596 255 0 255
-0.026758 0.096766 0.130691 255 0 255
-0.003622 0.042416 0.203597 255 0 255
-0.000859 0.088547 0.095596 255 0 255
0.032819 0.049451 0.159597 255 0 255
0.012274 0.117173 0.198756 255 0 255
0.118078 0.107966 0.141595 255 0 255
-0.014150 0.050798 0.155595 255 0 255
-0.015232 0.093313 0.095596 255 0 255
-0.063681 0.038708 0.201595 255 0 255
0.024624 -0.022713 0.175596 255 0 255
-0.024422 0.001838 0.081595 255 0 255
-0.046991 0.007888 0.127595 255 0 255
-0.007827 -0.029018 0.157682 255 0 255
0.092784 0.034435 0.151596 255 0 255
0.057997 0.146895 0.063596 255 0 255
-0.039635 0.095986 0.173595 255 0 255
0.028445 0.054099 0.085267 255 0 255
-0.048145 0.104770 0.191597 255 0 255
0.063623 0.073307 0.043595 255 0 255
-0.030628 0.086134 0.192605 255 0 255
0.031199 0.104983 0.159597 255 0 255
-0.000417 -0.023356 0.177597 255 0 255
0.045971 0.073304 0.084570 255 0 255
0.055950 -0.025759 0.175596 255 0 255
0.036785 0.064608 0.110542 255 0 255
0.013569 0.104930 0.163597 255 0 255
0.032604 -0.005752 0.167596 255 0 255
0.054196 0.149962 0.207596 255 0 255
0.044026 0.034883 0.171372 255 0 255
-0.022615 0.035823 0.161596 255 0 255
-0.055967 0.078952 0.131597 255 0 255
-0.043119 0.089137 0.075595 255 0 255
0.035523 0.022091 0.019596 255 0 255
-0.000143 0.027527 0.097596 255 0 255
-0.052634 0.033945 0.202597 255 0 255
0.121528 0.005919 0.093596 255 0 255
-0.017654 0.165008 0.085595 255 0 255
0.004500 0.110182 0.163597 255 0 255
0.027292 0.028177 0.051596 255 0 255
0.050910 0.024852 0.185359 255 0 255
0.020557 0.108872 0.095596 255 0 255
0.058395 0.004069 0.194642 255 0 255
0.016479 0.008774 0.085595 255 0 255
0.053671 -0.037856 0.167181 255 0 255
-0.035315 0.112637 0.121596 255 0 255
-0.027125 0.083355 0.092667 255 0 255
-0.024610 0.125285 0.159597 255 0 255
0.093914 -0.005849 0.118012 255 0 255
-0.018710 0.112632 0.161596 255 0 255
0.087612 0.156718 0.149595 255 0 255
-0.005195 0.166403 0.077596 255 0 255
0.075461 0.104710 0.194682 255 0 255
-0.037517 0.039387 0.231596 255 0 255
0.038202 -0.047276 0.157961 255 0 255
0.112182 0.073285 0.094626 255 0 255
-0.011554 0.116216 0.109596 255 0 255
0.105172 0.008228 0.115597 255 0 255
0.062598 0.042378 0.069596 255 0 255
-0.004774 0.063816 0.053595 255 0 255
-0.028591 0.029709 0.132647 255 0 255
0.093109 0.128387 0.162929 255 0 255
0.003548 0.083831 0.127595 255 0 255
0.019524 0.120554 0.192598 255 0 255
0.046545 0.015283 0.079596 255 0 255
0.036042 0.033074 0.119596 255 0 255
0.026510 0.053517 0.143596 255 0 255
0.051786 0.037171 0.045596 255 0 255
0.071955 0.005977 0.155595 255 0 255
0.026887 0.095300 0.136711 255 0 255
-0.012776 -0.013671 0.146618 255 0 255
-0.018041 0.043455 0.109596 255 0 255
0.029724 0.167240 0.209596 255 0 255
-0.031351 0.092417 0.137754 255 0 255
0.031917 0.065583 0.163597 255 0 255
-0.031142 0.105756 0.157596 255 0 255
0.079048 0.087553 0.161596 255 0 255
0.126902 0.091183 0.135596 255 0 255
-0.036889 0.071166 0.095596 255 0 255
0.000157 0.001185 0.095874 255 0 255
-0.062064 0.016307 0.121113 255 0 255
-0.008528 0.095529 0.157596 255 0 255
0.046603 0.069186 0.175596 255 0 255
0.072469 -0.007182 0.123596 255 0 255
-0.001591 0.142175 0.171596 255 0 255
-0.034834 0.033632 0.139596 255 0 255
0.101397 0.059428 0.135596 255 0 255
0.091276 0.018740 0.153596 255 0 255
0.053349 0.041438 0.173595 255 0 255
0.086449 0.081146 0.130670 255 0 255
0.010135 0.038940 0.079596 255 0 255
0.025849 0.097023 0.209596 255 0 255
-0.059395 0.048445 0.217287 255 0 255
0.027665 0.093631 0.093596 255 0 255
-0.037663 -0.007623 0.134147 255 0 255
0.024820 0.052408 0.130536 255 0 255
0.046989 -0.004598 0.097596 255 0 255
-0.014681 0.080331 0.102418 255 0 255
0.002913 0.035573 0.049596 255 0 255
0.066859 0.054357 0.133596 255 0 255
0.014819 0.144841 0.180251 255 0 255
0.115547 0.042408 0.203597 255 0 255
-0.024302 -0.019046 0.153596 255 0 255
0.082552 0.035195 0.153596 255 0 255
0.022759 0.142011 0.183595 255 0 255
-0.023886 0.109139 0.175596 255 0 255
-0.020017 0.016054 0.138318 255 0 255
-0.035101 0.002399 0.093596 255 0 255
-0.025923 0.061847 0.165738 255 0 255
-0.008266 0.129663 0.159597 255 0 255
0.057784 -0.018284 0.181360 255 0 255
0.044248 0.138521 0.103595 255 0 255
0.022453 0.024359 0.017597 255 0 255
-0.053213 0.039920 0.223597 255 0 255
0.056483 0.017632 0.097596 255 0 255
0.043756 0.106447 0.205597 255 0 255
-0.050780 0.053633 0.125596 255 0 255
0.007876 -0.043763 0.032623 255 0 255
0.029865 0.022659 0.069596 255 0 255
-0.001211 0.077785 0.035596 255 0 255
0.023710 0.014375 0.187595 255 0 255
0.096394 0.052682 0.199596 255 0 255
0.045829 0.002622 0.200023 255 0 255
-0.036189 0.079128 0.198278 255 0 255
-0.022393 0.067907 0.103595 255 0 255
0.016471 0.008793 0.160437 255 0 255
-0.049253 0.026695 0.213260 255 0 255
0.029174 0.009944 0.199596 255 0 255
0.052267 0.055067 0.121596 255 0 255
0.004293 0.072765 0.023596 255 0 255
-0.004397 0.129261 0.106291 255 0 255
-0.053105 0.088894 0.189597 255 0 255
0.061786 0.029924 0.195369 255 0 255
-0.002830 -0.030268 0.037596 255 0 255
-0.002420 0.066186 0.021596 255 0 255
0.069169 0.070881 0.141300 255 0 255
0.030615 0.035250 0.166736 255 0 255
-0.019264 0.082607 0.173595 255 0 255
0.036429 0.084302 0.078640 255 0 255
0.094554 0.115821 0.130624 255 0 255
-0.003796 0.118507 0.196648 255 0 255
-0.030179 -0.009478 0.067595 255 0 255
0.065589 0.053765 0.055596 255 0 255
0.100950 0.087908 0.129282 255 0 255
0.056778 0.142340 0.103595 255 0 255
0.100162 0.004415 0.173595 255 0 255
0.000655 0.052173 0.034745 255 0 255
0.114678 0.015876 0.103595 255 0 255
0.103466 0.016259 0.106637 255 0 255
-0.027498 0.014770 0.103595 255 0 255
0.055645 0.099883 0.215994 255 0 255
-0.026758 0.096766 0.176013 255 0 255
-0.035414 0.075076 0.157596 255 0 255
-0.009238 0.049727 0.179596 255 0 255
0.038862 0.140606 0.216686 255 0 255
0.058185 0.141758 0.171596 255 0 255
0.031852 0.026999 0.195596 255 0 255
0.023027 0.117775 0.200315 255 0 255
0.061541 0.020983 0.207985 255 0 255
0.095248 0.010220 0.151998 255 0 255
0.015019 0.016636 0.073596 255 0 255
0.066501 0.038743 0.134620 255 0 255
0.106236 0.077132 0.105596 255 0 255
-0.056722 0.066372 0.191597 255 0 255
0.104575 0.089598 0.114667 255 0 255
0.003019 0.075498 0.047596 255 0 255
0.015980 0.118691 0.225596 255 0 255
0.030918 0.094974 0.083596 255 0 255
-0.046473 0.030197 0.138835 255 0 255
0.066379 0.034272 0.092239 255 0 255
0.034545 0.154595 0.219597 255 0 255
0.009372 0.109200 0.193624 255 0 255
-0.041157 0.028262 0.218635 255 0 255
0.074514 0.073374 0.089595 255 0 255
0.089377 0.082511 0.107596 255 0 255
-0.056875 0.020933 0.129596 255 0 255
-0.038734 0.051460 0.160195 255 0 255
0.079825 0.019632 0.191597 255 0 255
-0.007994 0.054761 0.031597 255 0 255
-0.023134 -0.011882 0.075595 255 0 255
0.002121 0.105819 0.154016 255 0 255
-0.030985 0.105829 0.135957 255 0 255
0.040875 0.065304 0.101596 255 0 255
0.035932 0.023847 0.041596 255 0 255
0.050788 0.020382 0.072510 255 0 255
0.005023 0.113793 0.099681 255 0 255
0.091008 -0.000584 0.183595 255 0 255
-0.043871 0.043547 0.225596 255 0 255
0.065037 0.065544 0.033596 255 0 255
0.041081 0.018062 0.129596 255 0 255
0.025877 0.022007 0.139596 255 0 255
0.044953 0.032895 0.117595 255 0 255
0.038832 0.041288 0.078624 255 0 255
0.063149 0.093254 0.129596 255 0 255
-0.015811 -0.041568 0.129596 255 0 255
0.089040 0.023533 0.197595 255 0 255
0.059353 0.101612 0.157596 255 0 255
-0.006962 0.077310 0.087596 255 0 255
-0.008896 0.030066 0.212842 255 0 255
0.007647 0.037181 0.037596 255 0 255
0.036938 0.137502 0.193596 255 0 255
0.080017 0.011944 0.127595 255 0 255
0.035713 0.026593 0.055596 255 0 255
0.050869 0.121931 0.209596 255 0 255
0.003943 0.139770 0.105327 255 0 255
0.019491 0.104004 0.199072 255 0 255
-0.050215 0.092448 0.179596 255 0 255
0.059347 0.054083 0.045596 255 0 255
0.081875 0.143009 0.156761 255 0 255
0.044309 0.043742 0.155595 255 0 255
0.012938 0.073158 0.171596 255 0 255
0.068210 0.101330 0.142052 255 0 255
-0.041977 0.001625 0.119596 255 0 255
0.004810 -0.013525 0.161596 255 0 255
-0.055567 0.001682 0.113595 255 0 255
-0.002867 -0.011258 0.170615 255 0 255
0.126082 0.090800 0.120710 255 0 255
0.024080 0.043236 0.115597 255 0 255
-0.050889 0.049132 0.135596 255 0 255
0.110879 0.057151 0.205597 255 0 255
0.043924 0.096624 0.192670 255 0 255
0.102257 -0.006374 0.109596 255 0 255
0.131695 0.083497 0.135596 255 0 255
0.090578 0.001421 0.129596 255 0 255
0.107443 0.107111 0.153596 255 0 255
0.030690 0.075006 0.165596 255 0 255
0.103440 0.030511 0.147596 255 0 255
0.043009 0.008670 0.091596 255 0 255
-0.033841 0.016227 0.135596 255 0 255
-0.054691 0.024158 0.091241 255 0 255
0.031704 0.042378 0.093158 255 0 255
0.001536 0.147475 0.153596 255 0 255
0.006693 0.043956 0.020571 255 0 255
-0.044660 0.031043 0.111086 255 0 255
0.017814 0.057968 0.136438 255 0 255
-0.001577 0.068787 0.171596 255 0 255
-0.051717 0.084035 0.119596 255 0 255
0.041962 -0.027869 0.171596 255 0 255
0.051023 -0.003783 0.130368 255 0 255
-0.031680 0.078925 0.099595 255 0 255
0.096067 0.022661 0.185596 255 0 255
0.048966 -0.013569 0.172440 255 0 255
-0.003479 0.160418 0.093596 255 0 255
0.079815 0.093500 0.113595 255 0 255
-0.042338 0.018885 0.123596 255 0 255
-0.041266 0.092208 0.085595 255 0 255
0.018686 -0.024353 0.157596 255 0 255
0.006841 0.149949 0.163597 255 0 255
0.099015 0.082592 0.102988 255 0 255
0.052518 0.106588 0.161596 255 0 255
0.077968 -0.000046 0.116612 255 0 255
0.001491 0.017255 0.101972 255 0 255
-0.016005 0.097366 0.170640 255 0 255
-0.043561 0.071277 0.148598 255 0 255
0.019886 0.025129 0.041596 255 0 255
0.069261 0.006929 0.205597 255 0 255
0.016894 0.024438 0.077596 255 0 255
0.067937 -0.006929 0.110615 255 0 255
0.062039 0.071971 0.185652 255 0 255
-0.016880 -0.000138 0.156612 255 0 255
0.069656 0.088763 0.200669 255 0 255
0.003856 -0.041224 0.145597 255 0 255
0.070849 0.034150 0.080458 255 0 255
-0.006840 0.039852 0.084764 255 0 255
0.041715 -0.016950 0.092613 255 0 255
0.100302 0.013577 0.131597 255 0 255
0.013809 0.016379 0.093596 255 0 255
-0.046839 0.016786 0.210540 255 0 255
-0.013611 0.021246 0.132667 255 0 255
0.057823 0.114140 0.214633 255 0 255
-0.002193 -0.036365 0.149595 255 0 255
0.010509 0.035775 0.053595 255 0 255
0.077559 0.057139 0.093596 255 0 255
-0.024975 -0.001707 0.132658 255 0 255
0.055371 -0.008375 0.100012 255 0 255
0.046699 0.031716 0.197595 255 0 255
0.025920 0.092642 0.162660 255 0 255
-0.006004 0.004933 0.195315 255 0 255
0.021850 -0.040603 0.169595 255 0 255
0.104208 0.076187 0.126405 255 0 255
0.051257 -0.027948 0.080253 255 0 255
0.061469 0.051844 0.167596 255 0 255
0.114479 0.094216 0.087596 255 0 255
0.053455 0.052520 0.133305 255 0 255
0.107213 0.022420 0.114170 255 0 255
0.055012 -0.021803 0.099595 255 0 255
0.062370 0.038137 0.051596 255 0 255
-0.001935 0.005671 0.187595 255 0 255
0.002404 0.066230 0.037596 255 0 255
-0.030094 -0.009661 0.151596 255 0 255
0.107553 0.000510 0.101596 255 0 255
0.001628 -0.009162 0.177597 255 0 255
0.049079 0.048274 0.165596 255 0 255
0.074127 0.088641 0.137066 255 0 255
0.055503 0.029201 0.204131 255 0 255
-0.016259 0.055319 0.164988 255 0 255
0.028904 -0.027337 0.158611 255 0 255
0.005824 0.060018 0.149595 255 0 255
-0.014100 0.003364 0.166330 255 0 255
0.007422 0.117118 0.157596 255 0 255
0.042956 0.093967 0.174627 255 0 255
0.051276 0.028799 0.047596 255 0 255
-0.017124 -0.009080 0.176350 255 0 255
-0.011450 0.087598 0.137595 255 0 255
0.106632 0.099384 0.176579 255 0 255
0.004168 0.082499 0.066522 255 0 255
0.041068 0.008098 0.195596 255 0 255
0.020584 0.141943 0.145597 255 0 255
0.027467 0.152947 0.067595 255 0 255
0.045267 0.145799 0.214661 255 0 255
-0.027022 0.021613 0.130626 255 0 255
-0.047768 0.032974 0.151596 255 0 255
0.060950 0.064842 0.114630 255 0 255
0.064770 0.040142 0.077596 255 0 255
0.054963 0.068218 0.189597 255 0 255
0.064240 -0.032129 0.077596 255 0 255
0.012216 0.032114 0.029595 255 0 255
0.104531 0.103891 0.093596 255 0 255
0.038974 0.111971 0.196669 255 0 255
0.011860 0.151186 0.171596 255 0 255
0.046161 0.030304 0.031597 255 0 255
-0.008418 0.014842 0.103384 255 0 255
0.001999 0.101349 0.088647 255 0 255
0.033232 0.095889 0.205597 255 0 255
0.048361 0.020856 0.063596 255 0 255
0.058273 -0.000402 0.094599 255 0 255
-0.000781 0.097846 0.152420 255 0 255
0.079581 0.076945 0.133596 255 0 255
-0.033061 0.029831 0.206456 255 0 255
0.103496 0.115577 0.124808 255 0 255
0.059627 0.081879 0.146622 255 0 255
0.108088 0.119925 0.112673 255 0 255
0.022969 0.078026 0.141595 255 0 255
0.067017 0.054431 0.069596 255 0 255
-0.028601 -0.003397 0.163818 255 0 255
0.029136 0.118872 0.221596 255 0 255
0.045195 0.027642 0.059596 255 0 255
-0.063872 0.095906 0.155595 255 0 255
0.002722 0.095065 0.130635 255 0 255
0.019212 0.059702 0.125596 255 0 255
0.014565 0.102795 0.144623 255 0 255
0.006681 0.091307 0.073596 255 0 255
-0.044640 0.097255 0.071422 255 0 255
0.076736 0.026256 0.103595 255 0 255
0.078119 0.103742 0.144777 255 0 255
0.062774 0.018340 0.089595 255 0 255
0.037396 0.086960 0.160616 255 0 255
0.000831 0.032866 0.117595 255 0 255
0.035798 -0.004262 0.200800 255 0 255
0.067126 0.132050 0.097596 255 0 255
-0.027489 0.032077 0.225596 255 0 255
0.068260 -0.012354 0.097596 255 0 255
0.014526 -0.029629 0.169092 255 0 255
0.029156 0.062038 0.145597 255 0 255
0.095079 0.038977 0.203597 255 0 255
0.059129 0.030891 0.057645 255 0 255
0.042936 0.027755 0.039143 255 0 255
0.068690 0.110379 0.221596 255 0 255
0.068924 0.061941 0.080839 255 0 255
-0.030286 0.004948 0.131597 255 0 255
0.029758 0.101053 0.181596 255 0 255
0.063599 0.030768 0.139983 255 0 255
-0.049718 -0.006623 0.121596 255 0 255
0.051135 -0.032419 0.088998 255 0 255
-0.005750 0.046980 0.057577 255 0 255
0.042095 0.110010 0.219597 255 0 255
0.017038 0.161324 0.097596 255 0 255
-0.028337 0.071756 0.138138 255 0 255
0.087564 0.008843 0.185596 255 0 255
-0.044181 0.015818 0.132403 255 0 255
0.023162 0.013373 0.077596 255 0 255
-0.022373 0.082628 0.147596 255 0 255
-0.038886 0.000633 0.133596 255 0 255
0.057193 0.025576 0.082332 255 0 255
0.115411 0.024035 0.113595 255 0 255
0.049962 0.088406 0.085317 255 0 255
0.028297 0.118025 0.207596 255 0 255
0.000708 0.058818 0.027597 255 0 255
0.087267 -0.001060 0.119596 255 0 255
-0.022664 0.050126 0.163390 255 0 255
0.019477 0.153635 0.219597 255 0 255
-0.023500 0.085044 0.132614 255 0 255
-0.050015 0.004667 0.103595 255 0 255
0.031549 0.052177 0.115597 255 0 255
0.023469 0.041109 0.083596 255 0 255
0.031992 0.082233 0.175596 255 0 255
-0.058167 0.097865 0.177597 255 0 255
-0.027526 0.051088 0.225596 255 0 255
0.075205 0.109991 0.159597 255 0 255
0.052479 0.016757 0.196607 255 0 255
0.030282 0.099090 0.165596 255 0 255
0.013470 0.020635 0.115597 255 0 255
-0.063989 0.044097 0.139768 255 0 255
-0.001874 0.057597 0.115597 255 0 255
0.037377 0.020748 0.027652 255 0 255
-0.043439 0.075747 0.196030 255 0 255
0.087240 0.013106 0.203597 255 0 255
0.001859 0.144239 0.179596 255 0 255
0.073379 0.028710 0.199596 255 0 255
0.010414 -0.016099 0.177597 255 0 255
0.047130 -0.000168 0.191597 255 0 255
0.071071 0.151984 0.163597 255 0 255
0.069539 0.079553 0.129596 255 0 255
0.056293 0.093760 0.087596 255 0 255
0.067214 -0.000646 0.199732 255 0 255
-0.002115 0.081776 0.080635 255 0 255
0.002534 0.104935 0.195596 255 0 255
0.028670 -0.003172 0.194606 255 0 255
0.044900 0.132388 0.216829 255 0 255
0.034864 0.106586 0.205597 255 0 255
-0.004062 0.056594 0.049596 255 0 255
-0.017847 0.098714 0.137595 255 0 255
0.030804 -0.048520 0.167596 255 0 255
-0.029173 0.106674 0.090433 255 0 255
0.062885 0.070158 0.080781 255 0 255
0.081133 0.083081 0.194866 255 0 255
0.052102 -0.029761 0.168616 255 0 255
0.021195 0.050718 0.083193 255 0 255
0.025138 0.075388 0.149595 255 0 255
0.033234 0.015433 0.085595 255 0 255
0.072426 0.059160 0.146730 255 0 255
0.100330 0.032450 0.192656 255 0 255
0.060003 0.011438 0.207596 255 0 255
0.056133 0.117764 0.158624 255 0 255
0.000064 0.096033 0.170506 255 0 255
0.038055 0.028760 0.025596 255 0 255
0.091643 -0.002495 0.175596 255 0 255
-0.012162 -0.017799 0.037596 255 0 255
-0.039582 0.104026 0.079596 255 0 255
0.055788 0.139672 0.217596 255 0 255
0.054046 0.008662 0.124637 255 0 255
-0.017471 0.043721 0.212614 255 0 255
0.004026 0.018437 0.085595 255 0 255
0.101352 0.096922 0.127595 255 0 255
0.051389 0.009629 0.100702 255 0 255
0.045453 -0.043896 0.170717 255 0 255
-0.006615 -0.017419 0.156632 255 0 255
0.086393 0.062337 0.141595 255 0 255
-0.051185 0.087583 0.075595 255 0 255
-0.002115 0.081776 0.168034 255 0 255
0.002354 0.050759 0.053595 255 0 255
0.079780 0.000800 0.192083 255 0 255
0.119310 0.072196 0.098544 255 0 255
0.059004 0.063934 0.125596 255 0 255
0.099707 0.090573 0.121596 255 0 255
0.103989 0.086122 0.139596 255 0 255
0.070407 0.087154 0.085595 255 0 255
0.058744 0.036448 0.021596 255 0 255
0.059378 -0.026435 0.067595 255 0 255
0.123865 0.019837 0.183595 255 0 255
0.054066 0.074873 0.182615 255 0 255
0.089453 0.079436 0.139596 255 0 255
0.071146 0.104499 0.165596 255 0 255
0.086781 0.108829 0.135596 255 0 255
0.045019 0.023288 0.049596 255 0 255
0.022426 0.133259 0.193596 255 0 255
-0.047421 0.093751 0.114657 255 0 255
-0.012911 0.156985 0.091596 255 0 255
0.076174 0.065321 0.087439 255 0 255
0.118561 0.091706 0.133596 255 0 255
0.053680 -0.004751 0.118662 255 0 255
0.010659 0.115904 0.105596 255 0 255
0.011010 0.023901 0.031597 255 0 255
-0.049250 0.107138 0.181596 255 0 255
-0.009996 -0.007962 0.083596 255 0 255
-0.038846 0.080095 0.190638 255 0 255
0.080205 0.047213 0.141595 255 0 255
0.096294 0.114424 0.181596 255 0 255
0.036287 0.013620 0.145472 255 0 255
0.069403 0.046716 0.134740 255 0 255
-0.038348 0.067087 0.153596 255 0 255
0.064565 0.033427 0.041718 255 0 255
0.067458 0.008295 0.122606 255 0 255
0.057325 0.063152 0.032641 255 0 255
0.012274 0.117173 0.214613 255 0 255
-0.013772 0.065307 0.161596 255 0 255
0.037143 0.044913 0.110403 255 0 255
0.106458 0.101509 0.133596 255 0 255
-0.004284 -0.012952 0.143596 255 0 255
0.090319 0.091777 0.106618 255 0 255
0.077035 0.131926 0.163597 255 0 255
0.012187 0.051106 0.145597 255 0 255
-0.040094 0.106433 0.127595 255 0 255
-0.048706 0.030254 0.127595 255 0 255
0.061248 0.059470 0.107596 255 0 255
-0.016415 0.017732 0.221596 255 0 255
0.044452 0.033971 0.015595 255 0 255
0.101566 0.046267 0.199596 255 0 255
-0.015844 0.068627 0.181596 255 0 255
0.011267 -0.017908 0.158745 255 0 255
-0.045512 0.101262 0.169595 255 0 255
0.086308 0.010464 0.152565 255 0 255
0.030188 -0.039554 0.175596 255 0 255
0.053524 0.038177 0.027597 255 0 255
0.005849 0.045768 0.084032 255 0 255
-0.014246 0.029778 0.131597 255 0 255
0.061736 0.060795 0.025596 255 0 255
0.099680 0.024378 0.143596 255 0 255
0.063572 0.099167 0.093596 255 0 255
-0.001739 0.128293 0.098615 255 0 255
0.024652 0.095359 0.031597 255 0 255
0.080969 0.154420 0.153596 255 0 255
0.125964 0.031163 0.183595 255 0 255
-0.032310 0.122866 0.154639 255 0 255
0.031826 -0.012735 0.163597 255 0 255
0.026264 0.103837 0.081595 255 0 255
0.041745 0.082368 0.084406 255 0 255
-0.028678 0.093664 0.195596 255 0 255
-0.058880 0.088408 0.181596 255 0 255
0.062275 0.047806 0.041109 255 0 255
0.043791 0.059048 0.084346 255 0 255
0.109072 0.087282 0.155595 255 0 255
-0.006467 0.121675 0.157596 255 0 255
-0.012362 -0.000238 0.193596 255 0 255
-0.058164 0.124049 0.151596 255 0 255
-0.057050 0.015022 0.205597 255 0 255
-0.004430 0.069663 0.071595 255 0 255
-0.004218 0.043281 0.173595 255 0 255
0.082943 0.098129 0.141595 255 0 255
0.004017 0.097019 0.197595 255 0 255
0.066406 -0.022576 0.077596 255 0 255
-0.004231 0.169059 0.087596 255 0 255
0.004310 0.005329 0.137595 255 0 255
0.036287 0.013620 0.201135 255 0 255
0.093925 0.027256 0.112224 255 0 255
-0.011517 -0.044766 0.135596 255 0 255
0.094491 0.135652 0.159597 255 0 255
0.128607 0.023864 0.167596 255 0 255
-0.044406 0.073090 0.136823 255 0 255
0.009464 0.014353 0.162167 255 0 255
0.046034 0.024785 0.201595 255 0 255
0.065338 0.058061 0.037596 255 0 255
-0.013704 0.116094 0.154127 255 0 255
0.016114 0.028487 0.014697 255 0 255
-0.036667 0.094352 0.091953 255 0 255
-0.014451 0.080438 0.085595 255 0 255
0.105364 0.010523 0.169595 255 0 255
0.045827 0.012091 0.201595 255 0 255
0.073026 0.116815 0.219597 255 0 255
-0.001407 0.077693 0.073596 255 0 255
0.006765 0.029605 0.091596 255 0 255
0.006895 -0.026567 0.169595 255 0 255
0.032908 0.134443 0.227596 255 0 255
0.079320 0.082236 0.092556 255 0 255
0.080167 0.005394 0.151596 255 0 255
-0.031004 0.039617 0.164436 255 0 255
0.025529 0.060351 0.131597 255 0 255
-0.018668 0.038750 0.223597 255 0 255
0.039233 -0.030558 0.097596 255 0 255
0.025068 0.018749 0.057595 255 0 255
0.016483 0.061761 0.151596 255 0 255
-0.003741 0.133981 0.191597 255 0 255
-0.009121 0.087336 0.096631 255 0 255
0.113008 0.005260 0.108343 255 0 255
0.090919 0.076610 0.195596 255 0 255
0.003797 0.152943 0.101596 255 0 255
0.014657 0.007948 0.191518 255 0 255
0.121228 0.079709 0.085595 255 0 255
0.003425 0.022571 0.072877 255 0 255
0.065869 -0.026159 0.089595 255 0 255
-0.036076 0.050493 0.212345 255 0 255
-0.050325 0.054882 0.117595 255 0 255
0.094654 0.035157 0.129596 255 0 255
0.023647 0.043034 0.091596 255 0 255
-0.040293 0.092661 0.198973 255 0 255
-0.029905 0.004822 0.037596 255 0 255
-0.029284 0.135310 0.149431 255 0 255
-0.034263 0.051338 0.153620 255 0 255
0.091641 0.103138 0.183595 255 0 255
0.110949 0.080661 0.089595 255 0 255
0.062631 0.028111 0.071271 255 0 255
-0.025996 0.047808 0.201595 255 0 255
0.049107 0.057113 0.078597 255 0 255
-0.004167 -0.025105 0.143596 255 0 255
-0.015778 -0.023898 0.131597 255 0 255
0.041438 0.021503 0.077596 255 0 255
0.010573 0.087692 0.188006 255 0 255
0.044732 0.061761 0.177597 255 0 255
0.019290 0.144719 0.100614 255 0 255
0.069290 0.075351 0.198071 255 0 255
0.011542 0.076149 0.033596 255 0 255
0.016092 0.127913 0.195596 255 0 255
-0.042283 0.101664 0.113595 255 0 255
-0.006358 0.062482 0.031597 255 0 255
0.011427 -0.027716 0.181596 255 0 255
-0.029783 0.084321 0.137369 255 0 255
0.058427 0.065520 0.139596 255 0 255
-0.059386 0.081551 0.185856 255 0 255
0.008292 0.135177 0.182935 255 0 255
-0.048737 0.091842 0.123596 255 0 255
0.064999 0.040249 0.033596 255 0 255
0.029034 0.052838 0.153596 255 0 255
0.089810 0.007684 0.112665 255 0 255
-0.007919 0.065829 0.040478 255 0 255
0.095869 0.065678 0.136666 255 0 255
0.038521 0.067623 0.081595 255 0 255
-0.019355 -0.034393 0.141595 255 0 255
0.008055 0.130954 0.189597 255 0 255
0.096030 0.112658 0.123596 255 0 255
0.072540 0.039987 0.093596 255 0 255
0.011511 -0.008967 0.034578 255 0 255
-0.002074 0.001238 0.159597 255 0 255
0.075685 0.047439 0.087260 255 0 255
0.069779 0.093233 0.092571 255 0 255
-0.012952 -0.022758 0.087596 255 0 255
-0.050565 0.095762 0.101596 255 0 255
0.006918 -0.013315 0.188407 255 0 255
0.078643 0.074223 0.081595 255 0 255
0.091347 0.013855 0.139596 255 0 255
0.062885 0.070158 0.054641 255 0 255
0.006938 0.052896 0.101348 255 0 255
0.004637 0.034170 0.016879 255 0 255
0.000411 0.043232 0.190598 255 0 255
-0.021510 -0.004504 0.073596 255 0 255
0.036019 0.006874 0.159597 255 0 255
0.082430 0.018778 0.155595 255 0 255
0.041979 0.058203 0.123690 255 0 255
0.047823 -0.006388 0.169595 255 0 255
0.076778 0.098704 0.199596 255 0 255
-0.009333 0.069583 0.087596 255 0 255
0.036396 0.126963 0.215595 255 0 255
0.036673 0.093244 0.078645 255 0 255
0.102608 0.040133 0.119596 255 0 255
-0.056014 0.041195 0.138924 255 0 255
-0.002760 0.016906 0.191597 255 0 255
0.083796 0.039511 0.135596 255 0 255
0.065797 0.111237 0.140625 255 0 255
-0.037175 0.010258 0.091704 255 0 255
0.051267 0.005158 0.131258 255 0 255
0.045482 0.055423 0.164591 255 0 255
0.055278 0.086472 0.194649 255 0 255
0.050707 0.062272 0.117595 255 0 255
-0.002681 0.045130 0.023596 255 0 255
-0.051343 0.034547 0.211595 255 0 255
0.012539 0.029027 0.069596 255 0 255
0.033761 0.052164 0.098484 255 0 255
0.033584 0.019417 0.057595 255 0 255
0.118464 0.082835 0.141595 255 0 255
-0.065801 0.043252 0.214154 255 0 255
0.042241 0.019781 0.033596 255 0 255
0.055127 -0.017316 0.169632 255 0 255
0.046308 -0.012602 0.192764 255 0 255
-0.033620 0.009709 0.125596 255 0 255
-0.035153 0.095837 0.161596 255 0 255
0.074867 -0.026525 0.089595 255 0 255
0.093689 0.051422 0.141822 255 0 255
-0.002330 0.046368 0.081595 255 0 255
0.062145 0.052814 0.029595 255 0 255
0.040542 0.103875 0.215159 255 0 255
0.064488 0.081939 0.157596 255 0 255
0.104749 0.076439 0.187595 255 0 255
0.008507 0.044801 0.036682 255 0 255
0.030039 0.087943 0.183595 255 0 255
0.006684 -0.024458 0.155595 255 0 255
-0.040283 0.125768 0.152650 255 0 255
-0.040424 0.055085 0.108649 255 0 255
0.003782 0.002877 0.191949 255 0 255
-0.022196 0.001797 0.096942 255 0 255
0.061971 -0.022531 0.105596 255 0 255
-0.036117 0.061508 0.163597 255 0 255
0.014120 0.087140 0.079596 255 0 255
0.044977 0.118028 0.221596 255 0 255
0.035940 0.066420 0.139485 255 0 255
0.090915 0.149431 0.151596 255 0 255
0.084402 0.104466 0.188631 255 0 255
-0.020965 -0.005575 0.037596 255 0 255
0.062519 0.056747 0.080750 255 0 255
0.069046 0.066411 0.198722 255 0 255
-0.056748 0.014373 0.217794 255 0 255
0.031592 0.071013 0.134578 255 0 255
