ply
format ascii 1.0
element vertex 1264
property float x
property float y
property float z
property uchar red
property uchar green
property uchar blue
end_header
-0.072998 4.073956 -0.421423 0 255 0
-0.092637 4.039283 -0.479248 0 255 0
-0.124228 4.073428 -0.440495 0 255 0
-0.042783 4.049132 -0.452495 0 255 0
-0.067761 4.031256 -0.414495 0 255 0
-0.104255 4.064244 -0.410495 0 255 0
-0.052064 4.085865 -0.455507 0 255 0
-0.062526 4.022658 -0.436495 0 255 0
-0.117474 4.037868 -0.450495 0 255 0
-0.063514 4.099339 -0.426495 0 255 0
-0.091025 4.027622 -0.440495 0 255 0
-0.075085 4.092997 -0.412495 0 255 0
-0.042631 4.067502 -0.456495 0 255 0
-0.049913 4.052692 -0.430495 0 255 0
-0.097919 4.024048 -0.422070 0 255 0
-0.075438 4.064252 -0.406495 0 255 0
-0.107796 4.083398 -0.413632 0 255 0
-0.119454 4.038168 -0.428495 0 255 0
-0.116836 4.060108 -0.468495 0 255 0
-0.052362 4.040946 -0.442495 0 255 0
-0.061261 4.071462 -0.410823 0 255 0
-0.103042 4.038426 -0.426495 0 255 0
-0.076864 4.046153 -0.417471 0 255 0
-0.050395 4.044617 -0.416495 0 255 0
-0.095765 4.072661 -0.421468 0 255 0
-0.117162 4.087434 -0.425487 0 255 0
-0.096426 4.050312 -0.411619 0 255 0
-0.044258 4.080116 -0.422495 0 255 0
-0.115158 4.058382 -0.421422 0 255 0
-0.090359 4.098094 -0.415755 0 255 0
-0.101923 4.034070 -0.448495 0 255 0
-0.065542 4.041702 -0.477565 0 255 0
-0.116282 4.048398 -0.440495 0 255 0
-0.057055 4.062389 -0.479419 0 255 0
-0.071743 4.031767 -0.428495 0 255 0
-0.123624 4.070405 -0.454495 0 255 0
-0.046812 4.076570 -0.446495 0 255 0
-0.086059 4.031750 -0.425490 0 255 0
-0.061628 4.040870 -0.423447 0 255 0
-0.127167 4.067069 -0.428495 0 255 0
-0.047356 4.069541 -0.430495 0 255 0
-0.083283 4.025566 -0.462495 0 255 0
-0.049968 4.060883 -0.466495 0 255 0
-0.103127 4.047646 -0.479009 0 255 0
-0.056870 4.058261 -0.420495 0 255 0
-0.069815 4.031217 -0.456495 0 255 0
-0.041067 4.046722 -0.438495 0 255 0
-0.070751 4.061211 -0.418495 0 255 0
-0.055562 4.088653 -0.427448 0 255 0
-0.098505 4.040530 -0.467515 0 255 0
-0.084026 4.070168 -0.415620 0 255 0
-0.109065 4.034595 -0.460495 0 255 0
-0.062460 4.036958 -0.465517 0 255 0
-0.062258 4.032825 -0.444495 0 255 0
-0.092466 4.020844 -0.451742 0 255 0
-0.102023 4.033600 -0.414495 0 255 0
-0.126895 4.060877 -0.441375 0 255 0
-0.069378 4.081367 -0.411074 0 255 0
-0.059904 4.026191 -0.424495 0 255 0
-0.052785 4.043994 -0.458495 0 255 0
-0.094265 4.055985 -0.486495 0 255 0
-0.039158 4.060630 -0.426495 0 255 0
-0.046664 4.058136 -0.444495 0 255 0
-0.079747 4.038588 -0.480495 0 255 0
-0.079064 4.026175 -0.416337 0 255 0
-0.098751 4.020135 -0.433894 0 255 0
-0.082820 4.018124 -0.440495 0 255 0
-0.054136 4.095363 -0.438495 0 255 0
-0.055514 4.074329 -0.422495 0 255 0
-0.109118 4.038697 -0.437462 0 255 0
-0.066719 4.088980 -0.420495 0 255 0
-0.085227 4.035663 -0.469597 0 255 0
-0.114376 4.047993 -0.456495 0 255 0
-0.081532 4.081904 -0.417383 0 255 0
-0.060030 4.091648 -0.462495 0 255 0
-0.100215 4.061339 -0.421483 0 255 0
-0.072587 4.027789 -0.440495 0 255 0
-0.110987 4.029906 -0.424495 0 255 0
-0.121949 4.084148 -0.436495 0 255 0
-0.115075 4.049154 -0.428495 0 255 0
-0.039834 4.076069 -0.436495 0 255 0
-0.073370 4.101062 -0.420495 0 255 0
-0.047859 4.076793 -0.461433 0 255 0
-0.044482 4.054205 -0.418495 0 255 0
-0.098307 4.089560 -0.417438 0 255 0
-0.099262 4.075450 -0.411007 0 255 0
-0.042729 4.045032 -0.426495 0 255 0
-0.060920 4.034586 -0.433486 0 255 0
-0.051604 4.030319 -0.438495 0 255 0
-0.085813 4.052145 -0.414008 0 255 0
-0.120581 4.080966 -0.454495 0 255 0
-0.060858 4.040707 -0.412495 0 255 0
-0.110706 4.069704 -0.417391 0 255 0
-0.061506 4.051067 -0.481345 0 255 0
-0.084733 4.028366 -0.450495 0 255 0
-0.069933 4.021040 -0.426495 0 255 0
-0.096482 4.030808 -0.430495 0 255 0
-0.100191 4.022981 -0.444495 0 255 0
-0.090727 4.067502 -0.429471 0 255 0
-0.076985 4.035955 -0.411531 0 255 0
-0.065772 4.023349 -0.448495 0 255 0
-0.054645 4.083349 -0.466495 0 255 0
-0.083196 4.074080 -0.425449 0 255 0
-0.081985 4.026794 -0.434495 0 255 0
-0.094177 4.041655 -0.419471 0 255 0
-0.049072 4.056602 -0.456495 0 255 0
-0.121349 4.077350 -0.428495 0 255 0
-0.093515 4.064006 -0.413903 0 255 0
-0.103127 4.047646 -0.419485 0 255 0
-0.110492 4.053301 -0.474495 0 255 0
-0.054698 4.035000 -0.418495 0 255 0
-0.122753 4.051510 -0.420495 0 255 0
-0.109704 4.055179 -0.411904 0 255 0
-0.112793 4.031023 -0.444495 0 255 0
-0.089262 4.026297 -0.416824 0 255 0
-0.119427 4.038295 -0.440495 0 255 0
-0.053938 4.043324 -0.430495 0 255 0
-0.055704 4.092772 -0.448495 0 255 0
-0.047408 4.086920 -0.446495 0 255 0
-0.125371 4.050330 -0.444495 0 255 0
-0.050372 4.079370 -0.430495 0 255 0
-0.061383 4.061265 -0.411442 0 255 0
-0.088789 4.018909 -0.432495 0 255 0
-0.072757 4.018700 -0.436495 0 255 0
-0.071457 4.071585 -0.411987 0 255 0
-0.117406 4.067039 -0.461544 0 255 0
-0.048363 4.050319 -0.464495 0 255 0
-0.076985 4.035955 -0.421454 0 255 0
-0.052848 4.053317 -0.412946 0 255 0
-0.047026 4.039811 -0.450495 0 255 0
-0.062219 4.100292 -0.436495 0 255 0
-0.080371 4.061212 -0.418495 0 255 0
-0.087275 4.045267 -0.484495 0 255 0
-0.063707 4.079188 -0.418495 0 255 0
-0.039528 4.060709 -0.450495 0 255 0
-0.062110 4.096319 -0.416495 0 255 0
-0.108495 4.041631 -0.452495 0 255 0
-0.072629 4.104548 -0.429325 0 255 0
-0.050647 4.073296 -0.413774 0 255 0
-0.061716 4.050082 -0.420495 0 255 0
-0.102358 4.032020 -0.438495 0 255 0
-0.123035 4.064146 -0.420495 0 255 0
-0.094088 4.032455 -0.470495 0 255 0
-0.109531 4.089901 -0.420495 0 255 0
-0.045395 4.069144 -0.440495 0 255 0
-0.113447 4.037572 -0.419608 0 255 0
-0.082319 4.097444 -0.420495 0 255 0
-0.124163 4.044877 -0.434495 0 255 0
-0.105291 4.027842 -0.454495 0 255 0
-0.120819 4.060607 -0.430495 0 255 0
-0.085738 4.090978 -0.411897 0 255 0
-0.066407 4.028012 -0.464495 0 255 0
-0.045450 4.037432 -0.436495 0 255 0
-0.121266 4.063769 -0.448495 0 255 0
-0.100319 4.036826 -0.458495 0 255 0
-0.113574 4.080537 -0.420495 0 255 0
-0.041282 4.069260 -0.423601 0 255 0
-0.046226 4.060088 -0.434495 0 255 0
-0.073244 4.053563 -0.413437 0 255 0
-0.094525 4.030394 -0.452495 0 255 0
-0.090189 4.079656 -0.419423 0 255 0
-0.059072 4.066908 -0.418495 0 255 0
-0.046559 4.088784 -0.426495 0 255 0
-0.118895 4.053042 -0.462495 0 255 0
-0.084195 4.040522 -0.418495 0 255 0
-0.055974 4.038617 -0.450495 0 255 0
-0.039896 4.052608 -0.430495 0 255 0
-0.067502 4.060521 -0.404495 0 255 0
-0.071411 4.042950 -0.410894 0 255 0
-0.050174 4.060926 -0.426495 0 255 0
-0.055344 4.041579 -0.468490 0 255 0
-0.102002 4.043318 -0.411598 0 255 0
-0.121981 4.045520 -0.451364 0 255 0
-0.069870 4.040577 -0.419412 0 255 0
-0.095594 4.054224 -0.419464 0 255 0
-0.057164 4.071494 -0.478495 0 255 0
-0.075361 4.024365 -0.458495 0 255 0
-0.076823 4.031832 -0.462495 0 255 0
-0.094885 4.047938 -0.481615 0 255 0
-0.116282 4.062711 -0.414146 0 255 0
-0.050466 4.069168 -0.464495 0 255 0
-0.106063 4.024210 -0.428495 0 255 0
-0.039360 4.068682 -0.446495 0 255 0
-0.102278 4.032401 -0.466495 0 255 0
-0.048687 4.048343 -0.444495 0 255 0
-0.106123 4.043167 -0.460495 0 255 0
-0.088227 4.031171 -0.458495 0 255 0
-0.110462 4.041997 -0.428495 0 255 0
-0.110536 4.051266 -0.421434 0 255 0
-0.055855 4.096894 -0.429295 0 255 0
-0.115307 4.031833 -0.432495 0 255 0
-0.121027 4.055540 -0.438495 0 255 0
-0.041788 4.081635 -0.430495 0 255 0
-0.071239 4.024510 -0.418904 0 255 0
-0.084451 4.020076 -0.448495 0 255 0
-0.091194 4.073736 -0.412495 0 255 0
-0.052310 4.065471 -0.473253 0 255 0
-0.090476 4.020590 -0.424495 0 255 0
-0.103339 4.046648 -0.470495 0 255 0
-0.089528 4.102007 -0.423441 0 255 0
-0.050931 4.032463 -0.446495 0 255 0
-0.089433 4.044736 -0.410744 0 255 0
-0.118948 4.069411 -0.425441 0 255 0
-0.090807 4.019028 -0.442495 0 255 0
-0.056672 4.027549 -0.432495 0 255 0
-0.053142 4.061558 -0.412074 0 255 0
-0.099555 4.083691 -0.411613 0 255 0
-0.039484 4.054564 -0.442495 0 255 0
-0.072158 4.029811 -0.448495 0 255 0
-0.118069 4.044688 -0.419576 0 255 0
-0.122825 4.066146 -0.436495 0 255 0
-0.115787 4.040113 -0.458495 0 255 0
-0.076787 4.084986 -0.411273 0 255 0
-0.049108 4.046388 -0.436495 0 255 0
-0.047554 4.039753 -0.422495 0 255 0
-0.112422 4.042396 -0.444495 0 255 0
-0.122735 4.045680 -0.426495 0 255 0
-0.054615 4.049603 -0.424495 0 255 0
-0.049813 4.081297 -0.416495 0 255 0
-0.105131 4.076697 -0.417415 0 255 0
-0.108457 4.061047 -0.417395 0 255 0
-0.063088 4.033999 -0.452495 0 255 0
-0.082775 4.027963 -0.442495 0 255 0
-0.067715 4.089191 -0.412297 0 255 0
-0.054903 4.057843 -0.472495 0 255 0
-0.084183 4.066111 -0.424495 0 255 0
-0.044096 4.075254 -0.454495 0 255 0
-0.074426 4.038382 -0.474495 0 255 0
-0.081607 4.043072 -0.411311 0 255 0
-0.116405 4.052513 -0.415410 0 255 0
-0.074662 4.066132 -0.423414 0 255 0
-0.100461 4.040946 -0.475234 0 255 0
-0.050736 4.048779 -0.452495 0 255 0
-0.066660 4.033761 -0.472495 0 255 0
-0.090482 4.087896 -0.417427 0 255 0
-0.054802 4.092222 -0.420495 0 255 0
-0.066595 4.070552 -0.418495 0 255 0
-0.117392 4.052723 -0.450495 0 255 0
-0.118898 4.060019 -0.458495 0 255 0
-0.082194 4.088180 -0.478495 0 255 0
-0.078567 4.076615 -0.412495 0 255 0
-0.112293 4.052623 -0.466495 0 255 0
-0.107162 4.038280 -0.467526 0 255 0
-0.096435 4.098370 -0.420495 0 255 0
-0.062582 4.026761 -0.455063 0 255 0
-0.121871 4.074893 -0.448495 0 255 0
-0.058569 4.026402 -0.442495 0 255 0
-0.057008 4.081850 -0.422495 0 255 0
-0.072953 4.093408 -0.420495 0 255 0
-0.058972 4.079155 -0.412495 0 255 0
-0.055468 4.035472 -0.462495 0 255 0
-0.079869 4.089730 -0.417400 0 255 0
-0.093468 4.035370 -0.463514 0 255 0
-0.038483 4.070710 -0.430495 0 255 0
-0.101048 4.057427 -0.411115 0 255 0
-0.046000 4.082531 -0.452495 0 255 0
-0.072342 4.043148 -0.480495 0 255 0
-0.094300 4.031457 -0.413930 0 255 0
-0.071565 4.020491 -0.444495 0 255 0
-0.111414 4.075989 -0.413337 0 255 0
-0.093685 4.034349 -0.424495 0 255 0
-0.043412 4.081981 -0.442495 0 255 0
-0.073707 4.080242 -0.417398 0 255 0
-0.059228 4.044450 -0.474495 0 255 0
-0.064170 4.057768 -0.417454 0 255 0
-0.084072 4.021859 -0.420495 0 255 0
-0.096472 4.030857 -0.444495 0 255 0
-0.102880 4.068041 -0.419489 0 255 0
-0.046555 4.068336 -0.448495 0 255 0
-0.070116 4.034495 -0.464495 0 255 0
-0.088847 4.028254 -0.431471 0 255 0
-0.068030 4.064723 -0.412495 0 255 0
-0.060963 4.030505 -0.418495 0 255 0
-0.115229 4.044085 -0.434495 0 255 0
-0.099717 4.054070 -0.480495 0 255 0
-0.051895 4.067427 -0.423412 0 255 0
-0.088887 4.028262 -0.466495 0 255 0
-0.110628 4.060452 -0.472495 0 255 0
-0.065881 4.030485 -0.438495 0 255 0
-0.079305 4.053907 -0.418495 0 255 0
-0.079987 4.032504 -0.474495 0 255 0
-0.068207 4.048403 -0.417422 0 255 0
-0.043375 4.043124 -0.444495 0 255 0
-0.080401 4.029505 -0.456495 0 255 0
-0.065800 4.035623 -0.426495 0 255 0
-0.125355 4.058505 -0.425125 0 255 0
-0.097442 4.079153 -0.418495 0 255 0
-0.079870 4.104043 -0.418495 0 255 0
-0.051423 4.088883 -0.440495 0 255 0
-0.084103 4.031335 -0.412847 0 255 0
-0.115263 4.067506 -0.468495 0 255 0
-0.091635 4.024756 -0.457834 0 255 0
-0.050510 4.093175 -0.432495 0 255 0
-0.046788 4.076565 -0.438495 0 255 0
-0.112338 4.033172 -0.452495 0 255 0
-0.090850 4.057304 -0.414660 0 255 0
-0.056249 4.046941 -0.412495 0 255 0
-0.078449 4.029075 -0.428495 0 255 0
-0.122322 4.082397 -0.443493 0 255 0
-0.044277 4.061718 -0.460495 0 255 0
-0.096964 4.038157 -0.411935 0 255 0
-0.104667 4.050019 -0.411416 0 255 0
-0.125753 4.072903 -0.432495 0 255 0
-0.105134 4.028578 -0.420495 0 255 0
-0.038601 4.058467 -0.434495 0 255 0
-0.047523 4.054230 -0.438495 0 255 0
-0.107374 4.037287 -0.444495 0 255 0
-0.076540 4.066911 -0.416495 0 255 0
-0.087817 4.064838 -0.418495 0 255 0
-0.082008 4.021948 -0.456495 0 255 0
-0.055150 4.037448 -0.436495 0 255 0
-0.086277 4.078824 -0.411984 0 255 0
-0.053544 4.030810 -0.424495 0 255 0
-0.042191 4.055140 -0.456495 0 255 0
-0.094436 4.064200 -0.424495 0 255 0
-0.066666 4.046030 -0.483465 0 255 0
-0.069283 4.024095 -0.454533 0 255 0
-0.126493 4.058746 -0.434495 0 255 0
-0.107380 4.026059 -0.442495 0 255 0
-0.079034 4.045557 -0.482495 0 255 0
-0.089016 4.046692 -0.417462 0 255 0
-0.087255 4.035743 -0.476495 0 255 0
-0.121682 4.056545 -0.446495 0 255 0
-0.107214 4.038292 -0.414495 0 255 0
-0.044778 4.072048 -0.418221 0 255 0
-0.081820 4.028805 -0.468495 0 255 0
-0.122287 4.044081 -0.444495 0 255 0
-0.106378 4.070828 -0.411334 0 255 0
-0.063415 4.022848 -0.429463 0 255 0
-0.061967 4.092060 -0.424495 0 255 0
-0.045043 4.047569 -0.420495 0 255 0
-0.056685 4.092981 -0.455333 0 255 0
-0.063292 4.033045 -0.459327 0 255 0
-0.046134 4.047800 -0.458495 0 255 0
-0.125154 4.069071 -0.446495 0 255 0
-0.118154 4.053905 -0.432495 0 255 0
-0.103420 4.055887 -0.417330 0 255 0
-0.093617 4.039491 -0.472495 0 255 0
-0.093563 4.092641 -0.413238 0 255 0
-0.121441 4.057673 -0.417957 0 255 0
-0.078245 4.078131 -0.422495 0 255 0
-0.104696 4.035712 -0.432495 0 255 0
-0.046857 4.062266 -0.453506 0 255 0
-0.089686 4.072399 -0.424495 0 255 0
-0.062470 4.085006 -0.412495 0 255 0
-0.041173 4.075372 -0.426495 0 255 0
-0.051353 4.036641 -0.456495 0 255 0
-0.080162 4.097972 -0.414196 0 255 0
-0.119677 4.046741 -0.460495 0 255 0
-0.047465 4.054216 -0.450495 0 255 0
-0.056036 4.028702 -0.448495 0 255 0
-0.051044 4.085648 -0.432495 0 255 0
-0.104591 4.088851 -0.415443 0 255 0
-0.048025 4.070694 -0.458495 0 255 0
-0.113995 4.044615 -0.450495 0 255 0
-0.098117 4.024090 -0.452495 0 255 0
-0.075984 4.021430 -0.422206 0 255 0
-0.080207 4.018239 -0.434495 0 255 0
-0.068424 4.095477 -0.413924 0 255 0
-0.119740 4.079803 -0.422495 0 255 0
-0.072801 4.026788 -0.464495 0 255 0
-0.054097 4.047448 -0.465587 0 255 0
-0.042887 4.061422 -0.420495 0 255 0
-0.116991 4.068995 -0.416032 0 255 0
-0.040696 4.052778 -0.423528 0 255 0
-0.050427 4.074328 -0.426495 0 255 0
-0.045031 4.039387 -0.428495 0 255 0
-0.066429 4.037527 -0.412495 0 255 0
-0.051836 4.081727 -0.460495 0 255 0
-0.053606 4.088237 -0.461252 0 255 0
-0.061374 4.038771 -0.472495 0 255 0
-0.039187 4.070860 -0.440495 0 255 0
-0.107769 4.028186 -0.448495 0 255 0
-0.046737 4.037704 -0.444495 0 255 0
-0.098553 4.069166 -0.411668 0 255 0
-0.103239 4.029268 -0.460495 0 255 0
-0.047688 4.058353 -0.414915 0 255 0
-0.083073 4.084277 -0.410756 0 255 0
-0.055808 4.068259 -0.411284 0 255 0
-0.102216 4.023072 -0.438495 0 255 0
-0.045791 4.055905 -0.462495 0 255 0
-0.038198 4.062470 -0.444495 0 255 0
-0.098090 4.042486 -0.481430 0 255 0
-0.105792 4.054347 -0.478754 0 255 0
-0.078878 4.027052 -0.448495 0 255 0
-0.096909 4.028803 -0.438495 0 255 0
-0.074531 4.028269 -0.434495 0 255 0
-0.074416 4.086527 -0.417409 0 255 0
-0.090598 4.029636 -0.446495 0 255 0
-0.051368 4.055047 -0.424495 0 255 0
-0.056762 4.054149 -0.477273 0 255 0
-0.121265 4.039266 -0.434495 0 255 0
-0.096855 4.019436 -0.440495 0 255 0
-0.086351 4.039990 -0.481034 0 255 0
-0.050570 4.087592 -0.420495 0 255 0
-0.056405 4.036591 -0.444495 0 255 0
-0.073873 4.029160 -0.414495 0 255 0
-0.041226 4.054935 -0.448495 0 255 0
-0.074497 4.019069 -0.430495 0 255 0
-0.104374 4.041778 -0.421412 0 255 0
-0.122903 4.064117 -0.454495 0 255 0
-0.120748 4.051392 -0.456495 0 255 0
-0.067363 4.095251 -0.422495 0 255 0
-0.110445 4.047156 -0.462495 0 255 0
-0.041214 4.048799 -0.446495 0 255 0
-0.080359 4.048941 -0.412908 0 255 0
-0.059103 4.038289 -0.428495 0 255 0
-0.052848 4.053317 -0.467560 0 255 0
-0.041186 4.044703 -0.432495 0 255 0
-0.058388 4.097433 -0.442495 0 255 0
-0.039012 4.064689 -0.432495 0 255 0
-0.060844 4.073419 -0.419492 0 255 0
-0.079358 4.034416 -0.467510 0 255 0
-0.114899 4.064461 -0.422495 0 255 0
-0.065658 4.021914 -0.442495 0 255 0
-0.066620 4.031708 -0.432495 0 255 0
-0.106330 4.042192 -0.473533 0 255 0
-0.096841 4.048355 -0.417441 0 255 0
-0.123672 4.078594 -0.434495 0 255 0
-0.099043 4.028376 -0.417860 0 255 0
-0.051940 4.042900 -0.448495 0 255 0
-0.124401 4.072615 -0.426087 0 255 0
-0.068084 4.058599 -0.412433 0 255 0
-0.113806 4.031514 -0.438495 0 255 0
-0.115204 4.087018 -0.419732 0 255 0
-0.084981 4.056058 -0.418907 0 255 0
-0.111537 4.065792 -0.411914 0 255 0
-0.115192 4.072702 -0.420495 0 255 0
-0.125701 4.050400 -0.436495 0 255 0
-0.100247 4.022498 -0.428495 0 255 0
-0.076833 4.104012 -0.424495 0 255 0
-0.039089 4.052437 -0.436495 0 255 0
-0.095717 4.044026 -0.411298 0 255 0
-0.064710 4.045615 -0.411395 0 255 0
-0.083271 4.035247 -0.421474 0 255 0
-0.082855 4.037203 -0.411042 0 255 0
-0.084272 4.049773 -0.419476 0 255 0
-0.101511 4.084106 -0.417454 0 255 0
-0.083897 4.032302 -0.462495 0 255 0
-0.045390 4.064000 -0.444495 0 255 0
-0.104714 4.078653 -0.411641 0 255 0
-0.077327 4.072833 -0.425412 0 255 0
-0.088936 4.037452 -0.420495 0 255 0
-0.098922 4.038574 -0.421438 0 255 0
-0.084320 4.078408 -0.421470 0 255 0
-0.056794 4.076647 -0.474495 0 255 0
-0.119948 4.083937 -0.429446 0 255 0
-0.105527 4.094068 -0.418495 0 255 0
-0.116284 4.048399 -0.446495 0 255 0
-0.078516 4.019135 -0.444495 0 255 0
-0.115413 4.033900 -0.424495 0 255 0
-0.069073 4.102042 -0.424495 0 255 0
-0.050908 4.077441 -0.466495 0 255 0
-0.055344 4.041579 -0.414883 0 255 0
-0.111593 4.046294 -0.424495 0 255 0
-0.065899 4.030396 -0.448495 0 255 0
-0.049510 4.083278 -0.440495 0 255 0
-0.047601 4.041978 -0.456495 0 255 0
-0.253157 3.967079 -0.483471 0 0 255
-0.167646 4.018422 -0.480495 0 0 255
-0.237062 4.033176 -0.490808 0 0 255
-0.194800 3.966943 -0.476495 0 0 255
-0.239661 3.915136 -0.476495 0 0 255
-0.208755 4.006713 -0.474495 0 0 255
-0.272804 4.018935 -0.478495 0 0 255
-0.273144 3.934523 -0.478495 0 0 255
-0.221270 3.943944 -0.491461 0 0 255
-0.223981 3.979280 -0.481461 0 0 255
-0.182239 3.992898 -0.491493 0 0 255
-0.194316 4.032269 -0.479285 0 0 255
-0.244037 3.942649 -0.475005 0 0 255
-0.232507 4.001538 -0.480495 0 0 255
-0.254772 3.930617 -0.491332 0 0 255
-0.215987 3.959178 -0.474929 0 0 255
-0.255501 4.033007 -0.478216 0 0 255
-0.201923 3.986858 -0.481440 0 0 255
-0.187149 4.008277 -0.474495 0 0 255
-0.168766 3.998213 -0.474495 0 0 255
-0.270730 3.956501 -0.480495 0 0 255
-0.226137 3.930665 -0.474940 0 0 255
-0.246055 3.986016 -0.480495 0 0 255
-0.213018 4.026022 -0.480495 0 0 255
-0.233798 3.961958 -0.482495 0 0 255
-0.182361 3.982700 -0.475116 0 0 255
-0.235209 3.926460 -0.491415 0 0 255
-0.183117 4.017621 -0.491502 0 0 255
-0.256531 4.018540 -0.490495 0 0 255
-0.207330 3.961427 -0.491426 0 0 255
-0.167590 4.004097 -0.491449 0 0 255
-0.191850 3.976539 -0.491347 0 0 255
-0.256020 3.924748 -0.475074 0 0 255
-0.227489 3.947309 -0.476495 0 0 255
-0.216743 3.994098 -0.481457 0 0 255
-0.260103 3.944018 -0.481489 0 0 255
-0.272814 4.028508 -0.491482 0 0 255
-0.210703 3.974413 -0.474070 0 0 255
-0.199600 4.017035 -0.481460 0 0 255
-0.221711 4.013556 -0.480495 0 0 255
-0.209740 3.947627 -0.482495 0 0 255
-0.181870 4.023490 -0.477752 0 0 255
-0.241712 3.972825 -0.475151 0 0 255
-0.247189 3.918199 -0.488495 0 0 255
-0.251739 3.954509 -0.476558 0 0 255
-0.192019 3.994977 -0.474566 0 0 255
-0.241806 4.030096 -0.477848 0 0 255
-0.269590 3.937857 -0.491459 0 0 255
-0.244575 3.930495 -0.481440 0 0 255
-0.232100 3.989183 -0.474716 0 0 255
-0.271983 4.032421 -0.477592 0 0 255
-0.193607 4.025985 -0.491451 0 0 255
-0.250525 4.031949 -0.490495 0 0 255
-0.174999 4.007717 -0.481353 0 0 255
-0.234671 3.938613 -0.483493 0 0 255
-0.223924 3.931457 -0.488495 0 0 255
-0.254083 4.020437 -0.478149 0 0 255
-0.198182 4.004466 -0.481455 0 0 255
-0.202043 3.957440 -0.480495 0 0 255
-0.195346 3.979327 -0.474008 0 0 255
-0.224104 3.969082 -0.474477 0 0 255
-0.217246 3.938999 -0.476495 0 0 255
-0.240911 3.952208 -0.482495 0 0 255
-0.174482 3.991250 -0.482495 0 0 255
-0.220949 4.003171 -0.474858 0 0 255
-0.182947 3.999183 -0.481435 0 0 255
-0.200297 3.970156 -0.486495 0 0 255
-0.230743 3.921421 -0.480495 0 0 255
-0.204174 3.995516 -0.474102 0 0 255
-0.212953 3.983068 -0.481399 0 0 255
-0.264122 3.930561 -0.484495 0 0 255
-0.263998 4.026634 -0.484495 0 0 255
-0.182045 3.982634 -0.486495 0 0 255
-0.269884 3.946097 -0.475996 0 0 255
-0.253525 3.936487 -0.474708 0 0 255
-0.222687 3.956512 -0.483486 0 0 255
-0.201849 4.025692 -0.474402 0 0 255
-0.261264 3.960624 -0.476495 0 0 255
-0.210411 3.966172 -0.481375 0 0 255
-0.236135 3.979817 -0.481465 0 0 255
-0.253034 3.977276 -0.479514 0 0 255
-0.188187 3.974531 -0.480495 0 0 255
-0.220363 3.986689 -0.474451 0 0 255
-0.210213 4.015202 -0.481432 0 0 255
-0.213322 3.952477 -0.491419 0 0 255
-0.268925 4.017944 -0.488495 0 0 255
-0.237071 3.927320 -0.474495 0 0 255
-0.249595 3.917249 -0.478495 0 0 255
-0.190943 4.019285 -0.475265 0 0 255
-0.239305 3.993763 -0.480495 0 0 255
-0.243778 3.960996 -0.476495 0 0 255
-0.183916 4.033104 -0.480495 0 0 255
-0.191727 3.986735 -0.481435 0 0 255
-0.263721 3.936610 -0.475470 0 0 255
-0.204514 4.032393 -0.481480 0 0 255
-0.217606 3.949299 -0.476495 0 0 255
-0.247013 4.024843 -0.484495 0 0 255
-0.175161 4.011841 -0.490495 0 0 255
-0.250484 3.946064 -0.482495 0 0 255
-0.262944 4.017226 -0.480495 0 0 255
-0.179202 4.014744 -0.474495 0 0 255
-0.254992 3.922485 -0.484495 0 0 255
-0.230682 3.976615 -0.474231 0 0 255
-0.175583 3.999662 -0.488495 0 0 255
-0.180282 3.992482 -0.475088 0 0 255
-0.188323 4.021984 -0.484495 0 0 255
-0.222565 3.966710 -0.483493 0 0 255
-0.225322 3.938671 -0.482495 0 0 255
-0.233301 3.954679 -0.476493 0 0 255
-0.203909 3.967900 -0.474495 0 0 255
-0.251200 3.966662 -0.474349 0 0 255
-0.166123 4.007874 -0.478495 0 0 255
-0.204003 3.977077 -0.481475 0 0 255
-0.196894 4.010524 -0.474495 0 0 255
-0.207254 4.000259 -0.481490 0 0 255
-0.260385 3.937944 -0.490495 0 0 255
-0.208042 3.986934 -0.474495 0 0 255
-0.236974 3.918159 -0.486495 0 0 255
-0.226940 3.994221 -0.481426 0 0 255
-0.261936 3.954632 -0.483491 0 0 255
-0.242959 3.966956 -0.483446 0 0 255
-0.178203 4.002264 -0.474281 0 0 255
-0.231930 3.970746 -0.481312 0 0 255
-0.237042 3.937073 -0.474676 0 0 255
-0.208992 3.953602 -0.475055 0 0 255
-0.216989 3.973703 -0.481477 0 0 255
-0.245209 3.975613 -0.483484 0 0 255
-0.214248 4.005836 -0.481475 0 0 255
-0.190234 4.013000 -0.481439 0 0 255
-0.253378 3.932365 -0.482495 0 0 255
-0.245822 3.924625 -0.475035 0 0 255
-0.260811 3.950304 -0.475417 0 0 255
-0.232592 3.948395 -0.483493 0 0 255
-0.233324 3.930148 -0.482495 0 0 255
-0.212286 3.957351 -0.482495 0 0 255
-0.212889 3.997369 -0.474495 0 0 255
-0.168150 3.998083 -0.484495 0 0 255
-0.215637 3.941586 -0.484495 0 0 255
-0.195555 3.978347 -0.482495 0 0 255
-0.179204 4.016789 -0.482780 0 0 255
-0.257677 4.027335 -0.490495 0 0 255
-0.226183 3.959301 -0.475904 0 0 255
-0.248535 3.959962 -0.483477 0 0 255
-0.196858 3.962594 -0.484495 0 0 255
-0.214957 4.012121 -0.475237 0 0 255
-0.236919 3.947269 -0.476000 0 0 255
-0.253818 3.944728 -0.475018 0 0 255
-0.220486 3.976492 -0.474190 0 0 255
-0.205469 4.018283 -0.474582 0 0 255
-0.195980 4.024445 -0.481421 0 0 255
-0.198305 3.994268 -0.481351 0 0 255
-0.263741 4.032714 -0.477666 0 0 255
-0.242080 3.942233 -0.483424 0 0 255
-0.189940 4.004759 -0.481448 0 0 255
-0.267467 3.941495 -0.484495 0 0 255
-0.183584 3.991139 -0.482495 0 0 255
-0.189162 3.984146 -0.490495 0 0 255
-0.204227 4.009840 -0.480495 0 0 255
-0.243661 3.925173 -0.490495 0 0 255
-0.240035 3.980712 -0.474495 0 0 255
-0.214324 3.967003 -0.474345 0 0 255
-0.237090 3.965708 -0.476231 0 0 255
-0.182825 4.009379 -0.481477 0 0 255
-0.208918 3.992435 -0.481434 0 0 255
-0.195640 3.987568 -0.474527 0 0 255
-0.191154 3.970192 -0.486495 0 0 255
-0.224444 4.005959 -0.481447 0 0 255
-0.217861 3.950359 -0.484495 0 0 255
-0.189280 4.027110 -0.476095 0 0 255
-0.239753 3.924322 -0.482495 0 0 255
-0.230160 3.935610 -0.490495 0 0 255
-0.222611 3.995346 -0.475097 0 0 255
-0.174650 4.024000 -0.480495 0 0 255
-0.208682 3.961715 -0.474495 0 0 255
-0.263844 3.926412 -0.478069 0 0 255
-0.203172 3.980989 -0.474951 0 0 255
-0.172212 4.011214 -0.475149 0 0 255
-0.193799 4.003533 -0.474495 0 0 255
-0.187258 3.988523 -0.474495 0 0 255
-0.230033 3.984654 -0.480495 0 0 255
-0.245699 3.934824 -0.475268 0 0 255
-0.207036 3.953186 -0.486919 0 0 255
-0.201998 4.003232 -0.474495 0 0 255
-0.217408 4.019831 -0.480495 0 0 255
-0.243821 4.028479 -0.490495 0 0 255
-0.204221 4.024152 -0.481399 0 0 255
-0.229341 3.925212 -0.486800 0 0 255
-0.259622 3.936662 -0.482495 0 0 255
-0.267587 4.024243 -0.478495 0 0 255
-0.230341 3.939738 -0.476281 0 0 255
-0.214964 3.981452 -0.474495 0 0 255
-0.238801 3.986519 -0.479310 0 0 255
-0.237041 4.033173 -0.482495 0 0 255
-0.255771 3.959455 -0.482495 0 0 255
-0.222319 3.987104 -0.481461 0 0 255
-0.254188 4.029561 -0.484495 0 0 255
-0.220544 3.933566 -0.480495 0 0 255
-0.246702 3.949348 -0.475794 0 0 255
-0.257494 3.970046 -0.478495 0 0 255
-0.259120 4.025597 -0.477697 0 0 255
-0.186860 4.000015 -0.474937 0 0 255
-0.243649 3.915614 -0.482495 0 0 255
-0.255527 3.951225 -0.482495 0 0 255
-0.250463 4.027846 -0.477983 0 0 255
-0.250860 3.929786 -0.474839 0 0 255
-0.258685 3.931450 -0.474977 0 0 255
-0.189648 3.996518 -0.481456 0 0 255
-0.200507 3.974290 -0.474839 0 0 255
-0.221779 3.999258 -0.481474 0 0 255
-0.198081 4.018757 -0.474495 0 0 255
-0.271099 4.026958 -0.484495 0 0 255
-0.249123 3.928339 -0.486495 0 0 255
-0.251405 4.023417 -0.490495 0 0 255
-0.219774 3.937490 -0.488495 0 0 255
-0.267096 3.949594 -0.481441 0 0 255
-0.179230 3.986125 -0.480495 0 0 255
-0.234500 3.920175 -0.474811 0 0 255
-0.227063 3.984024 -0.474272 0 0 255
-0.199089 3.961720 -0.475377 0 0 255
-0.222810 3.946316 -0.481370 0 0 255
-0.232693 3.996014 -0.476495 0 0 255
-0.187018 3.977557 -0.486495 0 0 255
-0.211890 4.019648 -0.476495 0 0 255
-0.248781 3.939568 -0.481440 0 0 255
-0.217526 3.961550 -0.483493 0 0 255
-0.240294 3.960255 -0.483477 0 0 255
-0.238785 3.972203 -0.482495 0 0 255
-0.229169 3.954871 -0.482495 0 0 255
-0.212613 3.946193 -0.489185 0 0 255
-0.246333 3.979940 -0.477703 0 0 255
-0.269372 3.929270 -0.480495 0 0 255
-0.168957 4.008477 -0.484495 0 0 255
-0.213223 3.944278 -0.476495 0 0 255
-0.223518 3.952600 -0.476394 0 0 255
-0.174984 3.993401 -0.490495 0 0 255
-0.226925 3.926744 -0.480495 0 0 255
-0.261813 3.964828 -0.481485 0 0 255
-0.266140 3.954090 -0.476495 0 0 255
-0.227347 4.001923 -0.476495 0 0 255
-0.230805 3.966416 -0.474638 0 0 255
-0.208134 4.024982 -0.475950 0 0 255
-0.174409 4.017815 -0.478495 0 0 255
-0.210514 3.975306 -0.480495 0 0 255
-0.226740 3.961464 -0.482495 0 0 255
-0.273088 3.940645 -0.481450 0 0 255
-0.202169 3.966465 -0.491425 0 0 255
-0.241541 3.954386 -0.476472 0 0 255
-0.173029 3.992986 -0.476495 0 0 255
-0.269187 3.939816 -0.474495 0 0 255
-0.189062 3.980036 -0.475034 0 0 255
-0.244915 3.967372 -0.476071 0 0 255
-0.254404 3.961210 -0.475209 0 0 255
-0.201877 3.958223 -0.486825 0 0 255
-0.195564 4.026401 -0.475212 0 0 255
-0.215261 3.991452 -0.474495 0 0 255
-0.260519 3.942062 -0.474675 0 0 255
-0.253780 4.020372 -0.484495 0 0 255
-0.247216 3.951503 -0.482495 0 0 255
-0.203497 4.011730 -0.474495 0 0 255
-0.171503 4.004929 -0.475362 0 0 255
-0.197473 3.998180 -0.474726 0 0 255
-0.188155 4.022780 -0.491306 0 0 255
-0.178702 3.988057 -0.486495 0 0 255
-0.214664 4.003880 -0.474864 0 0 255
-0.262815 4.017828 -0.490495 0 0 255
-0.204125 3.966880 -0.481371 0 0 255
-0.185490 4.016081 -0.475262 0 0 255
-0.176662 3.999892 -0.481353 0 0 255
-0.174364 4.005537 -0.490495 0 0 255
-0.213539 3.999551 -0.481470 0 0 255
-0.223273 3.972995 -0.481490 0 0 255
-0.241371 3.935947 -0.481445 0 0 255
-0.224058 3.940447 -0.476266 0 0 255
-0.192682 3.972626 -0.474889 0 0 255
-0.242070 4.028854 -0.484495 0 0 255
-0.178912 4.008549 -0.475257 0 0 255
-0.249953 3.972532 -0.476016 0 0 255
-0.258808 3.921252 -0.479749 0 0 255
-0.259829 4.031881 -0.483385 0 0 255
-0.265223 4.025743 -0.490495 0 0 255
-0.268548 3.935591 -0.482495 0 0 255
-0.217237 3.967623 -0.480495 0 0 255
-0.179662 3.995402 -0.486495 0 0 255
-0.233641 3.991556 -0.481443 0 0 255
-0.260845 3.930905 -0.490495 0 0 255
-0.229341 3.925212 -0.475073 0 0 255
-0.229751 3.976416 -0.480495 0 0 255
-0.215318 3.668691 -0.432495 255 0 255
-0.327199 3.825377 -0.480495 255 0 255
-0.360464 3.677051 -0.478495 255 0 255
-0.300560 3.744061 -0.398704 255 0 255
-0.232291 3.762265 -0.480495 255 0 255
-0.305115 3.626438 -0.409680 255 0 255
-0.260283 3.616110 -0.480495 255 0 255
-0.356185 3.753839 -0.474495 255 0 255
-0.226960 3.738640 -0.410495 255 0 255
-0.253012 3.833085 -0.480495 255 0 255
-0.347876 3.686644 -0.406495 255 0 255
-0.268749 3.682093 -0.391374 255 0 255
-0.324306 3.622725 -0.472495 255 0 255
-0.289010 3.774321 -0.454495 255 0 255
-0.202159 3.706788 -0.481278 255 0 255
-0.250351 3.622975 -0.424495 255 0 255
-0.216168 3.646380 -0.480495 255 0 255
-0.344344 3.734964 -0.424495 255 0 255
-0.345880 3.646283 -0.434495 255 0 255
-0.263516 3.764427 -0.418495 255 0 255
-0.227005 3.695712 -0.398652 255 0 255
-0.203187 3.711573 -0.436495 255 0 255
-0.310493 3.668474 -0.393878 255 0 255
-0.289539 3.613139 -0.448495 255 0 255
-0.323252 3.781599 -0.479356 255 0 255
-0.263928 3.724007 -0.393596 255 0 255
-0.237694 3.655045 -0.399823 255 0 255
-0.359991 3.701487 -0.444495 255 0 255
-0.286838 3.808619 -0.479447 255 0 255
-0.317170 3.708743 -0.394495 255 0 255
-0.359741 3.715747 -0.481324 255 0 255
-0.225450 3.741507 -0.448495 255 0 255
-0.250916 3.794848 -0.473957 255 0 255
-0.274693 3.644507 -0.396781 255 0 255
-0.358603 3.793202 -0.478495 255 0 255
-0.223495 3.635269 -0.446495 255 0 255
-0.199906 3.675639 -0.464495 255 0 255
-0.254951 3.766245 -0.452495 255 0 255
-0.204417 3.742027 -0.476495 255 0 255
-0.304226 3.765286 -0.425592 255 0 255
-0.347883 3.646478 -0.468495 255 0 255
-0.293499 3.613745 -0.481251 255 0 255
-0.316672 3.629780 -0.440495 255 0 255
-0.330963 3.646245 -0.406495 255 0 255
-0.357902 3.670373 -0.448495 255 0 255
-0.271745 3.773810 -0.478495 255 0 255
-0.288065 3.706646 -0.391537 255 0 255
-0.250023 3.625894 -0.454495 255 0 255
-0.299661 3.834866 -0.480495 255 0 255
-0.279806 3.616969 -0.420495 255 0 255
-0.238231 3.757393 -0.428495 255 0 255
-0.206548 3.689318 -0.416495 255 0 255
-0.341718 3.713960 -0.405786 255 0 255
-0.233734 3.625578 -0.476794 255 0 255
-0.326530 3.737313 -0.403723 255 0 255
-0.224201 3.643998 -0.420495 255 0 255
-0.212278 3.721207 -0.460495 255 0 255
-0.251113 3.745819 -0.401827 255 0 255
-0.296156 3.784019 -0.479333 255 0 255
-0.214384 3.715520 -0.410495 255 0 255
-0.240870 3.717061 -0.405479 255 0 255
-0.311976 3.805784 -0.474298 255 0 255
-0.340529 3.666679 -0.420495 255 0 255
-0.207930 3.654853 -0.452495 255 0 255
-0.245817 3.679263 -0.402495 255 0 255
-0.276505 3.751411 -0.400495 255 0 255
-0.217995 3.669260 -0.406495 255 0 255
-0.208822 3.689802 -0.446495 255 0 255
-0.298169 3.649497 -0.405424 255 0 255
-0.266397 3.614119 -0.440495 255 0 255
-0.254394 3.701532 -0.392325 255 0 255
-0.335160 3.802532 -0.481468 255 0 255
-0.252049 3.635605 -0.404174 255 0 255
-0.292030 3.682952 -0.398495 255 0 255
-0.322816 3.687450 -0.403456 255 0 255
-0.213068 3.732426 -0.428495 255 0 255
-0.275979 3.830847 -0.475858 255 0 255
-0.357167 3.684528 -0.428495 255 0 255
-0.282119 3.768766 -0.432495 255 0 255
-0.345310 3.774020 -0.481459 255 0 255
-0.336297 3.633650 -0.452495 255 0 255
-0.354550 3.711304 -0.424495 255 0 255
-0.260754 3.661991 -0.401436 255 0 255
-0.240473 3.815121 -0.473941 255 0 255
-0.263656 3.811870 -0.481480 255 0 255
-0.362638 3.695916 -0.466495 255 0 255
-0.296668 3.627701 -0.430495 255 0 255
-0.303797 3.623018 -0.462495 255 0 255
-0.233901 3.759462 -0.458495 255 0 255
-0.285449 3.728580 -0.393313 255 0 255
-0.275169 3.618028 -0.464495 255 0 255
-0.285477 3.663157 -0.392495 255 0 255
-0.331303 3.666764 -0.399556 255 0 255
-0.250192 3.774249 -0.480495 255 0 255
-0.225055 3.743364 -0.470495 255 0 255
-0.356330 3.722169 -0.448495 255 0 255
-0.316123 3.753503 -0.412495 255 0 255
-0.323046 3.632294 -0.420495 255 0 255
-0.199654 3.704211 -0.460495 255 0 255
-0.210911 3.761809 -0.473799 255 0 255
-0.284811 3.635380 -0.412495 255 0 255
-0.206979 3.664874 -0.481254 255 0 255
-0.292748 3.760803 -0.408495 255 0 255
-0.273683 3.793553 -0.473761 255 0 255
-0.333004 3.639518 -0.480495 255 0 255
-0.239280 3.637962 -0.432495 255 0 255
-0.202404 3.686393 -0.481310 255 0 255
-0.304718 3.724498 -0.399435 255 0 255
-0.355582 3.735310 -0.481409 255 0 255
-0.224248 3.646052 -0.462495 255 0 255
-0.307458 3.692366 -0.392236 255 0 255
-0.211935 3.723179 -0.480495 255 0 255
-0.267199 3.631669 -0.418495 255 0 255
-0.345764 3.656446 -0.452495 255 0 255
-0.356627 3.663059 -0.466495 255 0 255
-0.213061 3.649809 -0.434495 255 0 255
-0.229787 3.740340 -0.430495 255 0 255
-0.202437 3.672087 -0.446495 255 0 255
-0.216092 3.703615 -0.424495 255 0 255
-0.262190 3.770665 -0.435764 255 0 255
-0.332489 3.747759 -0.418495 255 0 255
-0.315092 3.651050 -0.398495 255 0 255
-0.241729 3.645679 -0.415451 255 0 255
-0.363178 3.771684 -0.478495 255 0 255
-0.330932 3.649270 -0.424495 255 0 255
-0.271375 3.708215 -0.398495 255 0 255
-0.269749 3.773586 -0.460495 255 0 255
-0.353313 3.663264 -0.432495 255 0 255
-0.243289 3.744156 -0.417484 255 0 255
-0.333985 3.700048 -0.398495 255 0 255
-0.307699 3.623899 -0.480495 255 0 255
-0.208137 3.726764 -0.444495 255 0 255
-0.202046 3.682228 -0.432495 255 0 255
-0.357244 3.713171 -0.464495 255 0 255
-0.323988 3.720415 -0.405473 255 0 255
-0.258933 3.612843 -0.462495 255 0 255
-0.229538 3.659446 -0.414495 255 0 255
-0.305105 3.616868 -0.442495 255 0 255
-0.334224 3.633781 -0.434495 255 0 255
-0.240628 3.622953 -0.440495 255 0 255
-0.223216 3.684683 -0.411474 255 0 255
-0.239499 3.733127 -0.400111 255 0 255
-0.281442 3.622375 -0.436495 255 0 255
-0.235982 3.634234 -0.459484 255 0 255
-0.318609 3.630289 -0.458495 255 0 255
-0.310606 3.821850 -0.479347 255 0 255
-0.351820 3.656812 -0.481202 255 0 255
-0.356865 3.686510 -0.452495 255 0 255
-0.267303 3.736992 -0.403452 255 0 255
-0.226075 3.724139 -0.418495 255 0 255
-0.242536 3.757319 -0.444495 255 0 255
-0.341982 3.789670 -0.473596 255 0 255
-0.311570 3.644167 -0.413485 255 0 255
-0.249524 3.762923 -0.468495 255 0 255
-0.277018 3.614331 -0.481284 255 0 255
-0.308433 3.774360 -0.474289 255 0 255
-0.211987 3.737503 -0.461634 255 0 255
-0.279509 3.766146 -0.416495 255 0 255
-0.232230 3.670240 -0.398495 255 0 255
-0.291816 3.612050 -0.464495 255 0 255
-0.213512 3.658084 -0.420495 255 0 255
-0.207403 3.653262 -0.468495 255 0 255
-0.348418 3.696981 -0.420495 255 0 255
-0.249196 3.624775 -0.472495 255 0 255
-0.278408 3.694368 -0.387773 255 0 255
-0.289795 3.823560 -0.473407 255 0 255
-0.295166 3.634546 -0.400495 255 0 255
-0.228423 3.708281 -0.409474 255 0 255
-0.206427 3.691337 -0.466495 255 0 255
-0.210942 3.708654 -0.450495 255 0 255
-0.302591 3.705644 -0.399491 255 0 255
-0.267147 3.631916 -0.402495 255 0 255
-0.310732 3.623542 -0.424495 255 0 255
-0.208956 3.673472 -0.418495 255 0 255
-0.243486 3.695126 -0.401428 255 0 255
-0.339905 3.729933 -0.410495 255 0 255
-0.352488 3.724428 -0.432495 255 0 255
-0.226555 3.722197 -0.402495 255 0 255
-0.361111 3.699679 -0.481410 255 0 255
-0.297158 3.798544 -0.473983 255 0 255
-0.346925 3.737558 -0.439473 255 0 255
-0.310975 3.791258 -0.479357 255 0 255
-0.221685 3.634162 -0.472495 255 0 255
-0.217120 3.718145 -0.432495 255 0 255
-0.276051 3.772793 -0.446495 255 0 255
-0.335093 3.677793 -0.409445 255 0 255
-0.322769 3.658815 -0.409429 255 0 255
-0.214020 3.699086 -0.407428 255 0 255
-0.263054 3.646123 -0.406495 255 0 255
-0.202063 3.697621 -0.430495 255 0 255
-0.261236 3.784775 -0.479296 255 0 255
-0.262215 3.751309 -0.410495 255 0 255
-0.256310 3.625180 -0.438495 255 0 255
-0.265313 3.617977 -0.424495 255 0 255
-0.256302 3.673313 -0.392612 255 0 255
-0.294209 3.620029 -0.417648 255 0 255
-0.248500 3.758115 -0.416495 255 0 255
-0.343370 3.759295 -0.480495 255 0 255
-0.201804 3.718081 -0.470495 255 0 255
-0.351991 3.675250 -0.416706 255 0 255
-0.228168 3.646886 -0.436495 255 0 255
-0.275156 3.671186 -0.399422 255 0 255
-0.217319 3.750904 -0.481468 255 0 255
-0.240779 3.630910 -0.416495 255 0 255
-0.252306 3.759448 -0.432495 255 0 255
-0.211432 3.667865 -0.458495 255 0 255
-0.240642 3.785467 -0.480495 255 0 255
-0.297367 3.667728 -0.400495 255 0 255
-0.329527 3.636636 -0.466495 255 0 255
-0.339643 3.658313 -0.408495 255 0 255
-0.257304 3.687839 -0.399479 255 0 255
-0.252313 3.725627 -0.402495 255 0 255
-0.251094 3.649714 -0.397708 255 0 255
-0.356520 3.678258 -0.464495 255 0 255
-0.324253 3.796124 -0.474309 255 0 255
-0.229128 3.753056 -0.440495 255 0 255
-0.324839 3.812607 -0.474005 255 0 255
-0.297111 3.769909 -0.437369 255 0 255
-0.274978 3.816320 -0.473717 255 0 255
-0.338333 3.816460 -0.478495 255 0 255
-0.217275 3.736582 -0.480495 255 0 255
-0.309954 3.680628 -0.401443 255 0 255
-0.276111 3.657077 -0.403483 255 0 255
-0.285666 3.775655 -0.474410 255 0 255
-0.234707 3.707572 -0.396598 255 0 255
-0.246768 3.665153 -0.404495 255 0 255
-0.286866 3.741150 -0.401315 255 0 255
-0.287971 3.649375 -0.395172 255 0 255
-0.261160 3.823607 -0.473802 255 0 255
-0.347079 3.700787 -0.406495 255 0 255
-0.337647 3.646533 -0.446495 255 0 255
-0.312420 3.736359 -0.403381 255 0 255
-0.250377 3.807003 -0.481441 255 0 255
-0.300116 3.813486 -0.474289 255 0 255
-0.344410 3.653192 -0.422199 255 0 255
-0.249527 3.714810 -0.393833 255 0 255
-0.221041 3.651505 -0.448495 255 0 255
-0.275986 3.619187 -0.450495 255 0 255
-0.358074 3.699035 -0.430495 255 0 255
-0.259745 3.772551 -0.470495 255 0 255
-0.277111 3.623513 -0.408495 255 0 255
-0.333156 3.773480 -0.474009 255 0 255
-0.293262 3.614862 -0.434495 255 0 255
-0.348296 3.721493 -0.417562 255 0 255
-0.240060 3.620789 -0.462495 255 0 255
-0.221647 3.749779 -0.458814 255 0 255
-0.335575 3.686074 -0.398495 255 0 255
-0.347948 3.803205 -0.476495 255 0 255
-0.302790 3.656613 -0.394521 255 0 255
-0.235369 3.685221 -0.395728 255 0 255
-0.207520 3.714061 -0.422495 255 0 255
-0.229159 3.647097 -0.408172 255 0 255
-0.292835 3.717883 -0.398495 255 0 255
-0.256204 3.625677 -0.412495 255 0 255
-0.303818 3.613301 -0.472495 255 0 255
-0.200683 3.700340 -0.444495 255 0 255
-0.317977 3.633261 -0.408083 255 0 255
-0.214995 3.738142 -0.440495 255 0 255
-0.207257 3.660844 -0.440495 255 0 255
-0.319858 3.672510 -0.405484 255 0 255
-0.355506 3.712802 -0.438495 255 0 255
-0.214360 3.682799 -0.426495 255 0 255
-0.235116 3.753749 -0.470495 255 0 255
-0.285836 3.794093 -0.479414 255 0 255
-0.309783 3.662189 -0.405483 255 0 255
-0.299332 3.634406 -0.418495 255 0 255
-0.354259 3.780011 -0.473436 255 0 255
-0.291417 3.764608 -0.422495 255 0 255
-0.304469 3.754531 -0.406495 255 0 255
-0.352577 3.677420 -0.438495 255 0 255
-0.262202 3.621405 -0.450495 255 0 255
-0.236877 3.634425 -0.446495 255 0 255
-0.275892 3.720416 -0.398495 255 0 255
-0.337626 3.646633 -0.460495 255 0 255
-0.327143 3.638239 -0.444495 255 0 255
-0.294474 3.695740 -0.397361 255 0 255
-0.208484 3.681551 -0.456495 255 0 255
-0.224109 3.656247 -0.428495 255 0 255
-0.309258 3.626183 -0.450495 255 0 255
-0.308488 3.639422 -0.401773 255 0 255
-0.240145 3.826282 -0.480495 255 0 255
-0.261240 3.799088 -0.480495 255 0 255
-0.198861 3.691773 -0.454495 255 0 255
-0.278531 3.684172 -0.399482 255 0 255
-0.281101 3.633601 -0.400297 255 0 255
-0.323593 3.640589 -0.430495 255 0 255
-0.265838 3.695786 -0.391514 255 0 255
-0.221642 3.667991 -0.420495 255 0 255
-0.343701 3.646908 -0.481333 255 0 255
-0.360344 3.689294 -0.440495 255 0 255
-0.251634 3.637561 -0.417482 255 0 255
-0.224047 3.680770 -0.399397 255 0 255
-0.270428 3.760770 -0.408495 255 0 255
-0.218534 3.730715 -0.450495 255 0 255
-0.227164 3.634405 -0.432495 255 0 255
-0.232035 3.749006 -0.420495 255 0 255
-0.206722 3.730248 -0.470495 255 0 255
-0.240832 3.798840 -0.480495 255 0 255
-0.212194 3.702786 -0.436495 255 0 255
-0.341957 3.635881 -0.472495 255 0 255
-0.302129 3.678965 -0.391786 255 0 255
-0.197133 3.695496 -0.474495 255 0 255
-0.316409 3.698357 -0.401462 255 0 255
-0.207847 3.703907 -0.470495 255 0 255
-0.352237 3.654856 -0.441693 255 0 255
-0.237003 3.744864 -0.406408 255 0 255
-0.268286 3.655414 -0.393879 255 0 255
-0.316872 3.725037 -0.396304 255 0 255
-0.207362 3.677223 -0.474495 255 0 255
-0.273569 3.640179 -0.409494 255 0 255
-0.287301 3.835298 -0.479341 255 0 255
-0.257522 3.734913 -0.396110 255 0 255
-0.250775 3.819356 -0.480495 255 0 255
-0.217979 3.728553 -0.410222 255 0 255
-0.325537 3.626555 -0.448495 255 0 255
-0.360868 3.703718 -0.456495 255 0 255
-0.344864 3.669646 -0.408495 255 0 255
-0.320567 3.678794 -0.395016 255 0 255
-0.236002 3.730339 -0.411487 255 0 255
-0.341421 3.657641 -0.434495 255 0 255
-0.286179 3.619333 -0.472495 255 0 255
-0.296771 3.733032 -0.395182 255 0 255
-0.326484 3.708678 -0.403407 255 0 255
-0.223680 3.633664 -0.460495 255 0 255
-0.260139 3.712977 -0.399438 255 0 255
-0.301590 3.614161 -0.454495 255 0 255
-0.228614 3.673562 -0.410495 255 0 255
-0.269232 3.804875 -0.473280 255 0 255
-0.284522 3.675221 -0.391737 255 0 255
-0.265152 3.833683 -0.480495 255 0 255
-0.289049 3.625067 -0.407212 255 0 255
-0.352841 3.767442 -0.473904 255 0 255
-0.230218 3.637099 -0.480495 255 0 255
-0.202284 3.715818 -0.456495 255 0 255
-0.271692 3.768595 -0.426495 255 0 255
-0.242145 3.643723 -0.403062 255 0 255
-0.314899 3.618884 -0.464495 255 0 255
-0.221769 3.739582 -0.421285 255 0 255
-0.337123 3.692536 -0.408495 255 0 255
-0.346878 3.708922 -0.415375 255 0 255
-0.274325 3.732812 -0.394495 255 0 255
-0.306798 3.714717 -0.392926 255 0 255
-0.320559 3.630735 -0.480495 255 0 255
-0.334989 3.784094 -0.481431 255 0 255
-0.286644 3.645998 -0.406495 255 0 255
-0.284525 3.627109 -0.424495 255 0 255
-0.347792 3.747966 -0.480495 255 0 255
-0.229674 3.750491 -0.480495 255 0 255
-0.331303 3.666764 -0.411477 255 0 255
-0.239611 3.626827 -0.428495 255 0 255
-0.226249 3.660790 -0.403206 255 0 255
-0.251853 3.617288 -0.446495 255 0 255
-0.347131 3.674217 -0.428495 255 0 255
-0.290221 3.658031 -0.403478 255 0 255
-0.240255 3.768046 -0.473733 255 0 255
-0.202988 3.664412 -0.466495 255 0 255
-0.319981 3.662312 -0.397203 255 0 255
-0.211295 3.678060 -0.438495 255 0 255
-0.261746 3.628462 -0.428495 255 0 255
-0.313649 3.634386 -0.429482 255 0 255
-0.312235 3.833424 -0.480495 255 0 255
-0.330873 3.640092 -0.416495 255 0 255
-0.295543 3.623372 -0.444495 255 0 255
-0.269393 3.611724 -0.472495 255 0 255
-0.203775 3.670327 -0.433549 255 0 255
-0.247277 3.706155 -0.401472 255 0 255
-0.218197 3.693840 -0.418495 255 0 255
-0.251511 3.647758 -0.409454 255 0 255
-0.245831 3.761054 -0.457556 255 0 255
-0.247107 3.687716 -0.393201 255 0 255
-0.212809 3.680426 -0.408495 255 0 255
-0.277718 3.784189 -0.479355 255 0 255
-0.244565 3.670817 -0.394606 255 0 255
-0.321917 3.648411 -0.416495 255 0 255
-0.217299 3.654799 -0.459489 255 0 255
-0.333505 3.646785 -0.435483 255 0 255
-0.210748 3.690210 -0.434495 255 0 255
-0.218935 3.714443 -0.421459 255 0 255
-0.203782 3.754160 -0.478495 255 0 255
-0.352703 3.667223 -0.476495 255 0 255
-0.360691 3.689368 -0.476495 255 0 255
-0.213871 3.643847 -0.468495 255 0 255
-0.347751 3.685578 -0.420495 255 0 255
-0.281582 3.756385 -0.409431 255 0 255
-0.223896 3.758436 -0.473803 255 0 255
-0.270029 3.623069 -0.434495 255 0 255
-0.217021 3.642473 -0.454495 255 0 255
-0.318583 3.745847 -0.404391 255 0 255
-0.246692 3.737767 -0.408495 255 0 255
-0.281971 3.821897 -0.481456 255 0 255
-0.265790 3.667150 -0.391930 255 0 255
-0.290656 3.752179 -0.401450 255 0 255
-0.281734 3.611383 -0.456495 255 0 255
-0.235926 3.624884 -0.452495 255 0 255
-0.264017 3.771694 -0.448495 255 0 255
-0.250869 3.766213 -0.441970 255 0 255
-0.212714 3.724469 -0.420495 255 0 255
-0.207901 3.701874 -0.416495 255 0 255
-0.269060 3.612639 -0.456495 255 0 255
-0.334013 3.724591 -0.402495 255 0 255
-0.269402 3.823315 -0.481480 255 0 255
-0.304914 3.627378 -0.438495 255 0 255
-0.301534 3.826055 -0.473810 255 0 255
-0.329494 3.627172 -0.460495 255 0 255
-0.323344 3.627252 -0.430495 255 0 255
-0.218182 3.727602 -0.438495 255 0 255
-0.292058 3.620533 -0.456495 255 0 255
-0.248764 3.631824 -0.432495 255 0 255
-0.232821 3.750110 -0.452495 255 0 255
-0.218056 3.689720 -0.402992 255 0 255
-0.301340 3.759633 -0.416495 255 0 255
-0.240621 3.655666 -0.410495 255 0 255
-0.231831 3.635397 -0.422495 255 0 255
-0.212433 3.716168 -0.442495 255 0 255
-0.357367 3.726912 -0.474495 255 0 255
-0.347712 3.656901 -0.464495 255 0 255
-0.279456 3.612482 -0.442495 255 0 255
-0.220598 3.706617 -0.401929 255 0 255
-0.207932 3.698870 -0.454495 255 0 255
-0.232591 3.736772 -0.420495 255 0 255
-0.207015 3.722425 -0.432495 255 0 255
-0.352315 3.669185 -0.458495 255 0 255
-0.225049 3.695295 -0.409426 255 0 255
-0.214240 3.664372 -0.448495 255 0 255
-0.276305 3.614180 -0.430495 255 0 255
-0.263268 3.746358 -0.399465 255 0 255
-0.279940 3.773737 -0.464495 255 0 255
-0.245179 3.619832 -0.481397 255 0 255
-0.320218 3.805490 -0.481477 255 0 255
-0.323524 3.693736 -0.394546 255 0 255
-0.286498 3.771742 -0.443537 255 0 255
-0.235652 3.645408 -0.424495 255 0 255
-0.243535 3.723761 -0.396270 255 0 255
-0.279970 3.610065 -0.470495 255 0 255
-0.233829 3.634746 -0.470495 255 0 255
-0.279117 3.700654 -0.397434 255 0 255
-0.223848 3.729800 -0.427491 255 0 255
-0.251454 3.782696 -0.473790 255 0 255
-0.206401 3.696447 -0.480495 255 0 255
-0.221670 3.745694 -0.436495 255 0 255
-0.302794 3.618121 -0.430495 255 0 255
-0.198110 3.685480 -0.470495 255 0 255
-0.349099 3.785048 -0.481478 255 0 255
-0.232843 3.682640 -0.406495 255 0 255
-0.333178 3.657943 -0.418495 255 0 255
-0.346075 3.645367 -0.453923 255 0 255
-0.349974 3.665499 -0.442495 255 0 255
-0.235615 3.664826 -0.407407 255 0 255
-0.277887 3.802627 -0.479420 255 0 255
-0.250556 3.661869 -0.394744 255 0 255
-0.255414 3.812162 -0.473446 255 0 255
-0.334355 3.738976 -0.412577 255 0 255
-0.330817 3.656437 -0.402495 255 0 255
-0.267272 3.621699 -0.414495 255 0 255
-0.218546 3.642797 -0.440495 255 0 255
-0.263711 3.676932 -0.399461 255 0 255
-0.213907 3.656123 -0.476495 255 0 255
-0.256710 3.623300 -0.462495 255 0 255
-0.218688 3.734837 -0.469496 255 0 255
-0.332375 3.630187 -0.474495 255 0 255
-0.312539 3.620372 -0.434495 255 0 255
-0.218423 3.659128 -0.411134 255 0 255
-0.314348 3.626356 -0.472495 255 0 255
-0.258515 3.616533 -0.432495 255 0 255
-0.358729 3.711442 -0.448495 255 0 255
-0.278577 3.712808 -0.391635 255 0 255
-0.336972 3.640097 -0.426495 255 0 255
-0.252359 3.614907 -0.470495 255 0 255
-0.217415 3.658914 -0.438495 255 0 255
-0.353919 3.743134 -0.473435 255 0 255
-0.221951 3.738729 -0.458495 255 0 255
-0.287479 3.690164 -0.390930 255 0 255
-0.206951 3.732343 -0.481463 255 0 255
-0.214653 3.744203 -0.473804 255 0 255
-0.321075 3.772598 -0.474495 255 0 255
-0.208943 3.713348 -0.476495 255 0 255
-0.209903 3.659361 -0.430495 255 0 255
-0.253272 3.754907 -0.406495 255 0 255
-0.294179 3.639408 -0.410495 255 0 255
-0.200348 3.690045 -0.440495 255 0 255
-0.218594 3.677566 -0.417448 255 0 255
-0.354980 3.661180 -0.452495 255 0 255
-0.208849 3.730700 -0.454495 255 0 255
-0.264053 3.761900 -0.428495 255 0 255
-0.314622 3.716380 -0.401456 255 0 255
-0.209361 3.711388 -0.462495 255 0 255
-0.247158 3.764432 -0.480495 255 0 255
-0.337287 3.648227 -0.416495 255 0 255
-0.316661 3.620214 -0.454495 255 0 255
-0.350925 3.666844 -0.422495 255 0 255
-0.319679 3.817644 -0.481453 255 0 255
-0.340126 3.634873 -0.462495 255 0 255
-0.342644 3.767319 -0.473418 255 0 255
-0.341269 3.639111 -0.440495 255 0 255
-0.274320 3.627024 -0.424495 255 0 255
-0.221014 3.704660 -0.415487 255 0 255
-0.200637 3.681928 -0.448495 255 0 255
-0.307950 3.651577 -0.407479 255 0 255
-0.260402 3.769461 -0.460495 255 0 255
-0.235152 3.638146 -0.412021 255 0 255
-0.297431 3.710681 -0.392277 255 0 255
-0.309119 3.636462 -0.420495 255 0 255
-0.276669 3.741027 -0.403451 255 0 255
-0.302422 3.687206 -0.399455 255 0 255
-0.202688 3.713921 -0.446495 255 0 255
-0.330775 3.676875 -0.398495 255 0 255
-0.317447 3.620880 -0.480495 255 0 255
-0.262635 3.701240 -0.399463 255 0 255
-0.272540 3.770073 -0.436495 255 0 255
-0.362151 3.704405 -0.472495 255 0 255
-0.245739 3.751869 -0.424495 255 0 255
-0.337512 3.704887 -0.407445 255 0 255
-0.219994 3.643104 -0.430495 255 0 255
-0.315207 3.620404 -0.444495 255 0 255
-0.213149 3.722425 -0.470495 255 0 255
-0.267501 3.687962 -0.399456 255 0 255
-0.226991 3.642547 -0.452495 255 0 255
-0.256642 3.758286 -0.422495 255 0 255
-0.261901 3.618110 -0.470495 255 0 255
