ply
format ascii 1.0
element vertex 1264
property float x
property float y
property float z
property uchar red
property uchar green
property uchar blue
end_header
-0.930111 -0.729726 -0.095878 255 0 0
-0.957428 -0.920208 -0.090512 255 0 0
-0.922545 -0.727244 -0.079144 255 0 0
-0.946494 -0.859148 -0.088835 255 0 0
-0.991637 -0.859905 -0.077878 255 0 0
-1.012326 -0.918763 -0.094397 255 0 0
-0.943383 -0.796423 -0.086792 255 0 0
-0.985713 -0.793560 -0.088877 255 0 0
-1.005276 -0.789402 -0.088865 255 0 0
-0.988066 -0.891205 -0.078735 255 0 0
-0.918765 -0.901845 -0.096623 255 0 0
-0.979769 -0.755975 -0.078762 255 0 0
-0.953119 -0.822979 -0.088844 255 0 0
-1.044034 -0.750494 -0.086860 255 0 0
-0.947788 -0.836380 -0.088867 255 0 0
-1.041765 -0.855255 -0.078846 255 0 0
-0.970942 -0.772163 -0.088862 255 0 0
-0.972634 -0.847457 -0.079032 255 0 0
-0.920012 -0.907714 -0.079094 255 0 0
-0.940114 -0.915710 -0.090472 255 0 0
-0.985960 -0.813955 -0.088876 255 0 0
-0.948694 -0.879127 -0.079121 255 0 0
-1.054410 -0.895504 -0.088863 255 0 0
-0.910490 -0.824437 -0.085877 255 0 0
-0.921912 -0.772362 -0.079354 255 0 0
-0.953922 -0.759425 -0.088877 255 0 0
-1.009293 -0.894872 -0.079247 255 0 0
-1.020880 -0.814711 -0.078799 255 0 0
-1.014736 -0.728096 -0.079333 255 0 0
-0.921326 -0.788844 -0.078916 255 0 0
-1.025407 -0.864866 -0.088838 255 0 0
-1.026258 -0.772675 -0.079149 255 0 0
-0.970092 -0.864356 -0.077233 255 0 0
-1.046945 -0.764188 -0.086847 255 0 0
-1.003935 -0.840805 -0.078889 255 0 0
-0.991848 -0.716604 -0.086842 255 0 0
-0.910468 -0.766615 -0.083373 255 0 0
-1.005106 -0.807841 -0.078835 255 0 0
-0.933360 -0.859895 -0.087878 255 0 0
-1.038099 -0.876481 -0.088868 255 0 0
-0.933263 -0.835380 -0.088849 255 0 0
-0.964298 -0.904436 -0.088825 255 0 0
-1.051614 -0.728436 -0.078928 255 0 0
-0.916686 -0.872825 -0.095878 255 0 0
-0.915030 -0.849479 -0.095878 255 0 0
-1.053709 -0.824867 -0.079877 255 0 0
-0.971339 -0.870224 -0.088867 255 0 0
-0.975724 -0.919714 -0.083878 255 0 0
-0.962749 -0.743236 -0.078685 255 0 0
-1.004889 -0.854914 -0.079080 255 0 0
-1.045357 -0.795196 -0.078865 255 0 0
-0.920768 -0.872795 -0.078969 255 0 0
-1.044213 -0.895627 -0.079100 255 0 0
-0.934263 -0.820854 -0.088872 255 0 0
-0.992631 -0.749152 -0.078893 255 0 0
-1.018488 -0.909275 -0.078925 255 0 0
-1.024424 -0.783288 -0.086787 255 0 0
-0.978276 -0.729712 -0.086811 255 0 0
-0.941938 -0.741525 -0.079419 255 0 0
-0.937495 -0.893775 -0.079302 255 0 0
-1.035357 -0.844348 -0.078901 255 0 0
-0.990950 -0.837430 -0.088862 255 0 0
-0.941579 -0.874506 -0.088814 255 0 0
-1.042938 -0.822290 -0.086798 255 0 0
-0.969647 -0.794930 -0.079180 255 0 0
-1.030689 -0.880101 -0.079376 255 0 0
-0.914021 -0.888542 -0.081878 255 0 0
-0.998112 -0.919227 -0.081878 255 0 0
-1.029450 -0.859917 -0.077878 255 0 0
-1.009048 -0.874476 -0.088834 255 0 0
-0.985449 -0.869269 -0.088876 255 0 0
-0.957058 -0.889616 -0.088821 255 0 0
-0.923165 -0.912928 -0.089877 255 0 0
-0.958618 -0.791141 -0.088854 255 0 0
-1.029830 -0.808720 -0.088861 255 0 0
-0.943649 -0.720714 -0.088875 255 0 0
-0.918463 -0.746515 -0.079264 255 0 0
-0.986942 -0.924390 -0.085877 255 0 0
-1.004956 -0.730175 -0.086838 255 0 0
-0.973219 -0.830976 -0.078819 255 0 0
-0.980922 -0.819115 -0.078987 255 0 0
-0.934019 -0.800458 -0.078767 255 0 0
-1.015256 -0.836353 -0.088859 255 0 0
-1.037560 -0.864327 -0.088862 255 0 0
-0.921427 -0.756108 -0.091878 255 0 0
-0.927704 -0.780370 -0.087878 255 0 0
-1.009586 -0.886631 -0.088840 255 0 0
-0.997356 -0.848337 -0.088852 255 0 0
-0.992150 -0.871934 -0.078995 255 0 0
-1.039176 -0.900788 -0.088857 255 0 0
-0.954670 -0.772568 -0.087878 255 0 0
-1.003472 -0.867484 -0.077690 255 0 0
-0.983634 -0.783779 -0.079109 255 0 0
-0.973834 -0.881962 -0.088832 255 0 0
-1.003953 -0.744699 -0.078458 255 0 0
-1.006476 -0.823906 -0.079418 255 0 0
-0.923224 -0.735279 -0.087878 255 0 0
-0.947958 -0.817943 -0.079426 255 0 0
-1.051104 -0.783751 -0.086830 255 0 0
-1.014446 -0.717105 -0.083878 255 0 0
-0.955245 -0.804126 -0.088863 255 0 0
-1.047378 -0.727746 -0.089877 255 0 0
-0.923739 -0.809818 -0.087878 255 0 0
-1.048466 -0.857920 -0.088865 255 0 0
-0.983974 -0.746902 -0.086833 255 0 0
-0.937346 -0.734322 -0.087878 255 0 0
-0.964483 -0.837971 -0.087878 255 0 0
-1.006145 -0.908917 -0.095878 255 0 0
-0.923170 -0.720562 -0.091878 255 0 0
-0.910646 -0.911751 -0.085294 255 0 0
-1.013443 -0.750862 -0.086771 255 0 0
-1.033648 -0.913260 -0.087878 255 0 0
-0.991705 -0.802510 -0.079058 255 0 0
-1.010853 -0.796396 -0.078789 255 0 0
-0.928153 -0.856913 -0.077878 255 0 0
-0.923801 -0.896686 -0.079161 255 0 0
-0.990561 -0.902943 -0.079130 255 0 0
-0.969743 -0.737659 -0.086812 255 0 0
-1.017458 -0.856332 -0.086798 255 0 0
-0.943290 -0.853694 -0.079064 255 0 0
-0.977037 -0.887414 -0.079076 255 0 0
-0.936126 -0.877708 -0.079135 255 0 0
-0.930795 -0.891109 -0.088838 255 0 0
-1.051670 -0.863373 -0.078722 255 0 0
-1.027430 -0.739711 -0.078502 255 0 0
-0.985204 -0.848875 -0.088853 255 0 0
-0.948941 -0.899522 -0.088844 255 0 0
-0.995722 -0.907979 -0.088827 255 0 0
-0.940378 -0.840001 -0.079714 255 0 0
-0.988455 -0.825693 -0.088870 255 0 0
-1.033175 -0.728266 -0.078916 255 0 0
-0.959374 -0.756221 -0.078910 255 0 0
-1.024669 -0.803681 -0.078927 255 0 0
-1.001827 -0.763555 -0.086838 255 0 0
-1.048896 -0.913034 -0.087878 255 0 0
-0.948005 -0.789308 -0.079185 255 0 0
-0.954678 -0.724504 -0.078992 255 0 0
-1.006695 -0.776833 -0.086848 255 0 0
-0.963391 -0.861690 -0.086846 255 0 0
-0.947419 -0.805789 -0.079014 255 0 0
-0.953392 -0.910843 -0.079548 255 0 0
-1.018631 -0.823368 -0.088850 255 0 0
-0.971433 -0.812953 -0.078933 255 0 0
-0.966000 -0.720053 -0.086812 255 0 0
-0.924652 -0.852585 -0.087878 255 0 0
-1.028507 -0.764018 -0.086827 255 0 0
-0.919909 -0.801414 -0.079279 255 0 0
-1.045896 -0.807349 -0.086825 255 0 0
-0.943568 -0.763669 -0.087878 255 0 0
-0.985817 -0.899862 -0.088822 255 0 0
-1.032032 -0.828698 -0.078982 255 0 0
-1.027955 -0.901129 -0.087878 255 0 0
-0.979476 -0.764215 -0.086836 255 0 0
-1.042843 -0.879561 -0.079162 255 0 0
-1.050735 -0.753159 -0.078517 255 0 0
-1.053380 -0.842563 -0.079789 255 0 0
-1.042569 -0.791698 -0.088876 255 0 0
-0.912317 -0.727219 -0.083878 255 0 0
-0.949234 -0.891281 -0.079571 255 0 0
-1.057558 -0.766021 -0.083039 255 0 0
-0.923018 -0.864138 -0.086775 255 0 0
-0.934269 -0.806540 -0.087878 255 0 0
-0.931365 -0.759120 -0.087878 255 0 0
-1.022742 -0.871567 -0.079328 255 0 0
-1.049128 -0.880270 -0.088871 255 0 0
-1.020266 -0.915030 -0.087878 255 0 0
-1.041908 -0.769348 -0.078766 255 0 0
-0.980951 -0.864091 -0.077878 255 0 0
-0.995986 -0.832271 -0.079257 255 0 0
-0.972189 -0.778033 -0.078812 255 0 0
-1.020444 -0.908859 -0.096841 255 0 0
-0.970819 -0.761967 -0.079010 255 0 0
-1.018261 -0.792776 -0.086798 255 0 0
-0.963201 -0.826971 -0.087878 255 0 0
-0.999332 -0.751817 -0.086815 255 0 0
-1.058049 -0.806810 -0.086815 255 0 0
-0.914696 -0.892327 -0.091878 255 0 0
-1.004030 -0.783533 -0.078982 255 0 0
-1.053400 -0.746458 -0.092130 255 0 0
-1.005591 -0.901793 -0.087878 255 0 0
-1.042087 -0.914482 -0.079051 255 0 0
-0.961558 -0.872303 -0.079179 255 0 0
-1.037333 -0.747828 -0.079076 255 0 0
-0.914901 -0.829059 -0.095878 255 0 0
-0.910024 -0.852587 -0.085877 255 0 0
-0.973166 -0.907676 -0.095878 255 0 0
-0.918660 -0.795545 -0.094636 255 0 0
-0.925294 -0.922950 -0.086186 255 0 0
-0.981802 -0.794392 -0.079171 255 0 0
-0.948327 -0.848535 -0.088849 255 0 0
-0.938633 -0.779032 -0.087878 255 0 0
-1.009885 -0.864076 -0.087878 255 0 0
-0.947515 -0.748518 -0.086821 255 0 0
-0.975905 -0.809958 -0.087878 255 0 0
-0.936495 -0.908300 -0.096851 255 0 0
-0.963684 -0.853448 -0.079260 255 0 0
-0.936315 -0.763166 -0.079280 255 0 0
-0.961236 -0.813076 -0.088847 255 0 0
-1.010664 -0.910938 -0.086796 255 0 0
-1.024528 -0.889589 -0.088865 255 0 0
-0.934108 -0.791261 -0.087878 255 0 0
-0.914578 -0.814815 -0.089921 255 0 0
-0.992179 -0.857615 -0.087878 255 0 0
-1.046973 -0.831656 -0.088870 255 0 0
-0.924067 -0.820977 -0.086785 255 0 0
-0.910863 -0.864676 -0.086448 255 0 0
-1.044403 -0.781085 -0.079095 255 0 0
-1.000070 -0.813001 -0.086821 255 0 0
-1.034015 -0.895751 -0.079466 255 0 0
-0.932743 -0.727122 -0.078812 255 0 0
-1.013376 -0.875602 -0.079024 255 0 0
-0.998264 -0.891082 -0.079017 255 0 0
-1.037777 -0.817254 -0.078938 255 0 0
-0.988596 -0.739786 -0.079147 255 0 0
-0.985694 -0.889665 -0.088875 255 0 0
-1.052208 -0.875526 -0.079136 255 0 0
-0.985837 -0.803758 -0.088877 255 0 0
-1.047067 -0.774384 -0.086868 255 0 0
-0.943753 -0.827015 -0.088845 255 0 0
-1.008991 -0.739540 -0.086818 255 0 0
-0.994343 -0.728341 -0.086824 255 0 0
-0.948925 -0.918691 -0.095878 255 0 0
-1.008944 -0.768176 -0.078875 255 0 0
-0.999502 -0.733378 -0.078911 255 0 0
-0.949641 -0.729663 -0.086854 255 0 0
-0.974960 -0.795846 -0.087878 255 0 0
-0.933820 -0.751429 -0.079162 255 0 0
-0.929941 -0.867856 -0.077878 255 0 0
-1.026088 -0.791112 -0.078978 255 0 0
-0.981168 -0.839509 -0.079664 255 0 0
-0.963485 -0.804419 -0.079560 255 0 0
-0.931305 -0.835794 -0.079019 255 0 0
-0.984078 -0.853204 -0.079668 255 0 0
-0.933706 -0.904804 -0.079264 255 0 0
-1.035254 -0.738047 -0.086815 255 0 0
-1.022693 -0.900202 -0.079388 255 0 0
-1.001070 -0.798475 -0.079220 255 0 0
-0.968503 -0.895362 -0.078912 255 0 0
-0.926287 -0.744851 -0.086762 255 0 0
-0.950037 -0.827724 -0.079639 255 0 0
-0.930768 -0.823642 -0.079082 255 0 0
-0.930984 -0.776567 -0.079113 255 0 0
-0.972238 -0.749397 -0.078956 255 0 0
-0.978985 -0.723427 -0.078685 255 0 0
-0.990212 -0.776247 -0.078961 255 0 0
-0.961605 -0.843668 -0.078955 255 0 0
-0.966131 -0.893823 -0.088863 255 0 0
-0.985987 -0.881423 -0.079023 255 0 0
-0.987499 -0.811583 -0.078893 255 0 0
-1.013499 -0.885798 -0.079140 255 0 0
-0.950529 -0.868514 -0.088832 255 0 0
-0.917612 -0.838706 -0.079063 255 0 0
-0.952796 -0.763752 -0.079214 255 0 0
-0.957711 -0.748395 -0.086836 255 0 0
-0.960253 -0.731498 -0.086820 255 0 0
-0.980431 -0.778326 -0.086833 255 0 0
-1.021663 -0.847259 -0.088875 255 0 0
-1.057482 -0.727189 -0.086873 255 0 0
-0.967227 -0.822026 -0.079259 255 0 0
-1.058172 -0.817008 -0.086875 255 0 0
-1.052700 -0.916316 -0.078932 255 0 0
-0.999918 -0.884595 -0.087878 255 0 0
-1.038363 -0.800772 -0.086823 255 0 0
-0.914300 -0.745355 -0.089877 255 0 0
-0.978878 -0.828736 -0.087878 255 0 0
-1.025454 -0.836231 -0.078871 255 0 0
-1.016475 -0.774754 -0.078957 255 0 0
-0.923994 -0.767830 -0.087878 255 0 0
-1.013716 -0.838725 -0.079405 255 0 0
-0.964781 -0.781652 -0.088871 255 0 0
-1.021560 -0.740958 -0.086833 255 0 0
-1.045867 -0.739881 -0.086802 255 0 0
-0.961216 -0.909180 -0.096811 255 0 0
-0.941277 -0.719173 -0.079509 255 0 0
-1.051414 -0.791863 -0.093877 255 0 0
-0.990089 -0.766049 -0.079334 255 0 0
-0.981837 -0.919611 -0.093877 255 0 0
-0.926685 -0.842912 -0.088852 255 0 0
-1.037136 -0.920049 -0.093877 255 0 0
-0.996668 -0.758517 -0.079171 255 0 0
-0.964951 -0.763214 -0.086806 255 0 0
-0.914385 -0.788275 -0.089877 255 0 0
-0.915778 -0.849319 -0.078820 255 0 0
-1.046979 -0.918264 -0.095878 255 0 0
-0.914503 -0.775981 -0.091942 255 0 0
-0.934216 -0.849490 -0.078803 255 0 0
-0.915088 -0.759500 -0.078821 255 0 0
-0.947108 -0.910135 -0.086788 255 0 0
-1.033885 -0.721981 -0.086785 255 0 0
-0.973787 -0.910598 -0.086780 255 0 0
-1.024102 -0.724060 -0.078651 255 0 0
-0.956275 -0.842756 -0.087878 255 0 0
-1.036150 -0.828835 -0.087878 255 0 0
-1.057122 -0.908261 -0.087878 255 0 0
-0.916637 -0.920700 -0.090557 255 0 0
-1.002366 -0.857496 -0.087878 255 0 0
-1.045551 -0.892301 -0.087878 255 0 0
-0.950529 -0.868514 -0.078133 255 0 0
-0.956888 -0.920323 -0.079877 255 0 0
-0.933976 -0.882255 -0.087878 255 0 0
-1.035160 -0.795319 -0.079464 255 0 0
-0.991354 -0.916295 -0.087878 255 0 0
-1.052890 -0.801773 -0.079042 255 0 0
-0.922446 -0.832591 -0.087878 255 0 0
-0.952967 -0.745315 -0.079341 255 0 0
-0.910805 -0.806680 -0.085877 255 0 0
-0.973260 -0.850409 -0.087878 255 0 0
-1.054410 -0.895504 -0.079533 255 0 0
-0.940090 -0.896362 -0.087878 255 0 0
-1.045470 -0.809484 -0.095878 255 0 0
-0.996876 -0.821857 -0.087878 255 0 0
-1.011719 -0.848566 -0.079877 255 0 0
-0.957510 -0.910983 -0.087878 255 0 0
-1.057681 -0.776218 -0.086811 255 0 0
-1.029238 -0.873271 -0.087878 255 0 0
-1.032514 -0.787702 -0.087878 255 0 0
-1.038439 -0.839604 -0.088861 255 0 0
-0.996891 -0.793230 -0.087878 255 0 0
-1.010242 -0.827196 -0.087878 255 0 0
-1.021446 -0.812546 -0.087878 255 0 0
-1.001774 -0.840256 -0.087878 255 0 0
-1.057194 -0.884690 -0.087878 255 0 0
-1.009099 -0.797766 -0.087878 255 0 0
-1.004502 -0.920426 -0.089700 255 0 0
-0.955292 -0.775491 -0.079158 255 0 0
-1.050102 -0.798276 -0.087416 255 0 0
-1.055753 -0.844102 -0.088877 255 0 0
-0.924803 -0.882161 -0.088802 255 0 0
-0.956757 -0.734286 -0.078847 255 0 0
-0.921845 -0.897101 -0.088831 255 0 0
-1.053890 -0.787248 -0.078894 255 0 0
-1.030890 -0.909901 -0.095878 255 0 0
-0.928415 -0.725996 -0.086829 255 0 0
-0.967041 -0.917338 -0.087878 255 0 0
-0.923486 -0.789383 -0.087878 255 0 0
-1.048038 -0.904003 -0.087878 255 0 0
-0.999057 -0.875572 -0.087878 255 0 0
-1.035587 -0.754333 -0.085877 255 0 0
-1.013357 -0.760084 -0.087878 255 0 0
-0.955307 -0.857275 -0.087878 255 0 0
-1.057539 -0.862125 -0.086783 255 0 0
-0.916533 -0.737441 -0.093877 255 0 0
-0.922714 -0.718415 -0.081878 255 0 0
-0.956228 -0.885705 -0.079008 255 0 0
-0.956187 -0.832551 -0.087878 255 0 0
-0.920296 -0.735902 -0.078637 255 0 0
-1.036266 -0.887094 -0.078889 255 0 0
-1.027967 -0.751863 -0.078647 255 0 0
-0.940425 -0.811365 -0.079455 255 0 0
-1.010683 -0.814834 -0.079266 255 0 0
-0.981072 -0.896780 -0.079011 255 0 0
-0.943969 -0.779942 -0.079395 255 0 0
-0.994833 -0.769131 -0.086784 255 0 0
-0.999701 -0.782409 -0.086816 255 0 0
-0.987349 -0.733917 -0.086851 255 0 0
-1.034914 -0.774924 -0.078770 255 0 0
-0.964052 -0.884041 -0.088877 255 0 0
-1.018725 -0.766097 -0.078960 255 0 0
-1.015767 -0.781038 -0.086773 255 0 0
-1.044014 -0.846598 -0.078902 255 0 0
-0.975441 -0.754849 -0.086807 255 0 0
-0.964298 -0.904436 -0.079310 255 0 0
-0.985270 -0.724135 -0.086850 255 0 0
-1.015985 -0.733964 -0.086815 255 0 0
-0.941701 -0.884703 -0.079104 255 0 0
-0.941654 -0.913338 -0.079342 255 0 0
-1.038903 -0.812924 -0.086771 255 0 0
-0.975318 -0.744653 -0.086830 255 0 0
-1.020190 -0.724892 -0.086803 255 0 0
-1.052676 -0.720031 -0.093877 255 0 0
-1.046434 -0.819503 -0.079089 255 0 0
-0.911446 -0.833210 -0.084630 255 0 0
-1.022099 -0.753112 -0.086828 255 0 0
-0.951483 -0.882624 -0.086827 255 0 0
-0.915306 -0.857599 -0.091878 255 0 0
-0.918519 -0.881452 -0.079019 255 0 0
-0.916241 -0.822639 -0.079476 255 0 0
-1.030142 -0.882262 -0.087878 255 0 0
-0.975806 -0.857007 -0.077878 255 0 0
-1.008159 -0.735628 -0.079033 255 0 0
-0.915486 -0.908677 -0.091878 255 0 0
-0.939991 -0.905513 -0.088827 255 0 0
-1.040489 -0.781917 -0.086842 255 0 0
-0.915734 -0.718469 -0.095878 255 0 0
-0.996232 -0.852664 -0.079000 255 0 0
-0.915030 -0.761557 -0.089877 255 0 0
-0.939716 -0.865742 -0.087878 255 0 0
-1.044677 -0.868948 -0.086791 255 0 0
-1.046700 -0.743793 -0.079171 255 0 0
-1.018214 -0.869509 -0.087878 255 0 0
-0.961672 -0.718927 -0.079453 255 0 0
-0.914671 -0.882590 -0.089877 255 0 0
-0.967071 -0.792426 -0.087878 255 0 0
-0.923378 -0.812943 -0.095878 255 0 0
-0.975066 -0.902147 -0.087878 255 0 0
-1.039980 -0.851544 -0.087878 255 0 0
-1.039459 -0.728975 -0.086875 255 0 0
-1.026455 -0.821704 -0.079283 255 0 0
-0.926902 -0.795837 -0.079488 255 0 0
-1.009434 -0.808965 -0.086758 255 0 0
-1.053821 -0.803619 -0.093877 255 0 0
-0.990335 -0.786444 -0.086789 255 0 0
-0.915009 -0.837214 -0.091878 255 0 0
-1.022249 -0.830777 -0.086785 255 0 0
-1.013206 -0.894040 -0.086803 255 0 0
-1.028364 -0.849925 -0.078727 255 0 0
-0.968599 -0.838091 -0.079118 255 0 0
-1.052861 -0.734304 -0.087117 255 0 0
-1.011372 -0.904654 -0.079140 255 0 0
-0.974364 -0.730543 -0.078907 255 0 0
-1.046113 -0.760274 -0.078718 255 0 0
-1.015304 -0.807718 -0.079126 255 0 0
-1.021853 -0.732717 -0.079307 255 0 0
-0.978456 -0.874846 -0.088845 255 0 0
-0.985053 -0.771210 -0.086778 255 0 0
-0.982074 -0.882255 -0.086833 255 0 0
-1.030662 -0.812632 -0.078960 255 0 0
-1.020492 -0.880223 -0.078997 255 0 0
-1.022345 -0.773506 -0.086810 255 0 0
-0.941011 -0.794883 -0.078808 255 0 0
-0.932080 -0.916393 -0.087878 255 0 0
-0.915766 -0.900439 -0.079877 255 0 0
-0.970273 -0.831602 -0.087878 255 0 0
-1.027144 -0.911524 -0.078798 255 0 0
-0.974268 -0.787814 -0.078649 255 0 0
-1.047163 -0.717113 -0.086779 255 0 0
-0.970329 -0.721178 -0.079728 255 0 0
-0.944046 -0.818775 -0.086784 255 0 0
-1.006373 -0.717605 -0.086776 255 0 0
-1.051131 -0.851219 -0.078879 255 0 0
-0.992680 -0.720516 -0.079548 255 0 0
-1.035221 -0.920660 -0.081878 255 0 0
-1.024008 -0.781331 -0.078748 255 0 0
-0.949744 -0.835966 -0.078888 255 0 0
-0.956539 -0.781360 -0.086748 255 0 0
-0.953412 -0.814739 -0.086748 255 0 0
-0.946908 -0.861104 -0.077515 255 0 0
-1.015399 -0.750447 -0.078552 255 0 0
-0.923528 -0.808823 -0.078828 255 0 0
-0.988010 -0.756268 -0.079179 255 0 0
-0.963118 -0.773827 -0.086821 255 0 0
-0.969799 -0.872597 -0.079557 255 0 0
-1.019094 -0.796689 -0.079139 255 0 0
-1.043921 -0.903869 -0.079436 255 0 0
-0.928905 -0.766786 -0.078934 255 0 0
-0.951530 -0.853988 -0.078739 255 0 0
-1.051301 -0.832781 -0.079127 255 0 0
-0.994644 -0.883673 -0.078741 255 0 0
-0.997971 -0.899323 -0.078754 255 0 0
-0.941514 -0.787629 -0.087878 255 0 0
-0.939934 -0.756264 -0.087878 255 0 0
-1.004227 -0.832563 -0.079475 255 0 0
-0.927885 -0.877416 -0.079379 255 0 0
-0.956247 -0.789600 -0.079345 255 0 0
-1.035650 -0.836108 -0.079324 255 0 0
-0.956077 -0.808039 -0.079028 255 0 0
-0.983153 -0.906561 -0.079310 255 0 0
-0.923234 -0.817064 -0.079189 255 0 0
-0.921619 -0.780602 -0.079211 255 0 0
-0.929642 -0.827970 -0.088861 255 0 0
-0.950794 -0.792804 -0.086748 255 0 0
-0.971726 -0.804712 -0.079059 255 0 0
-0.971632 -0.861983 -0.088849 255 0 0
-0.962332 -0.741279 -0.086824 255 0 0
-0.936296 -0.859271 -0.078663 255 0 0
-1.020956 -0.853544 -0.079161 255 0 0
-0.923631 -0.915124 -0.079045 255 0 0
-0.951313 -0.901062 -0.079214 255 0 0
-1.038703 -0.763895 -0.086841 255 0 0
-0.969620 -0.727462 -0.086861 255 0 0
-0.983681 -0.755143 -0.086829 255 0 0
-0.991091 -0.751523 -0.086833 255 0 0
-0.994181 -0.910352 -0.079159 255 0 0
-0.957181 -0.899815 -0.088847 255 0 0
-0.945435 -0.738737 -0.086815 255 0 0
-0.936363 -0.734530 -0.078808 255 0 0
-0.949347 -0.737905 -0.078876 255 0 0
-0.995492 -0.809884 -0.079877 255 0 0
-1.011950 -0.724598 -0.086807 255 0 0
-1.051907 -0.720195 -0.079670 255 0 0
-0.921685 -0.776500 -0.095878 255 0 0
-0.996138 -0.909935 -0.096780 255 0 0
-0.914333 -0.794420 -0.079325 255 0 0
-1.052867 -0.920369 -0.089877 255 0 0
-0.949101 -0.717511 -0.081182 255 0 0
-1.043372 -0.728143 -0.079636 255 0 0
-1.041718 -0.883890 -0.088831 255 0 0
-1.018646 -0.919638 -0.079877 255 0 0
-1.004965 -0.893746 -0.086810 255 0 0
-0.963047 -0.917787 -0.095878 255 0 0
-0.936656 -0.726290 -0.086788 255 0 0
-0.947051 -0.775198 -0.086789 255 0 0
-0.926713 -0.910379 -0.096732 255 0 0
-0.921886 -0.893003 -0.095878 255 0 0
-1.052174 -0.822371 -0.087878 255 0 0
-1.030566 -0.869903 -0.077555 255 0 0
-1.051614 -0.728436 -0.096723 255 0 0
-0.970158 -0.739615 -0.078987 255 0 0
-1.041255 -0.910570 -0.088867 255 0 0
-0.978441 -0.913257 -0.079877 255 0 0
-0.981338 -0.821071 -0.086793 255 0 0
-0.989975 -0.919425 -0.096467 255 0 0
-1.043428 -0.863080 -0.079682 255 0 0
-1.049732 -0.767684 -0.079462 255 0 0
-0.938176 -0.820022 -0.078750 255 0 0
-0.920589 -0.727661 -0.087391 255 0 0
-0.950727 -0.917543 -0.087017 255 0 0
-1.045063 -0.803437 -0.079468 255 0 0
-0.987480 -0.907687 -0.086828 255 0 0
-1.016258 -0.821827 -0.079306 255 0 0
-1.002837 -0.912601 -0.089492 255 0 0
-0.988992 -0.837846 -0.079325 255 0 0
-0.937979 -0.770992 -0.079486 255 0 0
-1.044770 -0.811677 -0.079255 255 0 0
-0.944556 -0.763460 -0.079367 255 0 0
-1.006495 -0.727803 -0.079157 255 0 0
-1.002857 -0.816496 -0.079390 255 0 0
-0.959403 -0.823689 -0.079390 255 0 0
-0.972482 -0.769792 -0.079116 255 0 0
-1.026551 -0.764433 -0.079035 255 0 0
-1.044507 -0.887387 -0.079030 255 0 0
-0.958591 -0.723672 -0.086856 255 0 0
-0.980062 -0.747734 -0.079318 255 0 0
-0.923508 -0.904927 -0.088876 255 0 0
-1.036917 -0.745872 -0.086857 255 0 0
-1.047559 -0.815174 -0.086785 255 0 0
-0.982094 -0.786150 -0.086856 255 0 0
-1.039440 -0.825078 -0.078936 255 0 0
-0.979939 -0.737536 -0.086806 255 0 0
-0.922167 -0.845917 -0.095878 255 0 0
-1.031231 -0.844172 -0.087878 255 0 0
-1.006516 -0.747138 -0.085877 255 0 0
-1.026730 -0.909568 -0.088849 255 0 0
-1.008651 -0.776417 -0.079212 255 0 0
-1.049495 -0.910862 -0.096933 255 0 0
-0.991996 -0.808583 -0.087878 255 0 0
-0.933697 -0.741231 -0.086829 255 0 0
-1.017411 -0.884968 -0.086748 255 0 0
-1.031833 -0.779667 -0.086830 255 0 0
-0.998964 -0.721225 -0.086820 255 0 0
-0.980689 -0.914211 -0.087878 255 0 0
-0.979476 -0.764215 -0.078969 255 0 0
-0.967671 -0.877138 -0.087878 255 0 0
-1.052135 -0.851006 -0.087878 255 0 0
-0.961293 -0.798750 -0.087878 255 0 0
-1.005209 -0.914142 -0.079068 255 0 0
-0.934244 -0.916957 -0.096675 255 0 0
-0.922794 -0.733325 -0.095878 255 0 0
-0.930645 -0.813445 -0.086793 255 0 0
-0.922870 -0.868258 -0.095878 255 0 0
-1.057503 -0.868267 -0.081878 255 0 0
-0.999311 -0.860188 -0.077878 255 0 0
-0.914206 -0.870100 -0.081878 255 0 0
-0.935761 -0.799041 -0.087878 255 0 0
-0.939580 -0.855484 -0.087878 255 0 0
-0.968874 -0.844167 -0.087878 255 0 0
-1.006449 -0.756438 -0.086816 255 0 0
-0.939367 -0.840216 -0.087878 255 0 0
-0.915898 -0.822712 -0.091878 255 0 0
-0.926975 -0.752883 -0.087878 255 0 0
-0.915381 -0.751258 -0.094474 255 0 0
-0.923018 -0.864138 -0.079230 255 0 0
-0.963532 -0.775784 -0.078988 255 0 0
-1.033468 -0.720025 -0.079544 255 0 0
-0.978749 -0.866605 -0.086775 255 0 0
-0.993614 -0.830729 -0.086766 255 0 0
-0.990874 -0.798598 -0.086780 255 0 0
-0.963098 -0.869932 -0.086726 255 0 0
-1.044526 -0.791283 -0.096807 255 0 0
-1.021956 -0.839019 -0.086771 255 0 0
-0.947004 -0.803833 -0.086780 255 0 0
-1.024669 -0.803681 -0.086791 255 0 0
-0.985790 -0.832393 -0.086791 255 0 0
-1.021863 -0.896290 -0.086806 255 0 0
-0.983540 -0.841050 -0.086818 255 0 0
-0.921633 -0.872611 -0.089877 255 0 0
-1.023035 -0.863326 -0.079526 255 0 0
-0.914625 -0.786179 -0.080738 255 0 0
-1.057710 -0.878447 -0.083878 255 0 0
-1.057230 -0.827432 -0.085877 255 0 0
-0.938721 -0.918781 -0.083878 255 0 0
-1.034138 -0.905948 -0.086809 255 0 0
-1.038269 -0.858043 -0.084772 255 0 0
-0.914516 -0.733041 -0.087878 255 0 0
-0.947222 -0.756759 -0.086809 255 0 0
-0.915430 -0.722622 -0.078869 255 0 0
-0.921206 -0.803183 -0.089877 255 0 0
-1.050389 -0.838106 -0.087878 255 0 0
-0.915450 -0.722720 -0.089877 255 0 0
-1.021014 -0.921161 -0.091878 255 0 0
-0.969477 -0.813369 -0.086809 255 0 0
-0.985742 -0.861029 -0.088832 255 0 0
-0.956966 -0.865100 -0.087878 255 0 0
-0.992712 -0.869771 -0.087878 255 0 0
-1.051321 -0.736677 -0.078727 255 0 0
-1.030443 -0.859705 -0.086717 255 0 0
-0.993520 -0.888000 -0.088870 255 0 0
-0.969603 -0.919771 -0.079877 255 0 0
-1.008028 -0.835845 -0.087878 255 0 0
-1.000807 -0.874184 -0.078883 255 0 0
-1.036729 -0.860415 -0.077471 255 0 0
-0.916426 -0.865539 -0.093877 255 0 0
-0.914490 -0.773940 -0.081878 255 0 0
-1.035064 -0.852590 -0.079683 255 0 0
-0.920877 -0.782805 -0.089877 255 0 0
-1.058029 -0.902915 -0.083013 255 0 0
-0.981847 -0.919658 -0.079877 255 0 0
-0.997253 -0.742034 -0.079204 255 0 0
-0.926703 -0.746808 -0.079176 255 0 0
-1.042731 -0.753982 -0.079877 255 0 0
-0.921286 -0.774539 -0.087878 255 0 0
-0.967917 -0.911845 -0.093153 255 0 0
-0.943535 -0.874090 -0.078637 255 0 0
-1.046679 -0.839897 -0.079315 255 0 0
-0.920249 -0.764536 -0.079229 255 0 0
-0.944196 -0.896441 -0.078911 255 0 0
-1.001270 -0.847505 -0.079377 255 0 0
-0.978590 -0.803254 -0.087878 255 0 0
-0.950279 -0.766333 -0.087878 255 0 0
-0.988039 -0.823737 -0.079289 255 0 0
-1.005692 -0.791358 -0.079126 255 0 0
-0.990042 -0.794684 -0.079235 255 0 0
-0.947712 -0.797549 -0.079104 255 0 0
-1.047049 -0.870489 -0.078840 255 0 0
-0.962946 -0.792265 -0.078892 255 0 0
-1.001288 -0.751400 -0.078718 255 0 0
-0.952675 -0.753556 -0.079189 255 0 0
-1.033251 -0.767098 -0.078763 255 0 0
-0.998652 -0.825570 -0.079015 255 0 0
-1.041738 -0.787786 -0.079359 255 0 0
-0.950670 -0.782607 -0.078955 255 0 0
-0.973418 -0.880006 -0.078924 255 0 0
-1.013565 -0.761060 -0.079194 255 0 0
-1.022808 -0.746827 -0.078882 255 0 0
-1.001827 -0.763555 -0.078966 255 0 0
-0.983437 -0.734749 -0.078938 255 0 0
-0.997329 -0.780868 -0.078809 255 0 0
-0.963344 -0.890326 -0.079333 255 0 0
-1.015994 -0.897537 -0.079095 255 0 0
-0.964411 -0.751060 -0.079068 255 0 0
-0.922478 -0.851984 -0.079450 255 0 0
-0.940718 -0.803123 -0.079060 255 0 0
-0.975884 -0.824275 -0.079098 255 0 0
-1.032495 -0.802019 -0.079342 255 0 0
-1.049609 -0.757487 -0.086789 255 0 0
-1.021806 -0.761353 -0.086787 255 0 0
-0.956445 -0.838631 -0.079113 255 0 0
-0.972775 -0.761550 -0.086775 255 0 0
-0.969458 -0.909472 -0.079102 255 0 0
-0.958893 -0.879004 -0.078978 255 0 0
-0.989012 -0.741742 -0.086832 255 0 0
-0.995693 -0.840512 -0.079032 255 0 0
-0.927706 -0.732282 -0.079189 255 0 0
-0.914974 -0.912875 -0.079135 255 0 0
-1.001534 -0.771796 -0.086789 255 0 0
-1.004105 -0.822366 -0.088858 255 0 0
-0.928319 -0.783268 -0.079238 255 0 0
-0.921039 -0.889095 -0.089877 255 0 0
-0.971169 -0.888663 -0.088858 255 0 0
-1.013102 -0.787739 -0.086767 255 0 0
-0.940398 -0.743896 -0.086792 255 0 0
-1.052104 -0.769225 -0.086836 255 0 0
-1.008528 -0.766220 -0.086823 255 0 0
-1.057803 -0.786416 -0.086850 255 0 0
-0.921124 -0.922566 -0.095878 255 0 0
-1.030910 -0.919616 -0.089877 255 0 0
-0.912178 -0.745806 -0.083013 255 0 0
-1.038922 -0.716821 -0.086859 255 0 0
-1.054354 -0.760568 -0.079682 255 0 0
-0.910964 -0.817048 -0.083878 255 0 0
-1.030699 -0.894411 -0.087878 255 0 0
-0.909153 -0.885487 -0.086102 255 0 0
-0.941087 -0.881812 -0.087878 255 0 0
-0.985979 -0.717851 -0.083005 255 0 0
-1.014273 -0.918304 -0.085877 255 0 0
-0.943033 -0.910203 -0.093877 255 0 0
-1.049155 -0.921159 -0.083878 255 0 0
-1.009218 -0.856039 -0.086789 255 0 0
-0.930078 -0.733821 -0.086819 255 0 0
-0.967568 -0.785149 -0.079147 255 0 0
-0.958508 -0.766628 -0.087878 255 0 0
-0.962692 -0.819926 -0.087878 255 0 0
-0.915147 -0.769390 -0.087878 255 0 0
-1.014575 -0.910107 -0.093127 255 0 0
-1.024318 -0.854874 -0.087878 255 0 0
-0.936920 -0.828467 -0.087878 255 0 0
-0.921804 -0.877668 -0.095878 255 0 0
-0.916534 -0.814399 -0.096713 255 0 0
-1.044698 -0.724757 -0.095878 255 0 0
-0.980233 -0.907183 -0.087878 255 0 0
-1.057561 -0.915282 -0.087878 255 0 0
-0.921818 -0.829634 -0.094846 255 0 0
-1.028800 -0.755776 -0.086839 255 0 0
-1.028472 -0.739489 -0.085877 255 0 0
-0.997839 -0.725553 -0.079221 255 0 0
-0.963391 -0.861690 -0.077666 255 0 0
-0.914732 -0.845452 -0.089877 255 0 0
-1.033845 -0.914188 -0.079711 255 0 0
-1.052275 -0.750787 -0.086802 255 0 0
-1.005798 -0.916908 -0.095878 255 0 0
-1.009494 -0.721032 -0.079877 255 0 0
-0.913428 -0.905597 -0.083878 255 0 0
-0.987062 -0.867239 -0.077878 255 0 0
-0.922129 -0.725287 -0.096732 255 0 0
-1.057492 -0.890760 -0.084733 255 0 0
-1.055169 -0.780842 -0.081878 255 0 0
-1.052767 -0.791575 -0.086872 255 0 0
-0.992660 -0.816619 -0.086792 255 0 0
-0.991931 -0.919009 -0.079037 255 0 0
-0.978503 -0.846210 -0.086793 255 0 0
-0.932677 -0.851861 -0.086823 255 0 0
-0.940144 -0.771559 -0.087878 255 0 0
-0.952353 -0.905951 -0.087878 255 0 0
-1.006292 -0.861513 -0.079877 255 0 0
-1.030169 -0.771842 -0.086819 255 0 0
-1.050791 -0.888095 -0.088874 255 0 0
-1.013129 -0.855207 -0.079785 255 0 0
-0.968013 -0.854574 -0.086783 255 0 0
-0.931674 -0.866386 -0.086829 255 0 0
-0.941087 -0.833715 -0.086797 255 0 0
-1.013253 -0.879716 -0.087878 255 0 0
-0.914217 -0.870833 -0.089877 255 0 0
-1.028707 -0.827361 -0.087878 255 0 0
-1.023874 -0.819178 -0.087878 255 0 0
-0.990447 -0.844687 -0.087878 255 0 0
-0.921860 -0.854161 -0.093877 255 0 0
-1.020246 -0.907925 -0.087878 255 0 0
-0.928447 -0.721900 -0.095878 255 0 0
-0.914392 -0.802586 -0.089877 255 0 0
-0.975866 -0.920379 -0.090587 255 0 0
-1.020483 -0.716650 -0.086789 255 0 0
-1.056251 -0.911471 -0.081878 255 0 0
-0.915137 -0.730864 -0.079030 255 0 0
-1.004057 -0.851002 -0.086739 255 0 0
-0.938885 -0.813737 -0.086744 255 0 0
-0.928196 -0.773071 -0.088875 255 0 0
-0.922832 -0.800792 -0.095878 255 0 0
-1.004275 -0.803927 -0.086789 255 0 0
-1.006382 -0.881177 -0.086758 255 0 0
-1.014548 -0.842638 -0.086784 255 0 0
-0.959374 -0.756221 -0.086806 255 0 0
-0.990855 -0.894701 -0.086764 255 0 0
-0.954612 -0.849244 -0.086787 255 0 0
-1.014595 -0.814002 -0.086818 255 0 0
-0.961946 -0.806791 -0.086798 255 0 0
-0.942310 -0.919333 -0.095878 255 0 0
-0.970233 -0.778449 -0.086823 255 0 0
-0.948280 -0.877171 -0.088865 255 0 0
-0.984740 -0.875555 -0.086810 255 0 0
-0.949934 -0.721423 -0.086847 255 0 0
-1.017402 -0.721395 -0.079763 255 0 0
-0.920182 -0.889277 -0.079517 255 0 0
-1.057729 -0.747582 -0.084792 255 0 0
-1.044774 -0.815765 -0.093877 255 0 0
-1.047776 -0.911228 -0.079877 255 0 0
-1.046901 -0.774421 -0.079877 255 0 0
-0.917238 -0.759991 -0.095878 255 0 0
-1.050914 -0.810371 -0.091878 255 0 0
-0.923330 -0.759793 -0.086787 255 0 0
-0.911062 -0.791026 -0.083878 255 0 0
-1.047029 -0.786662 -0.091878 255 0 0
-1.054044 -0.817884 -0.081878 255 0 0
-0.926336 -0.716216 -0.086860 255 0 0
-0.913639 -0.894757 -0.083878 255 0 0
-0.961339 -0.919378 -0.084575 255 0 0
-0.945122 -0.843081 -0.086764 255 0 0
-1.041368 -0.757194 -0.086829 255 0 0
-1.031025 -0.727768 -0.085877 255 0 0
-0.932853 -0.910413 -0.091878 255 0 0
-0.920429 -0.919301 -0.083878 255 0 0
-0.950453 -0.829680 -0.086815 255 0 0
-0.940718 -0.803123 -0.088871 255 0 0
-1.032106 -0.867531 -0.086865 255 0 0
-0.918509 -0.717879 -0.086814 255 0 0
-0.921667 -0.751967 -0.096874 255 0 0
-1.049738 -0.741103 -0.091878 255 0 0
-0.996260 -0.920134 -0.089698 255 0 0
-1.002611 -0.796103 -0.086828 255 0 0
-1.005843 -0.869024 -0.086765 255 0 0
-0.927583 -0.722085 -0.079677 255 0 0
-0.936315 -0.763166 -0.086821 255 0 0
-0.934604 -0.783977 -0.086742 255 0 0
-0.991545 -0.902734 -0.087878 255 0 0
-0.911057 -0.759767 -0.083878 255 0 0
-0.953669 -0.787091 -0.087878 255 0 0
-1.052323 -0.722151 -0.086860 255 0 0
-0.915174 -0.829000 -0.079877 255 0 0
-0.914521 -0.804923 -0.079877 255 0 0
-0.916487 -0.843035 -0.096911 255 0 0
-1.038589 -0.917270 -0.086839 255 0 0
-0.974657 -0.722301 -0.086821 255 0 0
-0.978115 -0.911723 -0.093219 255 0 0
-1.056802 -0.800941 -0.084185 255 0 0
-0.949671 -0.729658 -0.079877 255 0 0
-0.997061 -0.866189 -0.077878 255 0 0
-1.018196 -0.917516 -0.096631 255 0 0
-0.941667 -0.788610 -0.079877 255 0 0
-1.028856 -0.890714 -0.079579 255 0 0
-0.953732 -0.873967 -0.078950 255 0 0
-0.933310 -0.806744 -0.079524 255 0 0
-0.991441 -0.878220 -0.079774 255 0 0
-1.035727 -0.874940 -0.079192 255 0 0
-1.010144 -0.802680 -0.079530 255 0 0
-0.936486 -0.744729 -0.078690 255 0 0
-1.049917 -0.864750 -0.087878 255 0 0
-1.048466 -0.857920 -0.079452 255 0 0
-0.945142 -0.746978 -0.078744 255 0 0
-0.914663 -0.831153 -0.089877 255 0 0
-1.036700 -0.792945 -0.086774 255 0 0
-0.914823 -0.902684 -0.089877 255 0 0
-0.978475 -0.778742 -0.079378 255 0 0
-1.043396 -0.920640 -0.079877 255 0 0
-0.975697 -0.717577 -0.079877 255 0 0
-1.041104 -0.832903 -0.086797 255 0 0
-0.932355 -0.792634 -0.078964 255 0 0
-0.935416 -0.883994 -0.079660 255 0 0
-0.996969 -0.913848 -0.091560 255 0 0
-1.028657 -0.841683 -0.079391 255 0 0
-0.935709 -0.875752 -0.086751 255 0 0
-0.976347 -0.797596 -0.078673 255 0 0
-0.980875 -0.847751 -0.079168 255 0 0
-0.974883 -0.838800 -0.078610 255 0 0
-0.943583 -0.845454 -0.079219 255 0 0
-0.928252 -0.908008 -0.078767 255 0 0
-1.009681 -0.829360 -0.078938 255 0 0
-1.032466 -0.734550 -0.078440 255 0 0
-0.991261 -0.733086 -0.079297 255 0 0
-1.004407 -0.919983 -0.081878 255 0 0
-0.925021 -0.835087 -0.079472 255 0 0
-0.915428 -0.915013 -0.087878 255 0 0
-0.984930 -0.761012 -0.088872 255 0 0
-1.009114 -0.749738 -0.078965 255 0 0
-1.030632 -0.745163 -0.078911 255 0 0
-0.947108 -0.910135 -0.078771 255 0 0
-0.986450 -0.854743 -0.086818 255 0 0
-0.969969 -0.854157 -0.078892 255 0 0
-1.009756 -0.868193 -0.078072 255 0 0
-1.007091 -0.874893 -0.079381 255 0 0
-0.965148 -0.812243 -0.079280 255 0 0
-0.915797 -0.753215 -0.079172 255 0 0
-0.998387 -0.901279 -0.086802 255 0 0
-0.950624 -0.811243 -0.079355 255 0 0
-0.943043 -0.833301 -0.079037 255 0 0
-1.013036 -0.912478 -0.079252 255 0 0
-0.976811 -0.770916 -0.086838 255 0 0
-0.932043 -0.896978 -0.079624 255 0 0
-0.937269 -0.777277 -0.078813 255 0 0
-1.027853 -0.905240 -0.079100 255 0 0
-0.956984 -0.850784 -0.079024 255 0 0
-0.967616 -0.756514 -0.078727 255 0 0
-0.954242 -0.818652 -0.079120 255 0 0
-0.985420 -0.801802 -0.078799 255 0 0
-0.934926 -0.843204 -0.079032 255 0 0
-0.975251 -0.869392 -0.078915 255 0 0
-0.925316 -0.728701 -0.091878 255 0 0
-0.985536 -0.917774 -0.085877 255 0 0
-1.021145 -0.739002 -0.078829 255 0 0
-0.915323 -0.751271 -0.087878 255 0 0
-0.966934 -0.830266 -0.079018 255 0 0
-1.049374 -0.900665 -0.079250 255 0 0
-0.974788 -0.896071 -0.079221 255 0 0
-1.027260 -0.758149 -0.078820 255 0 0
-0.958844 -0.907640 -0.079131 255 0 0
-0.933111 -0.757714 -0.079005 255 0 0
-1.006089 -0.889419 -0.079068 255 0 0
-0.979259 -0.811290 -0.079091 255 0 0
-1.045726 -0.825788 -0.078798 255 0 0
-1.035671 -0.740004 -0.078950 255 0 0
-0.963458 -0.736950 -0.078807 255 0 0
-0.922527 -0.823349 -0.079329 255 0 0
-0.942647 -0.735240 -0.078647 255 0 0
-0.989919 -0.784488 -0.079225 255 0 0
-0.915258 -0.741062 -0.079148 255 0 0
-1.025747 -0.827990 -0.079096 255 0 0
-0.926193 -0.802123 -0.079198 255 0 0
-1.046576 -0.733595 -0.086860 255 0 0
-0.991271 -0.896657 -0.079099 255 0 0
-1.019803 -0.790404 -0.079041 255 0 0
-0.949650 -0.893237 -0.088859 255 0 0
-0.967493 -0.746315 -0.086798 255 0 0
-0.920618 -0.795129 -0.078901 255 0 0
-1.031076 -0.814588 -0.086836 255 0 0
-1.004256 -0.900032 -0.078708 255 0 0
-0.938205 -0.887491 -0.088825 255 0 0
-0.969336 -0.899276 -0.088818 255 0 0
-0.993634 -0.734626 -0.086762 255 0 0
-1.043817 -0.797567 -0.086836 255 0 0
-0.932970 -0.843621 -0.088867 255 0 0
-1.005985 -0.783118 -0.086824 255 0 0
-1.005665 -0.723890 -0.086785 255 0 0
-0.943356 -0.728955 -0.086838 255 0 0
-0.996496 -0.776956 -0.086829 255 0 0
-1.041908 -0.769348 -0.086850 255 0 0
-1.002290 -0.736875 -0.086783 255 0 0
-0.962579 -0.761673 -0.079033 255 0 0
-0.950207 -0.809286 -0.086807 255 0 0
-1.049072 -0.745334 -0.086829 255 0 0
-0.977572 -0.560153 0.040123 0 0 255
-1.115727 -0.645288 -0.100868 0 0 255
-1.028374 -0.590248 0.222556 0 0 255
-0.943285 -0.655362 -0.099877 0 0 255
-0.982445 -0.489598 -0.100884 0 0 255
-1.124818 -0.539078 0.008123 0 0 255
-1.032485 -0.696160 0.012123 0 0 255
-1.069299 -0.619251 0.106122 0 0 255
-1.118705 -0.534243 -0.100874 0 0 255
-0.920480 -0.562065 -0.051877 0 0 255
-1.037448 -0.479027 0.008123 0 0 255
-0.937154 -0.651678 0.006122 0 0 255
-1.123042 -0.643734 0.008123 0 0 255
-1.025265 -0.527524 0.121096 0 0 255
-0.970725 -0.616815 0.120122 0 0 255
-1.032123 -0.694456 -0.085877 0 0 255
-0.962485 -0.501507 -0.015877 0 0 255
-1.010642 -0.631870 0.052122 0 0 255
-1.072184 -0.589115 0.034122 0 0 255
-1.131362 -0.590848 -0.047877 0 0 255
-0.980689 -0.686261 -0.037878 0 0 255
-1.081795 -0.678039 -0.037878 0 0 255
-0.916914 -0.585314 0.013915 0 0 255
-1.028038 -0.617517 0.160123 0 0 255
-0.922098 -0.625105 -0.049878 0 0 255
-1.059680 -0.535516 0.008123 0 0 255
-1.061953 -0.642406 0.007142 0 0 255
-0.935863 -0.530169 -0.100679 0 0 255
-0.976759 -0.559046 0.104123 0 0 255
-1.075254 -0.560693 0.120122 0 0 255
-0.918993 -0.595096 -0.100680 0 0 255
-0.979175 -0.608883 0.007150 0 0 255
-1.045120 -0.563216 0.174123 0 0 255
-1.019295 -0.643723 0.110123 0 0 255
-1.118300 -0.536374 -0.045878 0 0 255
-1.006412 -0.525397 0.007192 0 0 255
-0.988862 -0.664077 0.013951 0 0 255
-0.932631 -0.534206 0.014122 0 0 255
-1.127975 -0.587479 -0.100829 0 0 255
-1.135036 -0.592112 0.008123 0 0 255
-0.971601 -0.602314 0.070122 0 0 255
-1.000653 -0.575260 0.148122 0 0 255
-0.983387 -0.686418 -0.097878 0 0 255
-1.116470 -0.639160 -0.043877 0 0 255
-1.080221 -0.680255 -0.091878 0 0 255
-1.084228 -0.492498 0.008123 0 0 255
-1.032897 -0.688478 -0.035878 0 0 255
-1.058641 -0.628798 0.058123 0 0 255
-0.956892 -0.507297 -0.063878 0 0 255
-1.006360 -0.539721 0.072123 0 0 255
-1.079216 -0.685144 0.008123 0 0 255
-0.947550 -0.662109 -0.055878 0 0 255
-1.043971 -0.591022 0.128123 0 0 255
-1.019293 -0.634095 0.008123 0 0 255
-1.006517 -0.573992 0.190122 0 0 255
-0.931602 -0.529029 -0.027878 0 0 255
-1.096088 -0.610614 0.007155 0 0 255
-0.954376 -0.569172 0.007241 0 0 255
-0.991838 -0.485693 0.008123 0 0 255
-1.093832 -0.566111 0.008123 0 0 255
-0.916584 -0.593563 -0.025878 0 0 255
-1.007520 -0.602859 0.118123 0 0 255
-0.990412 -0.632895 0.086123 0 0 255
-1.126137 -0.617305 -0.075877 0 0 255
-1.127825 -0.565020 -0.019877 0 0 255
-0.941368 -0.613788 0.008123 0 0 255
-0.969120 -0.523099 0.014233 0 0 255
-1.126049 -0.561307 -0.073878 0 0 255
-1.044343 -0.598038 0.188123 0 0 255
-0.960795 -0.678221 -0.005877 0 0 255
-1.001215 -0.693342 -0.007878 0 0 255
-1.095258 -0.654801 -0.069878 0 0 255
-1.016685 -0.564106 0.117194 0 0 255
-1.127058 -0.614254 -0.019877 0 0 255
-0.922868 -0.629031 -0.085877 0 0 255
-0.921729 -0.559870 -0.011877 0 0 255
-1.001724 -0.694057 -0.065877 0 0 255
-0.927346 -0.562650 -0.087878 0 0 255
-1.098542 -0.660637 -0.011877 0 0 255
-1.056855 -0.685761 -0.061877 0 0 255
-0.923840 -0.594066 -0.065877 0 0 255
-0.931454 -0.531106 -0.065877 0 0 255
-0.979520 -0.620127 0.040123 0 0 255
-1.033041 -0.641057 0.078122 0 0 255
-1.092319 -0.525538 0.014628 0 0 255
-0.999218 -0.602579 0.172122 0 0 255
-0.985970 -0.554277 0.007128 0 0 255
-0.940521 -0.643681 -0.027878 0 0 255
-0.979784 -0.492208 -0.043877 0 0 255
-0.979921 -0.569877 0.072123 0 0 255
-1.004283 -0.540162 0.038122 0 0 255
-1.035520 -0.662338 0.014202 0 0 255
-1.036464 -0.512875 0.014812 0 0 255
-0.965976 -0.638270 0.014122 0 0 255
-1.041728 -0.624214 0.123726 0 0 255
-1.069436 -0.562177 0.052122 0 0 255
-1.052043 -0.682362 -0.009878 0 0 255
-0.978770 -0.592613 0.100123 0 0 255
-0.969481 -0.590497 0.032122 0 0 255
-0.975097 -0.676279 -0.067878 0 0 255
-1.040447 -0.632665 0.032122 0 0 255
-1.077922 -0.592480 0.122122 0 0 255
-1.094383 -0.660048 0.020122 0 0 255
-0.996044 -0.539869 0.120122 0 0 255
-1.044781 -0.552001 0.123877 0 0 255
-0.957819 -0.508410 -0.095878 0 0 255
-0.921621 -0.623163 -0.013878 0 0 255
-1.067924 -0.618646 0.026123 0 0 255
-1.121845 -0.568254 0.020122 0 0 255
-0.994777 -0.634193 0.123518 0 0 255
-0.944093 -0.507973 0.006122 0 0 255
-1.069211 -0.561121 0.023161 0 0 255
-0.997473 -0.637257 0.026123 0 0 255
-0.987046 -0.578586 0.123196 0 0 255
-0.980302 -0.489131 -0.071877 0 0 255
-0.958024 -0.676764 -0.089877 0 0 255
-1.009439 -0.602450 0.146123 0 0 255
-0.960004 -0.668166 -0.031878 0 0 255
-1.110728 -0.636127 -0.015877 0 0 255
-1.047487 -0.598454 0.156123 0 0 255
-1.054619 -0.684859 -0.100856 0 0 255
-1.045954 -0.572198 0.148122 0 0 255
-1.076989 -0.588093 0.007173 0 0 255
-1.018641 -0.563691 0.167154 0 0 255
-1.049279 -0.636921 0.100123 0 0 255
-1.124016 -0.616946 0.013368 0 0 255
-1.005959 -0.696415 -0.035878 0 0 255
-1.058398 -0.495944 0.016123 0 0 255
-0.950423 -0.512096 -0.037878 0 0 255
-1.012413 -0.677473 0.014122 0 0 255
-1.089341 -0.636585 0.007137 0 0 255
-1.016241 -0.494682 0.014624 0 0 255
-0.967542 -0.496445 0.012123 0 0 255
-1.091757 -0.657568 -0.099877 0 0 255
-0.927989 -0.560468 0.014132 0 0 255
-1.126899 -0.563171 -0.046403 0 0 255
-0.912122 -0.610868 0.007692 0 0 255
-1.008509 -0.694660 -0.099877 0 0 255
-1.022090 -0.589539 0.175219 0 0 255
-1.119772 -0.539265 -0.017878 0 0 255
-1.100549 -0.660450 -0.043877 0 0 255
-0.986260 -0.690319 0.014122 0 0 255
-1.068494 -0.615459 0.080122 0 0 255
-0.931813 -0.643487 -0.065877 0 0 255
-1.128618 -0.590497 -0.073878 0 0 255
-1.081865 -0.678368 -0.065877 0 0 255
-1.108670 -0.587493 0.008123 0 0 255
-0.979013 -0.579267 0.008123 0 0 255
-1.027530 -0.696751 -0.059878 0 0 255
-1.121465 -0.614567 -0.049878 0 0 255
-1.120104 -0.617778 -0.100874 0 0 255
-1.061074 -0.667129 0.013869 0 0 255
-0.989705 -0.619946 0.064122 0 0 255
-1.075485 -0.672245 -0.013878 0 0 255
-0.958504 -0.662350 0.014122 0 0 255
-0.995110 -0.544157 0.094122 0 0 255
-0.957211 -0.544034 0.007167 0 0 255
-1.026522 -0.696965 -0.013186 0 0 255
-1.057189 -0.682268 -0.035878 0 0 255
-0.957825 -0.595020 0.007215 0 0 255
-1.127496 -0.589626 -0.015877 0 0 255
-1.014252 -0.571904 0.214122 0 0 255
-1.061168 -0.609858 0.127629 0 0 255
-0.983422 -0.489389 -0.019877 0 0 255
-0.924833 -0.632191 0.014122 0 0 255
-1.123869 -0.558542 -0.097878 0 0 255
-1.116581 -0.645108 -0.075877 0 0 255
-1.035058 -0.640930 0.054123 0 0 255
-0.988559 -0.508745 0.013808 0 0 255
-0.988995 -0.549270 0.058123 0 0 255
-0.975909 -0.615713 0.094122 0 0 255
-0.983741 -0.678464 -0.013878 0 0 255
-1.071386 -0.513630 0.007124 0 0 255
-0.969321 -0.581767 0.054123 0 0 255
-1.031138 -0.608063 0.138122 0 0 255
-1.019296 -0.643734 0.032122 0 0 255
-1.009902 -0.641201 0.074122 0 0 255
-1.080410 -0.546472 0.007163 0 0 255
-1.028677 -0.533951 0.008123 0 0 255
-0.931165 -0.551615 -0.033877 0 0 255
-1.119760 -0.539205 -0.069878 0 0 255
-0.951653 -0.657672 -0.011877 0 0 255
-1.078146 -0.593534 0.056122 0 0 255
-0.951282 -0.655706 -0.077878 0 0 255
-0.913865 -0.580592 -0.081878 0 0 255
-1.017005 -0.623334 0.123336 0 0 255
-1.055224 -0.572273 0.119354 0 0 255
-1.009548 -0.655590 0.007176 0 0 255
-0.934978 -0.540581 -0.007878 0 0 255
-0.943564 -0.518309 -0.080472 0 0 255
-1.102762 -0.545811 0.014502 0 0 255
-0.914329 -0.583818 -0.047877 0 0 255
-0.946906 -0.519643 -0.013878 0 0 255
-0.970707 -0.594326 0.122122 0 0 255
-1.070411 -0.595624 0.101129 0 0 255
-0.925910 -0.603848 -0.043877 0 0 255
-0.939265 -0.584652 0.014279 0 0 255
-0.987662 -0.629571 0.007234 0 0 255
-1.053494 -0.689187 0.014355 0 0 255
-1.041646 -0.633446 0.008123 0 0 255
-0.999080 -0.580117 0.170123 0 0 255
-0.924685 -0.597975 -0.005877 0 0 255
-1.053589 -0.583817 0.174123 0 0 255
-1.003941 -0.629204 0.104123 0 0 255
-0.922431 -0.572793 -0.029877 0 0 255
-1.017524 -0.563929 0.140122 0 0 255
-0.927480 -0.615783 -0.068879 0 0 255
-1.024879 -0.593036 0.196609 0 0 255
-1.041898 -0.601686 0.210122 0 0 255
-0.962882 -0.679821 -0.049878 0 0 255
-1.129054 -0.572937 0.000122 0 0 255
-1.106802 -0.670630 0.006122 0 0 255
-0.924407 -0.551007 -0.069878 0 0 255
-1.018424 -0.610765 0.177971 0 0 255
-1.052293 -0.630147 0.080122 0 0 255
-0.987680 -0.533468 0.013529 0 0 255
-0.913711 -0.579861 -0.009878 0 0 255
-0.978385 -0.600873 0.050122 0 0 255
-1.112092 -0.522367 0.008123 0 0 255
-0.995459 -0.560440 0.117185 0 0 255
-1.030160 -0.608270 0.117160 0 0 255
-1.075279 -0.608903 0.009345 0 0 255
-1.078974 -0.655146 0.007181 0 0 255
-0.967880 -0.680804 0.013928 0 0 255
-1.061414 -0.630253 0.121817 0 0 255
-0.989788 -0.610718 0.125190 0 0 255
-0.928034 -0.613621 -0.099877 0 0 255
-1.108489 -0.630470 0.014462 0 0 255
-1.062246 -0.682261 -0.081878 0 0 255
-0.969440 -0.582328 0.084767 0 0 255
-0.945748 -0.634392 0.013774 0 0 255
-1.111175 -0.652726 -0.027878 0 0 255
-1.071193 -0.613861 0.052122 0 0 255
-1.012593 -0.698766 0.008123 0 0 255
-0.995918 -0.683022 -0.081878 0 0 255
-1.004200 -0.587208 0.132123 0 0 255
-0.960443 -0.616955 0.013892 0 0 255
-1.114573 -0.630239 -0.061877 0 0 255
-0.929795 -0.641871 -0.009878 0 0 255
-0.939131 -0.526309 -0.047877 0 0 255
-0.931345 -0.643587 -0.045734 0 0 255
-1.043545 -0.531816 0.114123 0 0 255
-0.991596 -0.551893 0.028122 0 0 255
-0.938145 -0.642142 -0.085877 0 0 255
-0.991589 -0.681899 -0.053878 0 0 255
-1.018470 -0.635292 0.092122 0 0 255
-0.927269 -0.603559 0.018122 0 0 255
-0.934984 -0.540579 -0.083878 0 0 255
-0.918544 -0.605413 -0.083878 0 0 255
-1.060801 -0.622205 0.008123 0 0 255
-0.967858 -0.502922 -0.079877 0 0 255
-1.111643 -0.652291 -0.057877 0 0 255
-0.955827 -0.673142 -0.069878 0 0 255
-1.042835 -0.611710 0.174123 0 0 255
-0.992204 -0.634741 0.046122 0 0 255
-1.107172 -0.657331 -0.087878 0 0 255
-1.025512 -0.547918 0.123649 0 0 255
-0.990071 -0.554329 0.078122 0 0 255
-1.123075 -0.554806 -0.003878 0 0 255
-1.097729 -0.508031 0.008123 0 0 255
-1.122550 -0.604990 -0.001877 0 0 255
-0.984351 -0.626185 0.108122 0 0 255
-0.928864 -0.627757 -0.031878 0 0 255
-1.037390 -0.642282 0.118123 0 0 255
-0.933878 -0.544904 -0.051877 0 0 255
-1.130764 -0.603244 -0.089877 0 0 255
-1.104405 -0.649740 0.007163 0 0 255
-0.949884 -0.525144 0.014122 0 0 255
-0.924402 -0.572452 -0.067878 0 0 255
-0.971453 -0.577811 0.110123 0 0 255
-1.061973 -0.546302 0.117202 0 0 255
-1.014520 -0.699516 -0.079877 0 0 255
-1.122710 -0.625402 -0.003878 0 0 255
-0.976161 -0.564542 0.020122 0 0 255
-0.919008 -0.575929 -0.099877 0 0 255
-0.979639 -0.606740 0.026123 0 0 255
-1.124402 -0.599522 -0.031878 0 0 255
-1.092214 -0.669337 -0.081878 0 0 255
-0.911212 -0.568115 0.008123 0 0 255
-0.966918 -0.503121 -0.034882 0 0 255
-0.977436 -0.562226 0.123311 0 0 255
-1.059382 -0.591835 0.117142 0 0 255
-1.129695 -0.576333 -0.059878 0 0 255
-1.084764 -0.663150 -0.053878 0 0 255
-0.981206 -0.647302 0.007208 0 0 255
-0.927191 -0.609710 -0.025878 0 0 255
-1.114584 -0.630292 -0.087878 0 0 255
-0.996601 -0.592912 0.156123 0 0 255
-1.005409 -0.539923 0.019149 0 0 255
-1.121511 -0.552049 -0.031878 0 0 255
-1.116139 -0.622710 -0.033877 0 0 255
-1.127239 -0.577412 -0.033877 0 0 255
-1.126609 -0.575501 -0.085877 0 0 255
-0.943919 -0.659316 -0.037878 0 0 255
-0.998293 -0.684563 -0.023878 0 0 255
-1.070015 -0.675452 -0.051877 0 0 255
-1.044051 -0.692860 -0.049878 0 0 255
-1.094074 -0.668468 -0.027878 0 0 255
-0.976393 -0.494974 -0.003878 0 0 255
-0.929823 -0.549855 -0.100735 0 0 255
-1.056505 -0.626400 0.040123 0 0 255
-1.054183 -0.517288 0.014122 0 0 255
-1.048042 -0.692390 -0.076460 0 0 255
-1.039262 -0.679944 0.007196 0 0 255
-1.087310 -0.669732 0.000122 0 0 255
-1.071409 -0.686898 -0.023878 0 0 255
-1.019983 -0.512289 0.007159 0 0 255
-1.045965 -0.692245 -0.023878 0 0 255
-1.036077 -0.578387 0.177948 0 0 255
-1.076183 -0.569863 0.008123 0 0 255
-1.083678 -0.615297 0.116122 0 0 255
-0.968158 -0.682106 -0.021878 0 0 255
-1.042264 -0.497330 0.008123 0 0 255
-1.129466 -0.604106 -0.061877 0 0 255
-1.010719 -0.612996 0.162122 0 0 255
-0.929682 -0.635762 -0.100748 0 0 255
-1.012949 -0.690822 -0.051877 0 0 255
-1.123847 -0.545418 -0.085877 0 0 255
-1.092223 -0.582809 0.014302 0 0 255
-0.969667 -0.496823 -0.057877 0 0 255
-0.940021 -0.549732 0.007190 0 0 255
-0.975094 -0.676261 -0.085877 0 0 255
-1.075301 -0.578228 0.048122 0 0 255
-1.073983 -0.631670 0.014655 0 0 255
-1.036597 -0.686645 -0.100861 0 0 255
-0.995269 -0.636504 0.064122 0 0 255
-0.980834 -0.568590 0.090123 0 0 255
-1.112952 -0.651474 -0.007878 0 0 255
-1.055435 -0.630984 0.022123 0 0 255
-1.111063 -0.605387 0.014122 0 0 255
-1.075128 -0.531238 0.014596 0 0 255
-1.050308 -0.653060 0.014122 0 0 255
-0.973483 -0.544664 0.014122 0 0 255
-0.988418 -0.594652 0.117144 0 0 255
-0.976991 -0.617527 0.076123 0 0 255
-0.988871 -0.621136 0.024122 0 0 255
-1.005486 -0.578755 0.117181 0 0 255
-1.004210 -0.505418 0.007203 0 0 255
-0.936867 -0.525276 0.000122 0 0 255
-1.121287 -0.550052 -0.055878 0 0 255
-1.110001 -0.560629 0.009331 0 0 255
-1.052527 -0.621918 0.108122 0 0 255
-1.000354 -0.641187 0.007212 0 0 255
-0.926184 -0.619309 0.002123 0 0 255
-1.048183 -0.606483 0.117127 0 0 255
-1.030236 -0.647103 0.007168 0 0 255
-1.006321 -0.539729 0.106122 0 0 255
-0.975895 -0.564599 0.056473 0 0 255
-0.979361 -0.576129 0.032122 0 0 255
-1.046742 -0.638184 0.066122 0 0 255
-0.946132 -0.520772 -0.063878 0 0 255
-1.063778 -0.679852 0.002123 0 0 255
-1.019361 -0.644033 0.060122 0 0 255
-1.031451 -0.633574 0.104123 0 0 255
-0.976948 -0.684989 0.000122 0 0 255
-0.957968 -0.509113 0.017824 0 0 255
-0.985869 -0.689249 -0.069878 0 0 255
-0.978759 -0.606927 0.108998 0 0 255
-1.040174 -0.693860 -0.003878 0 0 255
-1.047462 -0.603088 0.140122 0 0 255
-0.977516 -0.586745 0.070122 0 0 255
-1.058661 -0.482629 0.006122 0 0 255
-1.072537 -0.576771 0.123308 0 0 255
-1.006349 -0.611675 0.132123 0 0 255
-0.996100 -0.678895 0.007214 0 0 255
-1.044195 -0.568482 0.131118 0 0 255
-1.040316 -0.684904 -0.063878 0 0 255
