ply
format ascii 1.0
element vertex 1233
property float x
property float y
property float z
property uchar red
property uchar green
property uchar blue
end_header
-0.295254 0.445713 0.071678 0 255 0
-0.266965 0.492104 0.125677 0 255 0
-0.261995 0.472133 0.107095 0 255 0
-0.301577 0.500827 0.187678 0 255 0
-0.293135 0.482240 0.245677 0 255 0
-0.284357 0.498007 0.327677 0 255 0
-0.265657 0.492675 0.161677 0 255 0
-0.347977 0.448646 0.057678 0 255 0
-0.313726 0.531563 0.170370 0 255 0
-0.290114 0.468622 0.245677 0 255 0
-0.326514 0.502219 0.217677 0 255 0
-0.288462 0.491095 0.301087 0 255 0
-0.305771 0.507993 0.247677 0 255 0
-0.302918 0.512148 0.297678 0 255 0
-0.292971 0.466716 0.189677 0 255 0
-0.299308 0.493945 0.203678 0 255 0
-0.340869 0.525410 0.165678 0 255 0
-0.295159 0.457804 0.159678 0 255 0
-0.359809 0.478022 0.065677 0 255 0
-0.308741 0.494930 0.245677 0 255 0
-0.282770 0.446512 0.284647 0 255 0
-0.351396 0.467480 0.089678 0 255 0
-0.361957 0.487851 0.043678 0 255 0
-0.340538 0.497724 0.164344 0 255 0
-0.304339 0.441122 -0.010323 0 255 0
-0.309246 0.498580 0.325228 0 255 0
-0.321740 0.522060 0.161677 0 255 0
-0.330326 0.503996 0.229677 0 255 0
-0.336279 0.450071 -0.016322 0 255 0
-0.334451 0.439792 0.057678 0 255 0
-0.336123 0.519939 0.171677 0 255 0
-0.319617 0.438479 0.119677 0 255 0
-0.359600 0.469098 0.019677 0 255 0
-0.270067 0.456036 0.055677 0 255 0
-0.358934 0.504095 0.105677 0 255 0
-0.344070 0.453029 -0.006323 0 255 0
-0.335471 0.477707 0.287678 0 255 0
-0.282041 0.504861 0.169677 0 255 0
-0.262876 0.463716 0.083677 0 255 0
-0.360706 0.480647 0.111677 0 255 0
-0.335852 0.507775 0.397678 0 255 0
-0.335712 0.517541 0.164847 0 255 0
-0.331095 0.482287 0.193678 0 255 0
-0.290661 0.476913 0.191677 0 255 0
-0.324827 0.484094 0.273677 0 255 0
-0.265891 0.473245 0.145677 0 255 0
-0.334334 0.487367 0.199677 0 255 0
-0.317214 0.467293 0.189677 0 255 0
-0.322153 0.437773 0.107677 0 255 0
-0.344756 0.455555 -0.013361 0 255 0
-0.288041 0.446763 0.041677 0 255 0
-0.297855 0.444719 0.059677 0 255 0
-0.320254 0.446577 0.167678 0 255 0
-0.339091 0.474982 -0.048322 0 255 0
-0.311393 0.457653 -0.060323 0 255 0
-0.287544 0.507260 0.159678 0 255 0
-0.349507 0.450096 0.063677 0 255 0
-0.294011 0.464995 -0.055328 0 255 0
-0.298453 0.446006 0.091677 0 255 0
-0.255905 0.478120 0.075678 0 255 0
-0.315162 0.485892 0.358323 0 255 0
-0.323168 0.435594 0.053677 0 255 0
-0.318610 0.494119 0.413677 0 255 0
-0.256423 0.478361 0.061678 0 255 0
-0.296857 0.492020 0.185678 0 255 0
-0.268542 0.500685 0.135678 0 255 0
-0.317181 0.443703 0.069677 0 255 0
-0.294914 0.480863 0.235677 0 255 0
-0.314029 0.434607 0.075678 0 255 0
-0.295326 0.414852 -0.055647 0 255 0
-0.344932 0.495359 0.155677 0 255 0
-0.316387 0.468808 0.263677 0 255 0
-0.335496 0.447016 0.145677 0 255 0
-0.327606 0.482867 0.293170 0 255 0
-0.304104 0.490676 0.171677 0 255 0
-0.283018 0.457661 0.117678 0 255 0
-0.318020 0.485017 0.267678 0 255 0
-0.327435 0.459573 -0.040322 0 255 0
-0.359818 0.482440 0.069677 0 255 0
-0.325975 0.493140 0.345677 0 255 0
-0.318678 0.485324 0.249678 0 255 0
-0.258737 0.483853 0.101498 0 255 0
-0.310091 0.496766 0.286631 0 255 0
-0.332199 0.487215 0.304693 0 255 0
-0.300388 0.451320 -0.022323 0 255 0
-0.284928 0.508135 0.363678 0 255 0
-0.358617 0.487350 0.007677 0 255 0
-0.256577 0.496087 0.051677 0 255 0
-0.265179 0.502306 0.147678 0 255 0
-0.317377 0.473683 0.205678 0 255 0
-0.353030 0.483688 0.345677 0 255 0
-0.326942 0.489025 0.209677 0 255 0
-0.265510 0.471565 0.047678 0 255 0
-0.297418 0.504098 0.253677 0 255 0
-0.313288 0.454123 0.171677 0 255 0
-0.315579 0.505946 0.337677 0 255 0
-0.350068 0.451413 0.083677 0 255 0
-0.291891 0.452972 0.113678 0 255 0
-0.315465 0.485241 0.187678 0 255 0
-0.263457 0.503709 0.091677 0 255 0
-0.297661 0.442970 0.147678 0 255 0
-0.304785 0.531808 0.164683 0 255 0
-0.338917 0.487004 -0.062322 0 255 0
-0.281745 0.443978 0.275677 0 255 0
-0.360781 0.501639 0.097677 0 255 0
-0.323390 0.525036 0.154678 0 255 0
-0.294378 0.478406 0.187268 0 255 0
-0.296605 0.445236 0.033678 0 255 0
-0.347374 0.459405 0.147678 0 255 0
-0.289232 0.453938 0.125677 0 255 0
-0.346510 0.487269 0.325678 0 255 0
-0.280111 0.447479 0.113995 0 255 0
-0.360622 0.473987 0.011678 0 255 0
-0.310479 0.500666 0.299677 0 255 0
-0.348817 0.489435 0.335678 0 255 0
-0.310404 0.507946 0.329677 0 255 0
-0.351724 0.464273 -0.012322 0 255 0
-0.291712 0.490403 0.255677 0 255 0
-0.355704 0.479401 0.103678 0 255 0
-0.353194 0.468317 0.071678 0 255 0
-0.272578 0.428519 0.299677 0 255 0
-0.313401 0.480202 0.241678 0 255 0
-0.333204 0.492097 0.251678 0 255 0
-0.292781 0.457801 -0.050323 0 255 0
-0.255355 0.491104 0.048688 0 255 0
-0.361438 0.469955 0.043678 0 255 0
-0.322535 0.493742 0.382578 0 255 0
-0.307266 0.488626 0.291677 0 255 0
-0.333200 0.492095 0.189677 0 255 0
-0.347345 0.450001 0.101677 0 255 0
-0.329758 0.499318 0.173677 0 255 0
-0.355450 0.475211 0.151677 0 255 0
-0.282185 0.446239 0.107677 0 255 0
-0.330142 0.477429 -0.067375 0 255 0
-0.281473 0.452528 0.149678 0 255 0
-0.262204 0.481149 0.137677 0 255 0
-0.288129 0.491806 0.335678 0 255 0
-0.338055 0.450996 0.151677 0 255 0
-0.289530 0.438630 0.049677 0 255 0
-0.314563 0.482444 0.207677 0 255 0
-0.328676 0.513699 0.149678 0 255 0
-0.141359 0.035175 0.005677 255 125 0
-0.130179 -0.011837 -0.074323 255 125 0
-0.167069 0.024031 -0.046323 255 125 0
-0.139456 -0.017533 -0.018139 255 125 0
-0.114699 0.026093 -0.041088 255 125 0
-0.113122 0.001083 0.012223 255 125 0
-0.164667 -0.000613 0.013677 255 125 0
-0.168992 -0.000422 -0.074323 255 125 0
-0.117549 -0.007887 -0.042323 255 125 0
-0.166199 0.021420 -0.012322 255 125 0
-0.153295 -0.014083 -0.048322 255 125 0
-0.114455 0.017152 -0.073287 255 125 0
-0.115150 0.025127 -0.008323 255 125 0
-0.138611 -0.015720 0.013479 255 125 0
-0.160938 0.031047 -0.074323 255 125 0
-0.164203 -0.004351 -0.024323 255 125 0
-0.115657 -0.004355 -0.014513 255 125 0
-0.119170 0.025970 0.018301 255 125 0
-0.139815 0.010093 0.013677 255 125 0
-0.163788 0.024935 0.013677 255 125 0
-0.156360 -0.011191 -0.004323 255 125 0
-0.151630 -0.014062 -0.070323 255 125 0
-0.162067 0.004963 -0.054323 255 125 0
-0.114356 -0.001565 -0.062322 255 125 0
-0.110699 0.008780 -0.030322 255 125 0
-0.133257 -0.016010 -0.054323 255 125 0
-0.137468 -0.008537 -0.036323 255 125 0
-0.123118 -0.011910 0.001678 255 125 0
-0.168707 0.013761 -0.030322 255 125 0
-0.166802 0.004275 -0.004323 255 125 0
-0.123644 0.040038 0.007677 255 125 0
-0.116861 0.009446 -0.048322 255 125 0
-0.124681 0.014152 0.005677 255 125 0
-0.167745 0.016449 -0.066323 255 125 0
-0.114297 0.026956 -0.058322 255 125 0
-0.139281 -0.007692 -0.002322 255 125 0
-0.111125 0.008978 -0.004323 255 125 0
-0.128224 -0.002909 0.019045 255 125 0
-0.145993 0.025237 0.018600 255 125 0
-0.151526 -0.015022 -0.030322 255 125 0
-0.157547 0.038321 0.005677 255 125 0
-0.154723 0.013860 0.005677 255 125 0
-0.157433 0.000705 -0.038323 255 125 0
-0.124650 -0.002370 -0.028323 255 125 0
-0.117262 0.022873 -0.024323 255 125 0
-0.148763 -0.004366 0.018678 255 125 0
-0.132826 0.034545 0.018342 255 125 0
-0.109985 0.017274 0.008224 255 125 0
-0.150526 -0.005750 -0.018323 255 125 0
-0.126697 -0.013835 -0.012322 255 125 0
-0.163068 0.028786 -0.060323 255 125 0
-0.161207 -0.007390 -0.061435 255 125 0
-0.159038 0.011460 0.019073 255 125 0
-0.161643 0.008260 -0.018323 255 125 0
-0.143752 -0.007816 -0.060323 255 125 0
-0.168526 0.015884 0.003677 255 125 0
-0.141400 0.020889 0.004759 255 125 0
-0.156625 -0.011734 0.009677 255 125 0
-0.122307 0.009779 0.018948 255 125 0
-0.125463 -0.004196 -0.054323 255 125 0
-0.110999 0.013333 -0.060323 255 125 0
-0.147112 0.001485 0.005677 255 125 0
-0.130525 0.001621 0.005677 255 125 0
-0.120698 -0.000968 -0.074323 255 125 0
-0.115297 0.029546 0.005677 255 125 0
-0.116887 0.009459 -0.018323 255 125 0
-0.132460 0.021134 0.018332 255 125 0
-0.164579 0.027973 -0.000323 255 125 0
-0.129342 -0.014773 -0.026322 255 125 0
-0.168419 0.007007 -0.042323 255 125 0
-0.129078 0.028384 0.004694 255 125 0
-0.160074 0.032898 -0.014323 255 125 0
-0.163462 0.025633 -0.028323 255 125 0
-0.149265 0.037797 0.015678 255 125 0
-0.156490 -0.002006 -0.072322 255 125 0
-0.139570 -0.017777 -0.068323 255 125 0
-0.153152 0.026370 0.005677 255 125 0
-0.121075 0.000378 -0.002322 255 125 0
-0.141475 -0.017131 -0.044322 255 125 0
-0.146029 -0.016674 0.003677 255 125 0
-0.162659 -0.005768 -0.048322 255 125 0
-0.123252 -0.011179 -0.064323 255 125 0
-0.127785 -0.014148 -0.042323 255 125 0
-0.164044 -0.004008 -0.012322 255 125 0
-0.168206 0.015460 -0.054323 255 125 0
-0.111109 0.005397 -0.072322 255 125 0
-0.119424 0.004021 -0.038323 255 125 0
-0.152816 -0.003592 -0.054323 255 125 0
-0.145629 -0.016573 -0.008323 255 125 0
-0.110483 0.015299 -0.040322 255 125 0
-0.126167 -0.012696 0.013216 255 125 0
-0.148713 -0.006596 -0.040322 255 125 0
-0.161640 0.008260 -0.072322 255 125 0
-0.138977 -0.002308 0.012758 255 125 0
-0.156950 -0.000548 -0.000323 255 125 0
-0.134859 -0.017139 0.001678 255 125 0
-0.139785 0.043282 0.013677 255 125 0
-0.113730 -0.003047 -0.026322 255 125 0
-0.110952 0.019933 -0.050323 255 125 0
-0.134816 -0.007580 -0.016322 255 125 0
-0.141957 -0.008698 -0.026322 255 125 0
-0.139278 -0.007685 -0.050323 255 125 0
-0.118447 0.032253 -0.049308 255 125 0
-0.159860 -0.009233 -0.034323 255 125 0
-0.167447 0.002891 -0.032323 255 125 0
-0.167226 0.003367 -0.064323 255 125 0
-0.149425 0.006977 0.017677 255 125 0
-0.111637 0.018463 -0.016322 255 125 0
-0.152827 -0.003617 -0.028323 255 125 0
-0.115143 -0.004595 -0.052323 255 125 0
-0.163631 0.015808 -0.039375 255 125 0
-0.168445 0.009227 0.011678 255 125 0
-0.134290 -0.008907 -0.064323 255 125 0
-0.141462 -0.017103 -0.032323 255 125 0
-0.143760 -0.007833 -0.072322 255 125 0
-0.143471 -0.016677 -0.054323 255 125 0
-0.147380 -0.006131 -0.008323 255 125 0
-0.125446 -0.004205 -0.018323 255 125 0
-0.153037 -0.013530 -0.060323 255 125 0
-0.158233 0.033152 0.015678 255 125 0
-0.112878 0.011068 0.015678 255 125 0
-0.163625 0.013598 -0.006323 255 125 0
-0.115240 0.017517 -0.000323 255 125 0
-0.154812 0.020523 0.018550 255 125 0
-0.149639 -0.015708 -0.018323 255 125 0
-0.118459 -0.007463 0.009677 255 125 0
-0.155733 0.004349 0.009677 255 125 0
-0.127256 -0.005567 -0.037301 255 125 0
-0.126854 -0.004705 -0.008323 255 125 0
-0.133016 -0.008456 0.005677 255 125 0
-0.117742 0.007650 0.003677 255 125 0
-0.148519 -0.013307 0.015005 255 125 0
-0.163753 0.018072 -0.022323 255 125 0
-0.119409 0.004014 -0.056323 255 125 0
-0.130388 0.009134 0.011678 255 125 0
-0.166768 -0.000383 0.004335 255 125 0
-0.146700 0.016740 0.013677 255 125 0
-0.150077 -0.007183 0.001678 255 125 0
-0.136084 -0.016898 -0.008323 255 125 0
-0.157185 -0.011472 -0.014323 255 125 0
-0.118682 0.034569 0.013677 255 125 0
-0.113284 0.019666 -0.032323 255 125 0
-0.115129 0.025172 -0.068323 255 125 0
-0.118918 0.019232 0.011678 255 125 0
-0.118512 0.005802 -0.066323 255 125 0
-0.156981 0.001673 0.018811 255 125 0
-0.122710 -0.012100 -0.050323 255 125 0
-0.150518 -0.005754 -0.066323 255 125 0
-0.110209 0.006344 -0.054323 255 125 0
-0.165579 0.023336 -0.072322 255 125 0
-0.130293 0.042191 0.013677 255 125 0
-0.110984 0.005666 -0.042323 255 125 0
-0.122972 -0.011978 -0.032323 255 125 0
-0.117052 0.013948 -0.010323 255 125 0
-0.162542 0.008679 0.004716 255 125 0
-0.160231 0.004167 -0.026322 255 125 0
-0.156014 -0.000985 -0.009301 255 125 0
-0.137295 0.024960 0.011678 255 125 0
-0.157420 0.000733 -0.062322 255 125 0
-0.111758 0.000447 -0.034323 255 125 0
-0.135230 -0.008469 0.018799 255 125 0
-0.119448 0.004032 -0.010323 255 125 0
-0.118599 0.005843 -0.026322 255 125 0
-0.121135 0.000406 -0.046323 255 125 0
-0.141767 0.034301 0.019019 255 125 0
-0.163489 0.025576 -0.038323 255 125 0
-0.120076 -0.008915 -0.024323 255 125 0
-0.132618 -0.016307 -0.034323 255 125 0
-0.158453 -0.010949 -0.024323 255 125 0
-0.119845 -0.000197 0.017677 255 125 0
-0.169300 0.009625 -0.022323 255 125 0
-0.147689 -0.016258 -0.038323 255 125 0
-0.168616 0.007098 -0.012322 255 125 0
-0.111620 0.002588 -0.018323 255 125 0
-0.157424 0.000722 -0.018323 255 125 0
-0.122185 0.005309 0.011478 255 125 0
-0.110831 0.015461 -0.024927 255 125 0
-0.123348 -0.001919 -0.062322 255 125 0
-0.165871 0.016853 0.015678 255 125 0
-0.161494 -0.008005 0.003677 255 125 0
-0.122795 0.027661 0.010706 255 125 0
-0.134328 0.002929 0.017677 255 125 0
-0.163055 0.030987 0.007677 255 125 0
-0.118392 -0.007494 -0.004323 255 125 0
-0.134440 0.016886 0.007677 255 125 0
-0.114788 -0.000347 0.003677 255 125 0
-0.163092 0.012230 -0.048322 255 125 0
-0.141512 -0.007746 0.006721 255 125 0
-0.158372 0.003422 -0.046323 255 125 0
-0.128134 -0.005158 -0.046323 255 125 0
-0.134257 0.033005 0.009677 255 125 0
-0.110381 0.008630 0.007677 255 125 0
-0.161657 0.008267 -0.036323 255 125 0
-0.138708 0.003000 0.005677 255 125 0
-0.162704 -0.005868 -0.004323 255 125 0
-0.162517 0.027660 -0.008323 255 125 0
-0.163984 0.010317 -0.060323 255 125 0
-0.145558 -0.016422 -0.062322 255 125 0
-0.124363 0.019565 0.018807 255 125 0
-0.158217 -0.010441 -0.042323 255 125 0
-0.127266 0.027538 0.018695 255 125 0
-0.131642 -0.007935 -0.030322 255 125 0
-0.140167 -0.009593 -0.010323 255 125 0
-0.162184 0.028374 -0.051341 255 125 0
-0.158064 -0.010114 -0.054323 255 125 0
-0.160735 0.005631 -0.010323 255 125 0
-0.150585 0.029586 0.012758 255 125 0
-0.129773 -0.015696 -0.062322 255 125 0
-0.121967 -0.010240 -0.072322 255 125 0
-0.166655 0.001771 -0.048322 255 125 0
-0.116712 -0.006616 -0.034323 255 125 0
-0.166384 0.001644 -0.018323 255 125 0
-0.147373 -0.006117 -0.048322 255 125 0
-0.117052 0.013949 -0.066323 255 125 0
-0.163742 -0.004000 -0.068323 255 125 0
-0.157470 0.019555 0.010679 255 125 0
-0.129391 -0.014877 -0.004323 255 125 0
-0.164952 -0.001223 -0.040322 255 125 0
-0.125414 -0.004219 0.003677 255 125 0
-0.158819 -0.010710 -0.068323 255 125 0
-0.120226 0.002188 -0.018323 255 125 0
-0.166627 0.021619 -0.060323 255 125 0
-0.157704 -0.004609 0.013054 255 125 0
-0.110504 0.006482 -0.064323 255 125 0
-0.116037 0.011269 -0.036323 255 125 0
-0.113155 0.024674 0.011678 255 125 0
-0.109207 0.012497 -0.048322 255 125 0
-0.116433 0.024694 -0.016322 255 125 0
-0.146874 -0.007454 -0.032323 255 125 0
-0.133004 -0.008430 -0.056323 255 125 0
-0.127866 0.016785 0.012408 255 125 0
-0.166539 0.021578 -0.004323 255 125 0
-0.111871 0.008496 -0.012322 255 125 0
-0.113631 0.001319 -0.004323 255 125 0
-0.115740 0.014396 -0.054323 255 125 0
-0.116268 0.017997 0.018816 255 125 0
-0.165205 -0.001765 -0.056323 255 125 0
-0.136798 -0.016565 -0.025775 255 125 0
-0.143570 0.002040 0.017581 255 125 0
-0.138020 0.028140 0.004748 255 125 0
-0.166582 0.023675 0.005677 255 125 0
-0.148958 0.018880 0.005677 255 125 0
-0.115832 0.018933 -0.044322 255 125 0
-0.127705 -0.006530 -0.068323 255 125 0
-0.112243 0.020533 -0.062322 255 125 0
-0.132069 -0.015889 -0.018323 255 125 0
-0.131642 -0.007935 -0.002322 255 125 0
-0.168824 0.009402 -0.068756 255 125 0
-0.142397 0.014019 0.007677 255 125 0
-0.126543 0.033822 0.012823 255 125 0
-0.134312 -0.008897 -0.044322 255 125 0
-0.141948 -0.008680 -0.018323 255 125 0
-0.122674 0.023190 0.004708 255 125 0
-0.154633 -0.002756 -0.044322 255 125 0
-0.117672 -0.005623 -0.068323 255 125 0
-0.132217 -0.016205 0.009677 255 125 0
-0.163378 0.021083 -0.052323 255 125 0
-0.117750 0.012067 0.009677 255 125 0
-0.151406 0.042023 0.007677 255 125 0
-0.158215 0.011075 0.011678 255 125 0
-0.125289 -0.013105 -0.020323 255 125 0
-0.149832 -0.001923 0.011678 255 125 0
-0.150943 0.009891 0.010754 255 125 0
-0.118256 -0.007558 -0.058322 255 125 0
-0.113264 -0.001058 -0.044322 255 125 0
-0.166792 0.015076 -0.016322 255 125 0
-0.152644 -0.007954 -0.074323 255 125 0
-0.164234 0.019248 -0.032323 255 125 0
-0.141947 -0.008676 -0.042323 255 125 0
-0.146115 0.029708 0.006895 255 125 0
-0.142311 -0.009457 0.015678 255 125 0
-0.153267 -0.014025 0.001678 255 125 0
-0.166289 0.014840 -0.073314 255 125 0
-0.145514 -0.016327 -0.024323 255 125 0
-0.141565 -0.017323 -0.002322 255 125 0
-0.134521 -0.016415 -0.046323 255 125 0
-0.169111 0.013950 -0.044322 255 125 0
-0.158559 0.026684 0.019233 255 125 0
-0.164682 0.029539 -0.068323 255 125 0
-0.136207 0.027295 0.018840 255 125 0
-0.137092 -0.017197 -0.060323 255 125 0
-0.151064 0.014361 0.018869 255 125 0
-0.116289 0.024627 -0.000323 255 125 0
-0.162645 0.010934 -0.026322 255 125 0
-0.130367 -0.007506 -0.022323 255 125 0
-0.121166 0.033521 0.005677 255 125 0
-0.111755 0.018210 -0.008323 255 125 0
-0.156023 0.032121 0.008740 255 125 0
-0.163957 -0.003822 -0.032323 255 125 0
-0.116890 0.009460 -0.072322 255 125 0
-0.126632 -0.013694 -0.056323 255 125 0
-0.116850 0.009441 -0.060323 255 125 0
-0.153234 -0.004488 -0.035277 255 125 0
-0.162778 0.015410 0.007677 255 125 0
-0.114147 0.025835 -0.048322 255 125 0
-0.141227 0.030728 0.011678 255 125 0
-0.161068 0.002376 -0.068323 255 125 0
-0.111159 0.005292 0.001678 255 125 0
-0.161345 -0.007684 -0.018323 255 125 0
-0.129748 0.012750 0.017677 255 125 0
-0.123344 -0.011805 -0.006323 255 125 0
-0.136920 -0.012094 -0.073180 255 125 0
-0.154650 -0.002791 0.005677 255 125 0
-0.161676 0.008276 -0.002322 255 125 0
-0.129523 0.027432 0.011678 255 125 0
-0.144845 0.022969 0.011678 255 125 0
-0.120237 -0.008840 -0.012322 255 125 0
-0.163875 0.024749 -0.021340 255 125 0
-0.117734 0.007647 -0.004323 255 125 0
-0.151594 0.022692 0.011678 255 125 0
-0.128468 0.006032 0.018744 255 125 0
-0.127726 -0.006575 -0.060323 255 125 0
-0.121818 -0.001483 -0.034323 255 125 0
-0.146478 -0.008930 -0.054323 255 125 0
-0.148290 -0.008083 -0.024323 255 125 0
-0.122786 -0.005445 0.014807 255 125 0
-0.168599 0.009885 -0.036323 255 125 0
-0.132694 -0.003032 0.010706 255 125 0
-0.121083 0.000381 0.005677 255 125 0
-0.111621 0.009031 -0.022323 255 125 0
-0.168141 0.006878 0.001678 255 125 0
-0.167978 0.020681 -0.038323 255 125 0
-0.149741 0.031398 0.019062 255 125 0
-0.157439 0.000692 -0.052323 255 125 0
-0.116110 0.015716 -0.020323 255 125 0
-0.147046 -0.016200 -0.048322 255 125 0
-0.163386 0.006867 0.017206 255 125 0
-0.168051 0.006835 -0.056323 255 125 0
-0.161324 0.020755 0.019677 255 125 0
-0.136922 -0.009888 -0.022323 255 125 0
-0.123998 0.006154 0.004776 255 125 0
-0.168946 0.013873 -0.002512 255 125 0
-0.128050 0.002195 0.011678 255 125 0
-0.142735 0.036959 0.012757 255 125 0
-0.149974 0.007233 0.004726 255 125 0
-0.142724 0.003853 0.010695 255 125 0
-0.152841 -0.003646 -0.004323 255 125 0
-0.127035 -0.014558 -0.068323 255 125 0
-0.128393 0.020391 0.005677 255 125 0
-0.154883 -0.012757 -0.036323 255 125 0
-0.114099 0.022648 0.005677 255 125 0
-0.113521 0.001268 -0.012322 255 125 0
-0.139250 -0.017091 -0.038323 255 125 0
-0.161207 -0.007390 -0.073238 255 125 0
-0.117423 0.003089 -0.032323 255 125 0
-0.111984 0.002759 -0.028323 255 125 0
-0.113392 0.001209 -0.050323 255 125 0
-0.151225 -0.014251 -0.010323 255 125 0
-0.128947 -0.009193 0.018116 255 125 0
-0.144348 -0.013826 -0.070323 255 125 0
-0.140895 -0.016862 0.007677 255 125 0
-0.153111 -0.008958 0.014592 255 125 0
-0.113185 0.000947 -0.068323 255 125 0
-0.136028 0.004015 0.011678 255 125 0
-0.151398 -0.014746 -0.054323 255 125 0
-0.139823 -0.004121 0.019006 255 125 0
-0.121900 -0.001444 -0.012322 255 125 0
-0.159277 0.001481 -0.032323 255 125 0
-0.133012 -0.008444 -0.010323 255 125 0
-0.151481 -0.014926 0.007677 255 125 0
-0.117513 -0.005697 0.001678 255 125 0
-0.141945 -0.008672 -0.066323 255 125 0
-0.165924 0.001425 -0.026322 255 125 0
-0.168185 0.009105 -0.050323 255 125 0
-0.123696 0.011533 0.011678 255 125 0
-0.163856 0.022533 -0.066323 255 125 0
-0.129364 -0.014820 0.003677 255 125 0
-0.116102 0.015712 -0.028323 255 125 0
-0.163831 0.018108 -0.046323 255 125 0
-0.114839 0.021061 -0.056323 255 125 0
-0.140370 0.018367 0.011678 255 125 0
-0.111192 0.013423 -0.068323 255 125 0
-0.116714 0.007171 0.019677 255 125 0
-0.147682 -0.016242 -0.002322 255 125 0
-0.151892 -0.006342 -0.060323 255 125 0
-0.162542 0.008679 -0.043293 255 125 0
-0.147398 -0.006170 0.007677 255 125 0
-0.162119 0.009585 -0.066323 255 125 0
-0.121067 0.000374 -0.068323 255 125 0
-0.116149 -0.006333 -0.020323 255 125 0
-0.129857 0.040912 0.007677 255 125 0
-0.153936 0.037768 0.011678 255 125 0
-0.116255 0.020198 -0.038323 255 125 0
-0.133427 0.023791 0.004764 255 125 0
-0.156746 0.025838 0.012810 255 125 0
-0.121405 -0.010502 -0.038323 255 125 0
-0.129886 0.007723 0.005677 255 125 0
-0.152464 0.016092 0.011678 255 125 0
-0.111332 0.006869 -0.036323 255 125 0
-0.133731 0.015106 0.013677 255 125 0
-0.123362 -0.001948 -0.040322 255 125 0
-0.116634 0.031408 -0.043535 255 125 0
-0.158793 0.002518 0.004728 255 125 0
-0.135606 0.038048 0.012787 255 125 0
-0.111289 0.013468 0.003677 255 125 0
-0.166589 0.001740 -0.010323 255 125 0
-0.132241 0.021605 0.011678 255 125 0
-0.162625 -0.005698 0.009677 255 125 0
-0.156970 -0.000538 -0.024323 255 125 0
-0.138356 -0.010443 -0.058322 255 125 0
-0.165455 -0.002302 -0.062322 255 125 0
-0.166889 0.004087 -0.070834 255 125 0
-0.153071 -0.013604 -0.042323 255 125 0
-0.151304 -0.014547 -0.024323 255 125 0
-0.133916 -0.015702 -0.068323 255 125 0
-0.121107 0.000392 -0.024323 255 125 0
-0.167919 0.015602 -0.060323 255 125 0
-0.132960 -0.013068 0.015678 255 125 0
-0.110376 0.006422 -0.048322 255 125 0
-0.113249 0.001142 -0.056323 255 125 0
-0.159732 0.002957 -0.004323 255 125 0
-0.148529 0.019799 0.018555 255 125 0
-0.152276 0.025960 0.018663 255 125 0
-0.168484 0.015864 0.009677 255 125 0
-0.116079 0.011288 -0.042323 255 125 0
-0.123086 -0.011925 0.007677 255 125 0
-0.125445 -0.004205 -0.002322 255 125 0
-0.163094 0.012225 -0.054323 255 125 0
-0.158227 -0.010463 -0.048322 255 125 0
-0.133002 -0.008425 -0.050323 255 125 0
-0.157470 0.019555 0.004685 255 125 0
-0.116578 0.004901 -0.044322 255 125 0
-0.220672 -0.352603 0.456854 255 255 0
-0.320205 -0.443009 -0.061298 255 255 0
-0.306786 -0.390570 0.203678 255 255 0
-0.390602 -0.418877 0.419677 255 255 0
-0.351587 -0.309210 0.509678 255 255 0
-0.292091 -0.463170 0.513677 255 255 0
-0.301703 -0.384403 0.063677 255 255 0
-0.300000 -0.380749 0.333678 255 255 0
-0.294226 -0.330508 -0.056323 255 255 0
-0.237557 -0.455066 0.416744 255 255 0
-0.297222 -0.284878 0.417678 255 255 0
-0.377607 -0.405207 0.513404 255 255 0
-0.377479 -0.329212 0.419677 255 255 0
-0.306353 -0.378852 0.465677 255 255 0
-0.323186 -0.477798 0.421677 255 255 0
-0.242599 -0.401960 -0.056323 255 255 0
-0.266720 -0.304649 0.508624 255 255 0
-0.364139 -0.373973 -0.054323 255 255 0
-0.226955 -0.413668 0.511678 255 255 0
-0.300387 -0.391045 -0.010323 255 255 0
-0.297061 -0.389804 0.133677 255 255 0
-0.350102 -0.455068 0.477677 255 255 0
-0.299440 -0.384281 0.268435 255 255 0
-0.236731 -0.306590 0.413677 255 255 0
-0.208697 -0.397909 0.414997 255 255 0
-0.383510 -0.351611 0.477677 255 255 0
-0.276645 -0.469941 0.457677 255 255 0
-0.341208 -0.296395 0.453678 255 255 0
-0.229735 -0.348377 0.511814 255 255 0
-0.232251 -0.420026 0.458688 255 255 0
-0.267502 -0.304284 0.455678 255 255 0
-0.313941 -0.377520 -0.057285 255 255 0
-0.272692 -0.440890 -0.046323 255 255 0
-0.380482 -0.399453 0.463678 255 255 0
-0.309025 -0.293749 0.489678 255 255 0
-0.250577 -0.449861 0.491678 255 255 0
-0.254692 -0.356599 -0.054323 255 255 0
-0.363114 -0.454577 0.431677 255 255 0
-0.393739 -0.373411 0.427678 255 255 0
-0.359279 -0.420374 -0.054323 255 255 0
-0.218136 -0.347165 0.412782 255 255 0
-0.336426 -0.340554 -0.053346 255 255 0
-0.279238 -0.468732 0.414683 255 255 0
-0.301131 -0.387907 0.376076 255 255 0
-0.236385 -0.320046 0.479677 255 255 0
-0.214337 -0.381609 0.487677 255 255 0
-0.332404 -0.454974 0.514091 255 255 0
-0.312698 -0.469502 0.475677 255 255 0
-0.282882 -0.400829 -0.047127 255 255 0
-0.379552 -0.366786 0.513147 255 255 0
-0.370822 -0.320101 0.459677 255 255 0
-0.308136 -0.393467 0.027210 255 255 0
-0.213052 -0.389257 0.451677 255 255 0
-0.303434 -0.288734 0.453678 255 255 0
-0.372942 -0.428329 0.485677 255 255 0
-0.244697 -0.453943 0.453678 255 255 0
-0.324685 -0.410025 -0.046373 255 255 0
-0.308156 -0.386838 0.099678 255 255 0
-0.303910 -0.384404 0.168398 255 255 0
-0.333309 -0.289045 0.419677 255 255 0
-0.237482 -0.324903 0.443678 255 255 0
-0.375946 -0.333159 0.505677 255 255 0
-0.218871 -0.428472 0.427678 255 255 0
-0.378244 -0.431391 0.451677 255 255 0
-0.304758 -0.390953 0.301677 255 255 0
-0.265274 -0.292082 0.424668 255 255 0
-0.332733 -0.460411 0.449677 255 255 0
-0.298750 -0.389017 0.235677 255 255 0
-0.286640 -0.361563 -0.048065 255 255 0
-0.359596 -0.437566 0.513677 255 255 0
-0.382937 -0.347554 0.445678 255 255 0
-0.337635 -0.309096 0.481678 255 255 0
-0.280058 -0.456294 0.485677 255 255 0
-0.303461 -0.466263 0.443678 255 255 0
-0.299186 -0.426328 -0.046687 255 255 0
-0.279968 -0.295202 0.481678 255 255 0
-0.384821 -0.381982 0.487677 255 255 0
-0.241221 -0.320953 0.508629 255 255 0
-0.219754 -0.410407 0.483678 255 255 0
-0.216980 -0.373079 0.427678 255 255 0
-0.321469 -0.307807 0.511678 255 255 0
-0.388901 -0.373460 0.455678 255 255 0
-0.227751 -0.347095 0.483678 255 255 0
-0.264951 -0.419165 -0.062322 255 255 0
-0.339674 -0.385381 -0.047199 255 255 0
-0.263677 -0.383304 -0.057293 255 255 0
-0.258948 -0.467160 0.433677 255 255 0
-0.358390 -0.308245 0.435678 255 255 0
-0.266108 -0.454771 0.513677 255 255 0
-0.364408 -0.315380 0.485677 255 255 0
-0.392891 -0.398080 0.439677 255 255 0
-0.293710 -0.305739 0.509678 255 255 0
-0.312016 -0.349730 -0.047807 255 255 0
-0.371381 -0.436799 0.413677 255 255 0
-0.222719 -0.375922 0.511992 255 255 0
-0.344726 -0.462468 0.414739 255 255 0
-0.231734 -0.433508 0.481678 255 255 0
-0.307864 -0.392883 -0.036323 255 255 0
-0.311802 -0.455754 0.497677 255 255 0
-0.215301 -0.336353 0.437678 255 255 0
-0.339097 -0.434199 -0.046323 255 255 0
-0.242039 -0.436284 0.511678 255 255 0
-0.355568 -0.443126 0.455678 255 255 0
-0.388445 -0.352732 0.413677 255 255 0
-0.255555 -0.304368 0.485677 255 255 0
-0.245759 -0.302290 0.437678 255 255 0
-0.284846 -0.296197 0.439587 255 255 0
-0.322969 -0.292766 0.469677 255 255 0
-0.295021 -0.450523 -0.048322 255 255 0
-0.392230 -0.393975 0.414873 255 255 0
-0.239721 -0.438610 0.435678 255 255 0
-0.222692 -0.406829 0.437678 255 255 0
-0.298932 -0.479409 0.423677 255 255 0
-0.374949 -0.404240 0.486681 255 255 0
-0.271615 -0.338807 -0.056323 255 255 0
-0.259758 -0.460085 0.471678 255 255 0
-0.321089 -0.296950 0.439677 255 255 0
-0.304267 -0.404099 -0.057290 255 255 0
-0.361233 -0.397395 -0.048322 255 255 0
-0.338472 -0.363874 -0.057288 255 255 0
-0.220560 -0.323967 0.416652 255 255 0
-0.244245 -0.308509 0.460654 255 255 0
-0.344370 -0.442774 0.496681 255 255 0
-0.309593 -0.387124 0.353678 255 255 0
-0.223546 -0.330371 0.461677 255 255 0
-0.219216 -0.373143 0.466946 255 255 0
-0.291854 -0.382211 -0.056323 255 255 0
-0.331616 -0.462748 0.487677 255 255 0
-0.280096 -0.474952 0.435678 255 255 0
-0.216208 -0.361304 0.495677 255 255 0
-0.243335 -0.375136 -0.056323 255 255 0
-0.378746 -0.329647 0.477677 255 255 0
-0.295977 -0.462038 0.463678 255 255 0
-0.355079 -0.307582 0.467677 255 255 0
-0.249501 -0.440670 0.471678 255 255 0
-0.218083 -0.395739 0.503677 255 255 0
-0.342689 -0.406043 -0.057314 255 255 0
-0.364265 -0.419187 0.503677 255 255 0
-0.379140 -0.415527 0.437678 255 255 0
-0.299475 -0.299173 0.471678 255 255 0
-0.316568 -0.331098 -0.056323 255 255 0
-0.375115 -0.353407 0.497677 255 255 0
-0.262220 -0.403845 -0.047647 255 255 0
-0.285443 -0.437150 -0.062322 255 255 0
-0.302418 -0.395402 0.081677 255 255 0
-0.373401 -0.329932 0.440725 255 255 0
-0.282756 -0.291714 0.461677 255 255 0
-0.225611 -0.401054 0.462664 255 255 0
-0.371888 -0.418908 0.467677 255 255 0
-0.357331 -0.328599 0.512406 255 255 0
-0.296386 -0.467648 0.489678 255 255 0
-0.310318 -0.393414 0.047678 255 255 0
-0.369238 -0.434583 0.433677 255 255 0
-0.346297 -0.465836 0.435678 255 255 0
-0.229320 -0.330915 0.495677 255 255 0
-0.212859 -0.369486 0.447677 255 255 0
-0.232730 -0.435250 0.414703 255 255 0
-0.328644 -0.297841 0.495677 255 255 0
-0.298560 -0.391313 0.009677 255 255 0
-0.278769 -0.420402 -0.046957 255 255 0
-0.318758 -0.430442 -0.045846 255 255 0
-0.257975 -0.460993 0.414729 255 255 0
-0.358448 -0.435106 0.473678 255 255 0
-0.381721 -0.385635 0.507174 255 255 0
-0.232391 -0.439822 0.461677 255 255 0
-0.318391 -0.472542 0.455678 255 255 0
-0.221589 -0.354382 0.431677 255 255 0
-0.314400 -0.293321 0.421677 255 255 0
-0.353137 -0.350415 -0.054323 255 255 0
-0.310917 -0.389964 0.118652 255 255 0
-0.307995 -0.389119 0.149678 255 255 0
-0.263451 -0.456232 0.449677 255 255 0
-0.300175 -0.392766 0.185678 255 255 0
-0.375071 -0.340187 0.461677 255 255 0
-0.220775 -0.414344 0.414719 255 255 0
-0.343930 -0.295127 0.434670 255 255 0
-0.224474 -0.432480 0.445678 255 255 0
-0.332846 -0.455921 0.469677 255 255 0
-0.323756 -0.393836 -0.056323 255 255 0
-0.311039 -0.385494 0.318668 255 255 0
-0.381242 -0.370411 0.472695 255 255 0
-0.209480 -0.393130 0.433677 255 255 0
-0.234147 -0.423556 0.497677 255 255 0
-0.359349 -0.451236 0.412719 255 255 0
-0.301704 -0.285026 0.435678 255 255 0
-0.321837 -0.465440 0.435678 255 255 0
-0.271294 -0.366512 -0.057292 255 255 0
-0.302708 -0.362897 -0.057267 255 255 0
-0.229332 -0.314386 0.429677 255 255 0
-0.214493 -0.358281 0.477677 255 255 0
-0.257139 -0.426074 -0.047348 255 255 0
-0.306576 -0.383161 0.251678 255 255 0
-0.281469 -0.452244 0.503677 255 255 0
-0.362788 -0.439680 0.495677 255 255 0
-0.243959 -0.456495 0.435678 255 255 0
-0.347923 -0.459858 0.459677 255 255 0
-0.300407 -0.381624 0.286675 255 255 0
-0.280802 -0.296988 0.499678 255 255 0
-0.384955 -0.415022 0.455678 255 255 0
-0.252586 -0.297999 0.412799 255 255 0
-0.249827 -0.320479 0.491678 255 255 0
-0.323248 -0.364353 -0.047711 255 255 0
-0.366995 -0.335126 0.490126 255 255 0
-0.348060 -0.317475 0.493677 255 255 0
-0.381609 -0.356999 0.460681 255 255 0
-0.310084 -0.463175 0.513677 255 255 0
-0.355452 -0.315105 0.451677 255 255 0
-0.299440 -0.384281 0.218722 255 255 0
-0.247983 -0.432551 0.489678 255 255 0
-0.265800 -0.458844 0.495677 255 255 0
-0.262079 -0.294696 0.441677 255 255 0
-0.381976 -0.343588 0.428712 255 255 0
-0.290643 -0.386177 0.463678 255 255 0
-0.311954 -0.446855 -0.046323 255 255 0
-0.234107 -0.416954 0.475677 255 255 0
-0.295008 -0.346381 -0.048322 255 255 0
-0.263770 -0.298321 0.471678 255 255 0
-0.215372 -0.392589 0.473678 255 255 0
-0.283708 -0.468854 0.473716 255 255 0
-0.385963 -0.363796 0.439677 255 255 0
-0.308041 -0.296415 0.507677 255 255 0
-0.229509 -0.333695 0.427678 255 255 0
-0.277209 -0.379200 -0.047486 255 255 0
-0.294399 -0.302485 0.489678 255 255 0
-0.228561 -0.340096 0.447677 255 255 0
-0.250988 -0.389221 -0.047648 255 255 0
-0.239828 -0.326016 0.463678 255 255 0
-0.217474 -0.413676 0.453678 255 255 0
-0.226414 -0.369648 0.481678 255 255 0
-0.270646 -0.308336 0.491678 255 255 0
-0.386753 -0.382229 0.441677 255 255 0
-0.332414 -0.421867 -0.055299 255 255 0
-0.335934 -0.312095 0.503677 255 255 0
-0.257572 -0.318157 0.511678 255 255 0
-0.368301 -0.446772 0.445678 255 255 0
-0.281500 -0.293753 0.421677 255 255 0
-0.384800 -0.404060 0.425678 255 255 0
-0.251836 -0.315321 0.473678 255 255 0
-0.388097 -0.385109 0.469677 255 255 0
-0.291457 -0.414486 -0.057288 255 255 0
-0.378585 -0.369444 0.496467 255 255 0
-0.363068 -0.326704 0.473678 255 255 0
-0.303168 -0.444332 -0.061177 255 255 0
-0.353086 -0.385748 -0.057276 255 255 0
-0.211286 -0.361392 0.417678 255 255 0
-0.230066 -0.344354 0.467677 255 255 0
-0.316936 -0.298759 0.455678 255 255 0
-0.321484 -0.303780 0.481678 255 255 0
-0.291244 -0.474167 0.451677 255 255 0
-0.364743 -0.318522 0.501678 255 255 0
-0.311873 -0.418205 -0.054323 255 255 0
-0.347533 -0.449560 0.511678 255 255 0
-0.271834 -0.353019 -0.048322 255 255 0
-0.256650 -0.443957 0.505494 255 255 0
-0.337879 -0.306775 0.465677 255 255 0
-0.348981 -0.372214 -0.047513 255 255 0
-0.224379 -0.332159 0.477677 255 255 0
-0.328211 -0.445980 -0.046323 255 255 0
-0.350408 -0.450992 0.442690 255 255 0
-0.239888 -0.337022 0.505957 255 255 0
-0.369502 -0.439882 0.462654 255 255 0
-0.330713 -0.451349 0.498693 255 255 0
-0.296673 -0.389985 0.111677 255 255 0
-0.344945 -0.418231 -0.046323 255 255 0
-0.248879 -0.308979 0.423677 255 255 0
-0.383472 -0.428954 0.429677 255 255 0
-0.214623 -0.377490 0.412724 255 255 0
-0.326272 -0.351909 -0.057306 255 255 0
-0.209196 -0.346921 0.425656 255 255 0
-0.309563 -0.472245 0.414721 255 255 0
-0.256885 -0.404126 -0.062322 255 255 0
-0.257760 -0.370616 -0.048198 255 255 0
-0.211862 -0.411880 0.427678 255 255 0
-0.383298 -0.411380 0.475677 255 255 0
-0.311872 -0.477196 0.433677 255 255 0
-0.275069 -0.457436 0.467677 255 255 0
-0.329591 -0.377955 -0.056323 255 255 0
-0.391996 -0.369810 0.412746 255 255 0
-0.266123 -0.473735 0.421677 255 255 0
-0.377823 -0.415135 0.497677 255 255 0
-0.244230 -0.438714 0.451677 255 255 0
-0.276286 -0.462402 0.443678 255 255 0
-0.381668 -0.399720 0.499678 255 255 0
-0.229537 -0.445566 0.425678 255 255 0
-0.294039 -0.467348 0.431677 255 255 0
-0.225405 -0.407771 0.497677 255 255 0
-0.332599 -0.464855 0.423677 255 255 0
-0.386238 -0.396770 0.479677 255 255 0
-0.390142 -0.392742 0.453678 255 255 0
-0.297472 -0.391820 0.039678 255 255 0
-0.272250 -0.396960 -0.057298 255 255 0
-0.250740 -0.312971 0.447677 255 255 0
-0.296540 -0.456250 0.499678 255 255 0
-0.271274 -0.432724 -0.058986 255 255 0
-0.371945 -0.350472 0.512148 255 255 0
-0.258766 -0.448492 0.461677 255 255 0
-0.304691 -0.388453 -0.050323 255 255 0
-0.220070 -0.395419 0.488394 255 255 0
-0.283380 -0.349843 -0.057302 255 255 0
-0.221836 -0.343233 0.499678 255 255 0
-0.221410 -0.361085 0.509678 255 255 0
-0.317116 -0.457690 0.483678 255 255 0
-0.352559 -0.306550 0.483678 255 255 0
-0.230353 -0.423118 0.435678 255 255 0
-0.322625 -0.462397 0.505677 255 255 0
-0.212954 -0.354982 0.443678 255 255 0
-0.288828 -0.437244 -0.046323 255 255 0
-0.319716 -0.460890 0.464680 255 255 0
-0.266737 -0.451391 0.481678 255 255 0
-0.249336 -0.449574 0.423677 255 255 0
-0.249410 -0.414232 -0.051319 255 255 0
-0.239997 -0.429654 0.469677 255 255 0
-0.315160 -0.304415 0.497677 255 255 0
-0.220567 -0.416648 0.467677 255 255 0
-0.254100 -0.308327 0.499678 255 255 0
-0.344857 -0.306581 0.443678 255 255 0
-0.303310 -0.373651 -0.047424 255 255 0
-0.217935 -0.382566 0.439677 255 255 0
-0.389313 -0.387720 0.427678 255 255 0
-0.338394 -0.448890 0.483678 255 255 0
-0.300874 -0.460849 0.477677 255 255 0
-0.379317 -0.342620 0.488668 255 255 0
-0.311714 -0.389592 0.135678 255 255 0
-0.217939 -0.386979 0.423677 255 255 0
-0.349868 -0.454566 0.425678 255 255 0
-0.390542 -0.357227 0.427678 255 255 0
-0.372605 -0.447261 0.423677 255 255 0
-0.274683 -0.293332 0.449677 255 255 0
-0.231025 -0.318014 0.455678 255 255 0
-0.252963 -0.447883 0.443678 255 255 0
-0.222936 -0.375822 0.497677 255 255 0
-0.284104 -0.464970 0.497677 255 255 0
-0.306965 -0.395687 -0.022323 255 255 0
-0.303529 -0.473502 0.459677 255 255 0
-0.234816 -0.323939 0.417678 255 255 0
-0.305132 -0.339700 -0.057234 255 255 0
-0.297671 -0.385107 0.313677 255 255 0
-0.341933 -0.302677 0.493677 255 255 0
-0.238291 -0.333598 0.483678 255 255 0
-0.382213 -0.403060 0.447677 255 255 0
-0.277006 -0.303046 0.469677 255 255 0
-0.358770 -0.449995 0.467677 255 255 0
-0.331207 -0.298852 0.429677 255 255 0
-0.223197 -0.327150 0.445678 255 255 0
-0.334837 -0.398671 -0.047211 255 255 0
-0.276355 -0.410493 -0.057292 255 255 0
-0.350245 -0.441177 0.483678 255 255 0
-0.272660 -0.464092 0.429677 255 255 0
-0.292030 -0.297404 0.451677 255 255 0
-0.306280 -0.380021 0.365677 255 255 0
-0.220224 -0.401360 0.423677 255 255 0
-0.323013 -0.340188 -0.047859 255 255 0
-0.216396 -0.419152 0.439677 255 255 0
-0.253865 -0.300744 0.453678 255 255 0
-0.225925 -0.358981 0.469677 255 255 0
-0.331623 -0.467494 0.461677 255 255 0
-0.259855 -0.304123 0.431677 255 255 0
-0.300491 -0.390412 0.343678 255 255 0
-0.292907 -0.396156 -0.056323 255 255 0
-0.336059 -0.353965 -0.047662 255 255 0
-0.294417 -0.293940 0.427678 255 255 0
-0.313330 -0.399872 -0.046853 255 255 0
-0.349610 -0.430350 -0.054323 255 255 0
-0.327916 -0.291560 0.451677 255 255 0
-0.295178 -0.294691 0.501678 255 255 0
-0.323546 -0.286977 0.429677 255 255 0
-0.326116 -0.466733 0.475677 255 255 0
-0.309978 -0.291098 0.465677 255 255 0
-0.270578 -0.464358 0.479677 255 255 0
-0.284432 -0.337901 -0.050323 255 255 0
-0.212781 -0.401932 0.445678 255 255 0
-0.235441 -0.447227 0.445678 255 255 0
-0.240385 -0.440507 0.497677 255 255 0
-0.387393 -0.407265 0.412719 255 255 0
-0.378906 -0.424463 0.415678 255 255 0
-0.214478 -0.334587 0.423677 255 255 0
-0.307883 -0.433307 -0.054323 255 255 0
-0.272793 -0.298743 0.433677 255 255 0
-0.355483 -0.409818 -0.046323 255 255 0
-0.364738 -0.434397 0.449677 255 255 0
-0.241340 -0.444476 0.481678 255 255 0
-0.242057 -0.316150 0.433677 255 255 0
-0.209674 -0.362144 0.432793 255 255 0
-0.368231 -0.427234 0.513677 255 255 0
-0.355960 -0.363516 -0.056323 255 255 0
-0.297058 -0.392013 0.053677 255 255 0
-0.226759 -0.429208 0.467677 255 255 0
-0.333296 -0.471083 0.439677 255 255 0
-0.234447 -0.424736 0.511678 255 255 0
-0.374216 -0.431063 0.472633 255 255 0
-0.344670 -0.448152 0.467677 255 255 0
-0.298707 -0.411105 -0.046660 255 255 0
-0.310372 -0.467454 0.489678 255 255 0
-0.264135 -0.464741 0.460024 255 255 0
-0.366904 -0.386987 -0.054323 255 255 0
-0.328526 -0.434715 -0.054323 255 255 0
-0.355916 -0.429676 0.503677 255 255 0
-0.382843 -0.363045 0.485677 255 255 0
-0.285848 -0.478890 0.421677 255 255 0
-0.280131 -0.305016 0.510180 255 255 0
-0.283667 -0.371776 -0.056323 255 255 0
-0.299046 -0.383436 0.195678 255 255 0
-0.254122 -0.391209 -0.062322 255 255 0
-0.352259 -0.317723 0.476666 255 255 0
-0.247722 -0.462667 0.423677 255 255 0
-0.236332 -0.319932 0.493677 255 255 0
-0.343724 -0.455587 0.493677 255 255 0
-0.320947 -0.383080 -0.047643 255 255 0
-0.312788 -0.287580 0.443678 255 255 0
-0.278521 -0.460239 0.513677 255 255 0
-0.241304 -0.448906 0.465590 255 255 0
-0.252141 -0.461507 0.445678 255 255 0
-0.318524 -0.406277 -0.057299 255 255 0
-0.299871 -0.385207 0.089678 255 255 0
-0.361372 -0.427179 0.491678 255 255 0
-0.237905 -0.311466 0.445678 255 255 0
-0.334022 -0.297540 0.474676 255 255 0
-0.307430 -0.384970 0.075678 255 255 0
-0.370185 -0.415289 0.481678 255 255 0
-0.307963 -0.382514 0.183677 255 255 0
-0.348248 -0.399036 -0.047179 255 255 0
-0.213699 -0.371301 0.479677 255 255 0
-0.220408 -0.427755 0.414822 255 255 0
-0.228800 -0.415015 0.445678 255 255 0
-0.258245 -0.310136 0.463678 255 255 0
-0.298411 -0.389175 0.359677 255 255 0
-0.358140 -0.319395 0.463678 255 255 0
-0.265245 -0.391400 -0.047078 255 255 0
-0.364802 -0.322908 0.447677 255 255 0
-0.224317 -0.414898 0.427678 255 255 0
-0.256792 -0.373274 -0.061278 255 255 0
-0.298570 -0.397928 -0.044322 255 255 0
-0.374730 -0.342554 0.475677 255 255 0
-0.304870 -0.391193 0.277678 255 255 0
-0.288433 -0.426930 -0.055312 255 255 0
-0.332127 -0.300631 0.507677 255 255 0
-0.266126 -0.308106 0.479677 255 255 0
-0.216548 -0.405280 0.472492 255 255 0
-0.373194 -0.419405 0.453678 255 255 0
-0.296161 -0.292066 0.481678 255 255 0
-0.225918 -0.420772 0.487677 255 255 0
-0.304441 -0.465992 0.501678 255 255 0
-0.300163 -0.390565 0.325629 255 255 0
-0.295316 -0.290255 0.463678 255 255 0
-0.367540 -0.315011 0.471678 255 255 0
-0.266325 -0.417378 -0.046926 255 255 0
-0.226042 -0.335726 0.415678 255 255 0
-0.217518 -0.338626 0.453678 255 255 0
-0.349513 -0.321211 0.505677 255 255 0
-0.250989 -0.453216 0.477677 255 255 0
-0.315275 -0.361450 -0.057265 255 255 0
-0.341243 -0.393477 -0.057307 255 255 0
-0.358651 -0.325777 0.491678 255 255 0
-0.311822 -0.389542 0.087677 255 255 0
-0.222118 -0.365168 0.457636 255 255 0
-0.265853 -0.468424 0.447677 255 255 0
-0.366028 -0.337784 0.511892 255 255 0
-0.377077 -0.392215 0.489678 255 255 0
-0.206633 -0.381216 0.421677 255 255 0
-0.233735 -0.342759 0.495677 255 255 0
-0.299451 -0.476960 0.437678 255 255 0
-0.333517 -0.301191 0.443678 255 255 0
-0.217244 -0.385096 0.463678 255 255 0
-0.269744 -0.292205 0.412948 255 255 0
-0.299440 -0.384281 0.122680 255 255 0
-0.374419 -0.325044 0.489678 255 255 0
-0.365457 -0.407545 -0.054323 255 255 0
-0.301292 -0.392985 0.159678 255 255 0
-0.220785 -0.381238 0.476959 255 255 0
-0.347536 -0.359648 -0.047945 255 255 0
-0.362686 -0.443060 0.483678 255 255 0
-0.307256 -0.393877 -0.000323 255 255 0
-0.360024 -0.443218 0.435678 255 255 0
-0.220983 -0.324875 0.429677 255 255 0
-0.238412 -0.423773 0.485557 255 255 0
-0.215202 -0.383463 0.503677 255 255 0
-0.294806 -0.374343 0.465677 255 255 0
-0.309185 -0.301066 0.479677 255 255 0
-0.394122 -0.382059 0.417678 255 255 0
-0.369944 -0.407702 0.503677 255 255 0
-0.358388 -0.382922 -0.046323 255 255 0
-0.301969 -0.389706 0.469677 255 255 0
-0.347040 -0.462697 0.447677 255 255 0
-0.329586 -0.302224 0.457677 255 255 0
-0.303110 -0.392152 0.259678 255 255 0
-0.245537 -0.311277 0.483678 255 255 0
-0.285907 -0.388386 -0.047460 255 255 0
-0.259002 -0.456100 0.427678 255 255 0
-0.300996 -0.439675 -0.046323 255 255 0
-0.227869 -0.334909 0.507677 255 255 0
-0.336705 -0.445267 0.507677 255 255 0
-0.233698 -0.432592 0.426688 255 255 0
-0.221316 -0.394231 0.437678 255 255 0
-0.235486 -0.429551 0.451677 255 255 0
-0.257531 -0.443546 0.483678 255 255 0
-0.224861 -0.437304 0.433677 255 255 0
-0.227873 -0.353848 0.499678 255 255 0
-0.281953 -0.304190 0.489678 255 255 0
-0.286543 -0.463118 0.455678 255 255 0
-0.304515 -0.395165 0.069677 255 255 0
-0.369604 -0.342736 0.499678 255 255 0
-0.319372 -0.474350 0.443678 255 255 0
-0.302206 -0.295566 0.443678 255 255 0
-0.269584 -0.429098 -0.046502 255 255 0
-0.307576 -0.380488 0.343678 255 255 0
-0.330967 -0.409302 -0.057290 255 255 0
-0.389999 -0.410463 0.435678 255 255 0
-0.373942 -0.425742 0.441677 255 255 0
-0.385270 -0.341189 0.415678 255 255 0
-0.335570 -0.371848 -0.047711 255 255 0
-0.214556 -0.401796 0.457677 255 255 0
-0.377040 -0.337737 0.449677 255 255 0
-0.297936 -0.470972 0.471678 255 255 0
-0.262423 -0.347489 -0.056323 255 255 0
-0.346601 -0.309328 0.457677 255 255 0
-0.310760 -0.294980 0.433677 255 255 0
-0.288734 -0.465435 0.443678 255 255 0
-0.308286 -0.386776 0.037677 255 255 0
-0.316396 -0.467968 0.423677 255 255 0
-0.294340 -0.472724 0.414768 255 255 0
-0.343637 -0.469597 0.424533 255 255 0
-0.218342 -0.340448 0.465677 255 255 0
-0.252164 -0.297094 0.425678 255 255 0
-0.229080 -0.323310 0.469677 255 255 0
-0.356944 -0.455542 0.451677 255 255 0
-0.341656 -0.377837 -0.056323 255 255 0
-0.240163 -0.441727 0.421677 255 255 0
-0.308045 -0.461919 0.467677 255 255 0
-0.285133 -0.467178 0.485677 255 255 0
-0.243204 -0.328855 0.497677 255 255 0
-0.360869 -0.445030 0.423677 255 255 0
-0.374409 -0.417278 0.509678 255 255 0
-0.242744 -0.319486 0.453678 255 255 0
-0.370714 -0.428283 0.499472 255 255 0
-0.288344 -0.301186 0.475677 255 255 0
-0.375213 -0.329088 0.466141 255 255 0
-0.232366 -0.330356 0.453678 255 255 0
-0.293079 -0.287944 0.443678 255 255 0
-0.321581 -0.464890 0.493677 255 255 0
-0.223574 -0.344628 0.425197 255 255 0
-0.346746 -0.438405 0.507677 255 255 0
-0.302537 -0.386193 0.019677 255 255 0
-0.267727 -0.448781 0.501678 255 255 0
-0.243860 -0.388132 -0.057254 255 255 0
-0.363234 -0.332467 0.501678 255 255 0
-0.223673 -0.404165 0.449677 255 255 0
-0.339730 -0.461219 0.477677 255 255 0
-0.310244 -0.464240 0.453678 255 255 0
-0.387977 -0.361192 0.451677 255 255 0
-0.359252 -0.460493 0.421677 255 255 0
-0.214058 -0.362081 0.465677 255 255 0
-0.219460 -0.364201 0.439469 255 255 0
-0.354601 -0.445786 0.501678 255 255 0
-0.302999 -0.303179 0.497677 255 255 0
-0.221948 -0.424831 0.455678 255 255 0
-0.283295 -0.467969 0.425678 255 255 0
-0.306841 -0.385956 0.227677 255 255 0
-0.286025 -0.445707 -0.054323 255 255 0
-0.308006 -0.284341 0.425678 255 255 0
-0.345083 -0.302332 0.475677 255 255 0
-0.368517 -0.428306 0.459677 255 255 0
-0.260682 -0.305897 0.445678 255 255 0
-0.330640 -0.290289 0.438671 255 255 0
-0.249777 -0.400820 -0.047044 255 255 0
-0.226354 -0.341126 0.436105 255 255 0
-0.278779 -0.387296 -0.057275 255 255 0
-0.303921 -0.351298 -0.057278 255 255 0
-0.293044 -0.356370 -0.057244 255 255 0
-0.253266 -0.458775 0.461677 255 255 0
-0.349969 -0.303345 0.429016 255 255 0
-0.364975 -0.425442 0.477677 255 255 0
-0.271024 -0.294948 0.461677 255 255 0
-0.291711 -0.372439 -0.047935 255 255 0
-0.289529 -0.471874 0.463678 255 255 0
-0.223799 -0.401900 0.511719 255 255 0
-0.305114 -0.469907 0.427678 255 255 0
-0.222822 -0.437663 0.420337 255 255 0
-0.300893 -0.392432 0.247677 255 255 0
-0.379875 -0.438465 0.421677 255 255 0
-0.268236 -0.298434 0.485677 255 255 0
-0.320993 -0.463628 0.447677 255 255 0
-0.369052 -0.325340 0.510661 255 255 0
-0.218280 -0.375867 0.455678 255 255 0
-0.238270 -0.314623 0.469677 255 255 0
-0.227553 -0.315302 0.413677 255 255 0
-0.289319 -0.459617 0.477677 255 255 0
-0.281060 -0.288078 0.431677 255 255 0
-0.383534 -0.384790 0.458688 255 255 0
-0.395205 -0.399209 0.425678 255 255 0
-0.316346 -0.453662 0.509678 255 255 0
-0.384139 -0.422023 0.445678 255 255 0
-0.322130 -0.470799 0.412686 255 255 0
-0.224053 -0.359853 0.487484 255 255 0
-0.319666 -0.297613 0.505677 255 255 0
-0.222821 -0.389115 0.511678 255 255 0
-0.302019 -0.456065 0.509678 255 255 0
-0.316609 -0.345382 -0.057230 255 255 0
-0.341497 -0.351430 -0.057290 255 255 0
-0.309837 -0.363987 -0.047639 255 255 0
-0.299040 -0.383423 0.153677 255 255 0
-0.308698 -0.474855 0.449677 255 255 0
-0.379980 -0.384240 0.477677 255 255 0
-0.299063 -0.393285 0.097677 255 255 0
-0.259946 -0.313784 0.491678 255 255 0
-0.364535 -0.310920 0.457677 255 255 0
-0.303251 -0.458706 0.489678 255 255 0
-0.235704 -0.332781 0.471678 255 255 0
-0.383184 -0.374574 0.505677 255 255 0
-0.223574 -0.349362 0.443678 255 255 0
-0.332497 -0.308469 0.491678 255 255 0
-0.228559 -0.423954 0.421677 255 255 0
-0.354532 -0.398313 -0.057284 255 255 0
-0.380866 -0.416928 0.426677 255 255 0
-0.381289 -0.361045 0.503677 255 255 0
-0.291642 -0.457474 0.489678 255 255 0
-0.258097 -0.456522 0.486722 255 255 0
-0.379828 -0.424033 0.461677 255 255 0
-0.312607 -0.393589 -0.057293 255 255 0
-0.222203 -0.387197 0.495677 255 255 0
-0.376789 -0.436577 0.441677 255 255 0
-0.308136 -0.393467 0.058635 255 255 0
-0.336284 -0.411236 -0.047216 255 255 0
-0.288832 -0.304743 0.499678 255 255 0
-0.260738 -0.301286 0.419677 255 255 0
-0.213064 -0.336289 0.412748 255 255 0
-0.273295 -0.460721 0.503677 255 255 0
-0.269517 -0.471547 0.437678 255 255 0
-0.303002 -0.384827 0.047678 255 255 0
-0.299041 -0.383426 0.207677 255 255 0
-0.275143 -0.422092 -0.057294 255 255 0
-0.223134 -0.393383 0.453678 255 255 0
-0.259909 -0.455677 0.438700 255 255 0
-0.370242 -0.331405 0.455678 255 255 0
-0.356904 -0.311145 0.495677 255 255 0
-0.244549 -0.313893 0.499678 255 255 0
-0.297241 -0.464751 0.452682 255 255 0
-0.334447 -0.298451 0.485677 255 255 0
-0.356184 -0.304859 0.447677 255 255 0
-0.320693 -0.425127 -0.055306 255 255 0
-0.303328 -0.297972 0.459677 255 255 0
-0.254558 -0.439469 0.495677 255 255 0
-0.341650 -0.294971 0.423677 255 255 0
-0.224280 -0.336678 0.487677 255 255 0
-0.248941 -0.365901 -0.053461 255 255 0
-0.335364 -0.461321 0.433677 255 255 0
-0.337321 -0.456052 0.459677 255 255 0
-0.328372 -0.455789 0.479677 255 255 0
-0.241821 -0.428804 0.503677 255 255 0
-0.318505 -0.292659 0.479677 255 255 0
-0.330479 -0.427184 -0.045923 255 255 0
-0.264287 -0.360952 -0.048244 255 255 0
-0.280107 -0.472740 0.447677 255 255 0
-0.272797 -0.459652 0.455678 255 255 0
-0.237577 -0.308406 0.425678 255 255 0
-0.326036 -0.307884 0.501678 255 255 0
-0.224155 -0.421594 0.476753 255 255 0
-0.229685 -0.317505 0.441677 255 255 0
-0.234711 -0.323988 0.431677 255 255 0
-0.300059 -0.357215 -0.048322 255 255 0
-0.305430 -0.392396 0.175678 255 255 0
-0.342474 -0.315666 0.511904 255 255 0
-0.391028 -0.372468 0.443962 255 255 0
-0.339339 -0.455649 0.505677 255 255 0
-0.380331 -0.348768 0.467677 255 255 0
-0.330284 -0.474087 0.429677 255 255 0
-0.249523 -0.442867 0.460681 255 255 0
-0.248735 -0.455375 0.413677 255 255 0
-0.289895 -0.477390 0.431677 255 255 0
-0.328584 -0.470443 0.451677 255 255 0
-0.300554 -0.391403 0.291677 255 255 0
