ply
format ascii 1.0
element vertex 1302
property float x
property float y
property float z
property uchar red
property uchar green
property uchar blue
end_header
0.032724 -0.072520 0.190638 0 0 255
0.100895 -0.032498 0.120638 0 0 255
-0.003446 0.015893 0.152370 0 0 255
0.084275 -0.069740 0.125446 0 0 255
0.046995 -0.096359 0.140638 0 0 255
0.022647 -0.001052 0.125547 0 0 255
0.055319 -0.010465 0.125066 0 0 255
0.035986 -0.083048 0.120638 0 0 255
0.009552 -0.035637 0.120638 0 0 255
0.029931 0.032018 0.122638 0 0 255
0.071559 0.023657 0.120638 0 0 255
-0.001885 -0.001074 0.120638 0 0 255
0.045906 -0.043137 0.125135 0 0 255
0.024509 -0.057908 0.165516 0 0 255
0.009538 -0.025956 0.190638 0 0 255
0.044813 -0.094486 0.162638 0 0 255
0.085986 -0.048929 0.119711 0 0 255
0.035493 -0.063752 0.136638 0 0 255
0.002546 0.006943 0.171420 0 0 255
0.016856 -0.022730 0.154638 0 0 255
0.085617 -0.018338 0.125594 0 0 255
0.009483 -0.001806 0.154638 0 0 255
0.102420 -0.078151 0.127204 0 0 255
0.042860 -0.078544 0.174638 0 0 255
0.010406 -0.015923 0.120638 0 0 255
0.012972 -0.031735 0.172638 0 0 255
0.047768 -0.099992 0.122038 0 0 255
0.023560 -0.056065 0.190638 0 0 255
0.006581 -0.002423 0.187778 0 0 255
0.023554 -0.043798 0.129964 0 0 255
0.054223 -0.082263 0.125254 0 0 255
0.014859 -0.027244 0.136638 0 0 255
0.002961 0.004987 0.137837 0 0 255
0.068379 -0.052672 0.125326 0 0 255
0.063729 0.007680 0.125316 0 0 255
0.039546 -0.003595 0.119641 0 0 255
0.052776 -0.027364 0.119674 0 0 255
0.048542 0.031033 0.124860 0 0 255
0.028022 -0.040804 0.162638 0 0 255
0.081855 -0.087212 0.126638 0 0 255
0.102892 -0.049426 0.124638 0 0 255
0.023233 0.015430 0.119675 0 0 255
0.069041 -0.075023 0.119717 0 0 255
0.039305 -0.081344 0.138638 0 0 255
0.029962 -0.054704 0.149799 0 0 255
0.040944 -0.087129 0.189224 0 0 255
0.038619 -0.056953 0.119718 0 0 255
0.069135 -0.017752 0.119667 0 0 255
0.036888 -0.063455 0.176638 0 0 255
0.084616 -0.032864 0.119715 0 0 255
0.097137 -0.062917 0.119675 0 0 255
-0.007731 0.012937 0.122638 0 0 255
0.010788 0.006650 0.121999 0 0 255
0.042456 -0.017289 0.125340 0 0 255
0.005191 -0.014986 0.158638 0 0 255
0.041530 -0.070647 0.125483 0 0 255
-0.008899 0.012689 0.139686 0 0 255
0.032921 -0.039763 0.119714 0 0 255
0.023602 -0.015162 0.125464 0 0 255
-0.002827 0.003364 0.158638 0 0 255
0.043842 -0.086513 0.150638 0 0 255
0.058475 -0.044554 0.119678 0 0 255
0.058863 0.020958 0.125101 0 0 255
0.035094 0.007727 0.125324 0 0 255
0.068597 -0.005598 0.125241 0 0 255
0.050451 0.002813 0.125140 0 0 255
0.047492 -0.091872 0.176638 0 0 255
0.015154 -0.047628 0.120638 0 0 255
0.015807 -0.036205 0.160638 0 0 255
0.007351 -0.006042 0.128638 0 0 255
0.000474 -0.005766 0.168638 0 0 255
0.020259 -0.032230 0.186638 0 0 255
0.013481 -0.011179 0.146638 0 0 255
0.076327 -0.061206 0.119685 0 0 255
0.036200 -0.084049 0.162834 0 0 255
0.029111 -0.069942 0.168638 0 0 255
0.028232 -0.053028 0.176638 0 0 255
0.038052 0.022669 0.125259 0 0 255
0.017543 -0.044375 0.174638 0 0 255
0.016064 -0.020854 0.180638 0 0 255
0.075376 0.012200 0.124638 0 0 255
0.022223 -0.031813 0.126638 0 0 255
0.035340 -0.061740 0.160638 0 0 255
0.019958 -0.022071 0.166638 0 0 255
0.017820 0.026547 0.120638 0 0 255
0.005164 -0.014992 0.186907 0 0 255
0.028039 -0.055277 0.128638 0 0 255
-0.001444 0.016096 0.178638 0 0 255
0.062653 0.031987 0.119668 0 0 255
0.074541 -0.043184 0.119663 0 0 255
0.041455 -0.031814 0.125399 0 0 255
0.030382 -0.070972 0.120638 0 0 255
0.045688 -0.090210 0.128808 0 0 255
0.091488 -0.080476 0.122638 0 0 255
0.008021 -0.022563 0.146638 0 0 255
0.032448 -0.078712 0.180638 0 0 255
0.035122 -0.059741 0.187630 0 0 255
0.065005 -0.065658 0.125414 0 0 255
0.006287 -0.020279 0.130638 0 0 255
0.050356 -0.054458 0.125284 0 0 255
0.018906 -0.031548 0.146638 0 0 255
0.094520 -0.040982 0.125273 0 0 255
0.034774 -0.072083 0.144638 0 0 255
0.024378 -0.033400 0.172638 0 0 255
0.077083 -0.026286 0.125355 0 0 255
0.088065 -0.058711 0.125334 0 0 255
0.021302 -0.052440 0.142638 0 0 255
0.095693 -0.022330 0.120638 0 0 255
0.005468 0.007564 0.148638 0 0 255
0.056717 -0.094000 0.125484 0 0 255
0.000712 -0.003671 0.144805 0 0 255
0.077870 -0.010748 0.120638 0 0 255
0.042777 -0.076516 0.185636 0 0 255
0.071119 -0.084805 0.125319 0 0 255
0.080070 -0.078813 0.119639 0 0 255
0.002546 0.006943 0.183367 0 0 255
0.017440 -0.024651 0.119721 0 0 255
0.016083 -0.039252 0.136638 0 0 255
0.032060 -0.050169 0.166638 0 0 255
0.031842 -0.073166 0.132638 0 0 255
0.026758 -0.049251 0.119723 0 0 255
0.059769 -0.021787 0.125700 0 0 255
0.020962 -0.046394 0.186638 0 0 255
0.009606 -0.024271 0.164638 0 0 255
0.048656 -0.094555 0.188638 0 0 255
0.043457 -0.100909 0.172638 0 0 255
0.015654 -0.006628 0.119723 0 0 255
0.033170 -0.012082 0.120638 0 0 255
0.000776 0.012701 0.162638 0 0 255
0.010276 -0.005726 0.164638 0 0 255
0.009893 -0.003763 0.138638 0 0 255
0.039420 -0.071096 0.166638 0 0 255
0.111370 -0.072160 0.125300 0 0 255
0.028545 -0.067274 0.181811 0 0 255
0.039470 0.035239 0.119665 0 0 255
0.091241 -0.011009 0.120638 0 0 255
0.006766 -0.003290 0.176638 0 0 255
0.059524 -0.001393 0.122036 0 0 255
0.014577 0.017678 0.125067 0 0 255
0.046987 -0.096321 0.152638 0 0 255
0.027738 -0.044953 0.152638 0 0 255
0.030885 -0.049429 0.186638 0 0 255
0.000882 0.014768 0.142800 0 0 255
0.048646 -0.075269 0.119686 0 0 255
0.036540 -0.047172 0.125759 0 0 255
0.056614 0.012302 0.119654 0 0 255
0.024811 -0.035352 0.154638 0 0 255
0.035570 -0.063735 0.150638 0 0 255
0.022723 -0.039885 0.119688 0 0 255
0.058353 -0.034357 0.125347 0 0 255
0.021453 -0.048334 0.160638 0 0 255
0.050579 0.040689 0.120638 0 0 255
0.012861 -0.017445 0.138638 0 0 255
0.058843 -0.075146 0.119683 0 0 255
0.105379 -0.063210 0.125594 0 0 255
0.001714 0.010856 0.119641 0 0 255
0.034977 -0.082263 0.148638 0 0 255
0.078576 -0.052549 0.125418 0 0 255
0.043934 -0.080360 0.128638 0 0 255
0.060970 -0.056292 0.119644 0 0 255
0.095059 -0.053136 0.119668 0 0 255
0.050697 -0.017582 0.119722 0 0 255
0.062879 -0.084511 0.119755 0 0 255
0.030472 0.000611 0.119645 0 0 255
0.046813 -0.085882 0.119704 0 0 255
0.043832 -0.086515 0.168638 0 0 255
0.015361 -0.014869 0.161654 0 0 255
0.026926 -0.065573 0.128638 0 0 255
0.084322 -0.041105 0.125521 0 0 255
0.027855 0.022546 0.124748 0 0 255
0.070847 0.003058 0.119718 0 0 255
0.094889 -0.071574 0.125242 0 0 255
0.103129 -0.071867 0.119654 0 0 255
0.033431 0.015552 0.119651 0 0 255
0.092441 -0.031200 0.125205 0 0 255
-0.004769 0.007433 0.146638 0 0 255
0.002975 -0.009323 0.120638 0 0 255
0.025229 -0.061296 0.156638 0 0 255
0.050206 0.023207 0.119737 0 0 255
0.011906 -0.027872 0.126638 0 0 255
0.064930 -0.026825 0.119706 0 0 255
0.065979 0.016337 0.119711 0 0 255
0.029083 -0.079428 0.125611 0 0 255
0.016609 -0.020739 0.130169 0 0 255
0.109797 -0.055143 0.120638 0 0 255
0.004332 -0.011080 0.148971 0 0 255
0.074078 -0.069863 0.125461 0 0 255
0.046881 -0.009251 0.120638 0 0 255
0.016438 -0.039177 0.126343 0 0 255
0.017024 -0.022695 0.144817 0 0 255
0.020568 0.008729 0.125171 0 0 255
0.043356 -0.080482 0.158638 0 0 255
0.050943 -0.037977 0.119701 0 0 255
0.103699 -0.041076 0.120638 0 0 255
0.002265 -0.005385 0.158638 0 0 255
0.005858 0.005602 0.158638 0 0 255
0.066300 -0.042891 0.125107 0 0 255
0.063559 -0.010758 0.119750 0 0 255
0.044195 -0.063947 0.119691 0 0 255
0.012163 -0.011459 0.182638 0 0 255
0.039659 -0.095582 0.180638 0 0 255
0.028407 -0.067302 0.140638 0 0 255
0.040528 -0.085173 0.180048 0 0 255
0.057492 0.037024 0.124821 0 0 255
0.008859 -0.026475 0.154638 0 0 255
0.024699 -0.047644 0.170638 0 0 255
0.045272 -0.088254 0.137856 0 0 255
0.033166 -0.060157 0.168930 0 0 255
0.020228 -0.028148 0.178493 0 0 255
0.041971 -0.024627 0.120638 0 0 255
0.036932 -0.063445 0.126638 0 0 255
0.020419 -0.040375 0.166638 0 0 255
0.010739 -0.021986 0.173981 0 0 255
0.034895 -0.072058 0.174638 0 0 255
0.031626 -0.062529 0.119675 0 0 255
0.019907 -0.028215 0.160638 0 0 255
0.028370 -0.052997 0.158638 0 0 255
0.032675 -0.019368 0.125514 0 0 255
0.024096 -0.007871 0.120638 0 0 255
0.004735 -0.012974 0.178638 0 0 255
0.077206 -0.036483 0.125157 0 0 255
0.041379 0.007018 0.119641 0 0 255
0.043240 -0.049837 0.119665 0 0 255
0.027344 -0.032769 0.119659 0 0 255
0.077792 -0.020001 0.119733 0 0 255
-0.003323 0.005696 0.125397 0 0 255
0.016882 -0.037037 0.180638 0 0 255
0.026718 -0.058681 0.182638 0 0 255
0.086865 -0.024206 0.119757 0 0 255
0.059723 -0.050423 0.125510 0 0 255
0.040187 -0.093191 0.172638 0 0 255
0.011368 -0.013673 0.128638 0 0 255
0.047787 -0.085675 0.184638 0 0 255
0.033677 -0.004842 0.125465 0 0 255
0.021001 -0.051022 0.126638 0 0 255
0.000498 0.014686 0.186638 0 0 255
0.037201 -0.069522 0.182349 0 0 255
0.055639 -0.069693 0.125409 0 0 255
0.006368 -0.001421 0.120638 0 0 255
0.005965 -0.016867 0.166638 0 0 255
0.051454 0.017338 0.125400 0 0 255
0.033213 -0.031521 0.125470 0 0 255
0.023309 -0.023404 0.125508 0 0 255
0.042701 -0.037683 0.119731 0 0 255
0.089728 -0.066537 0.119759 0 0 255
0.026853 0.008021 0.119647 0 0 255
0.014407 -0.000760 0.125448 0 0 255
0.029312 -0.065066 0.190638 0 0 255
0.055469 -0.088131 0.119725 0 0 255
0.017147 -0.032892 0.119684 0 0 255
0.001082 -0.009726 0.132638 0 0 255
0.012149 -0.009378 0.156638 0 0 255
0.007168 0.014059 0.124697 0 0 255
0.038449 -0.075391 0.119693 0 0 255
0.068086 -0.060913 0.119674 0 0 255
0.020889 -0.050498 0.179728 0 0 255
0.057199 0.028784 0.125473 0 0 255
0.008495 -0.004061 0.146638 0 0 255
0.039716 0.014843 0.125369 0 0 255
0.051065 -0.048174 0.119651 0 0 255
0.046930 -0.087901 0.158638 0 0 255
0.074002 -0.031030 0.119729 0 0 255
0.010528 -0.017942 0.152638 0 0 255
0.063097 -0.037438 0.119734 0 0 255
0.076422 -0.003935 0.125391 0 0 255
0.039532 -0.073117 0.134638 0 0 255
0.063588 -0.078227 0.125262 0 0 255
0.028560 -0.063181 0.174638 0 0 255
0.065856 0.026534 0.125312 0 0 255
0.051699 -0.003056 0.119645 0 0 255
0.036837 -0.087048 0.154638 0 0 255
-0.000436 0.011354 0.134638 0 0 255
0.002296 0.000756 0.164638 0 0 255
0.049695 -0.032108 0.125101 0 0 255
0.021306 -0.052455 0.150470 0 0 255
0.042626 0.001149 0.124990 0 0 255
0.008783 -0.022401 0.182902 0 0 255
0.083954 -0.010513 0.125385 0 0 255
0.014473 -0.033460 0.152638 0 0 255
0.027615 -0.065426 0.162638 0 0 255
0.076489 -0.090824 0.122638 0 0 255
-0.004864 0.003323 0.140248 0 0 255
0.038141 -0.079547 0.168638 0 0 255
-0.002697 0.012370 0.170638 0 0 255
0.015824 0.011810 0.119649 0 0 255
0.019034 -0.041772 0.156638 0 0 255
0.027562 0.014305 0.125782 0 0 255
0.008982 -0.023336 0.120638 0 0 255
-0.000670 -0.001919 0.152638 0 0 255
0.098292 -0.077968 0.120638 0 0 255
0.099803 -0.056216 0.125569 0 0 255
0.002569 0.011037 0.154638 0 0 255
0.014237 -0.019198 0.187724 0 0 255
0.040792 -0.009463 0.124990 0 0 255
0.072216 -0.013007 0.124977 0 0 255
0.047403 -0.091891 0.146638 0 0 255
0.015170 -0.027178 0.184638 0 0 255
0.031210 -0.060572 0.145425 0 0 255
0.042947 -0.058078 0.125634 0 0 255
0.017733 -0.016410 0.119649 0 0 255
0.016737 -0.016621 0.170638 0 0 255
0.024065 -0.039601 0.148638 0 0 255
0.050064 -0.062700 0.125575 0 0 255
0.057889 -0.061036 0.125571 0 0 255
0.039893 -0.077129 0.146638 0 0 255
-0.001704 0.017317 0.120638 0 0 255
0.029423 -0.042551 0.125674 0 0 255
0.035670 -0.078027 0.128638 0 0 255
0.092271 -0.049639 0.125514 0 0 255
0.049572 -0.021911 0.125558 0 0 255
0.019859 0.002444 0.119711 0 0 255
0.032996 -0.078595 0.141734 0 0 255
0.080656 -0.062331 0.125509 0 0 255
0.084398 -0.079938 0.125458 0 0 255
0.023977 -0.039619 0.186638 0 0 255
0.056131 0.004953 0.120638 0 0 255
0.017156 -0.032934 0.132638 0 0 255
0.028346 -0.018244 0.119716 0 0 255
0.042874 0.028845 0.120638 0 0 255
0.078406 -0.070987 0.119684 0 0 255
0.054146 -0.043429 0.125445 0 0 255
0.004503 0.007359 0.125657 0 0 255
-0.005551 0.009311 0.154638 0 0 255
0.074248 -0.051425 0.119686 0 0 255
0.045291 0.007850 0.125889 0 0 255
0.045877 0.024332 0.125565 0 0 255
0.070383 -0.023621 0.124695 0 0 255
0.058938 -0.017875 0.119666 0 0 255
0.033151 -0.068339 0.158638 0 0 255
0.087480 -0.075194 0.119745 0 0 255
0.047786 -0.003888 0.125689 0 0 255
0.012859 -0.027669 0.148638 0 0 255
0.036688 -0.081900 0.186638 0 0 255
0.053116 0.009513 0.125451 0 0 255
0.085740 -0.028535 0.125509 0 0 255
0.020462 -0.032187 0.166638 0 0 255
0.064126 -0.090380 0.125384 0 0 255
0.075741 -0.077689 0.125299 0 0 255
0.073539 -0.057710 0.125382 0 0 255
0.097724 -0.046434 0.119682 0 0 255
0.083321 -0.055631 0.119703 0 0 255
0.018442 -0.010125 0.125551 0 0 255
0.050433 -0.093291 0.119738 0 0 255
0.033459 -0.051916 0.119760 0 0 255
0.088651 -0.042229 0.119682 0 0 255
0.061508 -0.068446 0.119712 0 0 255
0.036785 -0.067566 0.119664 0 0 255
0.027684 0.004107 0.125623 0 0 255
0.065592 -0.049176 0.119697 0 0 255
0.064807 -0.016627 0.125276 0 0 255
0.035264 0.026165 0.119651 0 0 255
0.046860 -0.057247 0.119689 0 0 255
0.040840 0.019172 0.119677 0 0 255
0.039205 -0.040472 0.125307 0 0 255
0.002408 -0.002030 0.136638 0 0 255
0.000712 -0.003671 0.127537 0 0 255
0.018754 -0.055041 0.120638 0 0 255
0.036587 -0.018536 0.119660 0 0 255
0.032580 -0.076639 0.152520 0 0 255
0.064069 0.038422 0.122638 0 0 255
0.021179 -0.027946 0.152638 0 0 255
0.091316 -0.035529 0.119751 0 0 255
0.037126 -0.030690 0.119675 0 0 255
0.036389 0.030494 0.125088 0 0 255
0.012403 -0.029810 0.159683 0 0 255
0.045367 -0.030983 0.119648 0 0 255
0.062359 0.023746 0.119713 0 0 255
0.001488 0.002302 0.188638 0 0 255
0.026758 -0.049251 0.146809 0 0 255
0.005886 0.000846 0.170638 0 0 255
0.047141 -0.097046 0.128638 0 0 255
0.069405 0.009836 0.120638 0 0 255
0.076714 0.004306 0.125524 0 0 255
0.030660 -0.060690 0.132638 0 0 255
0.084786 -0.014425 0.119666 0 0 255
-0.002969 0.003725 0.168638 0 0 255
0.069475 0.019125 0.125495 0 0 255
0.073417 -0.047512 0.125382 0 0 255
0.005164 -0.014992 0.125930 0 0 255
0.075032 -0.083973 0.119711 0 0 255
0.051557 -0.088963 0.125328 0 0 255
0.052871 0.029908 0.119653 0 0 255
0.001485 0.002628 0.176638 0 0 255
0.047702 -0.095916 0.170638 0 0 255
0.046935 -0.096079 0.181996 0 0 255
0.072509 -0.004767 0.119712 0 0 255
0.039819 -0.091458 0.159120 0 0 255
0.040980 -0.085077 0.144638 0 0 255
0.026466 -0.057492 0.119686 0 0 255
0.093225 -0.063748 0.125173 0 0 255
0.036562 -0.075792 0.162638 0 0 255
0.023451 -0.033693 0.180638 0 0 255
0.083123 -0.006601 0.119672 0 0 255
0.104547 -0.059298 0.119702 0 0 255
0.065809 -0.002102 0.119678 0 0 255
0.004069 -0.009841 0.164638 0 0 255
0.010342 -0.010496 0.138638 0 0 255
0.025067 0.026042 0.119702 0 0 255
0.049620 0.006726 0.119718 0 0 255
0.038080 -0.044799 0.119675 0 0 255
0.005841 -0.006670 0.182638 0 0 255
0.032750 -0.058201 0.176431 0 0 255
0.044922 0.038442 0.123399 0 0 255
0.117007 -0.069818 0.122638 0 0 255
0.028639 -0.010002 0.125039 0 0 255
0.016736 -0.016622 0.148638 0 0 255
0.041625 -0.013376 0.119699 0 0 255
0.090777 -0.023375 0.125043 0 0 255
0.001396 0.002732 0.146638 0 0 255
0.013234 -0.033724 0.166326 0 0 255
0.025096 -0.041426 0.172853 0 0 255
0.034291 -0.055828 0.125020 0 0 255
0.078917 -0.015673 0.124902 0 0 255
0.027963 -0.048995 0.126638 0 0 255
0.025550 -0.057686 0.172638 0 0 255
0.035626 -0.065769 0.166638 0 0 255
0.011373 0.023132 0.123413 0 0 255
0.007710 -0.017356 0.142638 0 0 255
0.007922 -0.008730 0.188638 0 0 255
0.024632 -0.068105 0.121507 0 0 255
0.081951 -0.039564 0.119690 0 0 255
0.013506 -0.011175 0.166638 0 0 255
0.017147 -0.032892 0.140568 0 0 255
0.019326 -0.044696 0.124638 0 0 255
0.089739 -0.018489 0.120638 0 0 255
0.032835 -0.054093 0.182638 0 0 255
0.047064 -0.094008 0.134638 0 0 255
0.083028 -0.063871 0.119721 0 0 255
0.036342 0.001858 0.121985 0 0 255
0.037835 -0.024405 0.125552 0 0 255
0.071706 -0.068322 0.119710 0 0 255
0.026219 -0.037098 0.124652 0 0 255
0.017060 -0.022861 0.174638 0 0 255
0.014482 -0.039592 0.119644 0 0 255
0.041369 -0.079510 0.152638 0 0 255
0.031966 -0.058367 0.154638 0 0 255
0.063389 -0.029196 0.125436 0 0 255
0.044531 -0.080233 0.180638 0 0 255
0.001960 -0.009540 0.174048 0 0 255
0.040895 -0.072827 0.176638 0 0 255
0.034413 -0.066026 0.186940 0 0 255
0.009785 -0.007876 0.121836 0 0 255
0.020862 0.016970 0.125733 0 0 255
0.107004 -0.046507 0.120638 0 0 255
0.096967 -0.081355 0.127804 0 0 255
0.033856 -0.070233 0.138638 0 0 255
0.058154 0.014673 0.125615 0 0 255
0.066934 0.002227 0.124891 0 0 255
0.078869 -0.044309 0.125018 0 0 255
0.017092 -0.041083 0.142638 0 0 255
0.104670 -0.069495 0.125339 0 0 255
0.054610 -0.016750 0.125290 0 0 255
0.034135 -0.070175 0.150638 0 0 255
0.014893 -0.022290 0.160638 0 0 255
0.019812 -0.026191 0.130395 0 0 255
0.108583 -0.068663 0.119768 0 0 255
0.035871 -0.065716 0.144638 0 0 255
0.039826 -0.075099 0.140638 0 0 255
0.006850 -0.028946 0.122638 0 0 255
0.054931 -0.075978 0.125368 0 0 255
0.059893 -0.031985 0.119666 0 0 255
0.081412 -0.027410 0.119649 0 0 255
0.054269 -0.053627 0.119717 0 0 255
0.063342 -0.057832 0.125600 0 0 255
0.024141 -0.027315 0.119728 0 0 255
0.021570 0.023255 0.124816 0 0 255
0.029204 -0.046687 0.160638 0 0 255
0.029200 -0.046688 0.178638 0 0 255
0.033016 0.017508 0.125804 0 0 255
0.071337 -0.037730 0.119704 0 0 255
0.049355 -0.068984 0.125319 0 0 255
0.043609 -0.080429 0.119674 0 0 255
0.047909 -0.014085 0.125365 0 0 255
0.064297 -0.071942 0.125290 0 0 255
0.004918 0.005403 0.119653 0 0 255
0.068332 -0.081308 0.119705 0 0 255
0.039744 -0.052625 0.125045 0 0 255
0.008679 0.002113 0.136638 0 0 255
0.045169 0.018047 0.125384 0 0 255
0.058229 -0.024160 0.119672 0 0 255
0.009086 0.000154 0.160638 0 0 255
0.101343 -0.053844 0.119719 0 0 255
0.079701 -0.048221 0.119764 0 0 255
0.060771 -0.007262 0.125091 0 0 255
0.043187 -0.090742 0.182638 0 0 255
0.089605 -0.056339 0.119693 0 0 255
-0.005114 0.014123 0.144638 0 0 255
0.024509 -0.057908 0.151371 0 0 255
0.040005 -0.083240 0.132638 0 0 255
0.016022 -0.037220 0.173198 0 0 255
-0.001706 0.010129 0.176638 0 0 255
0.030219 -0.055917 0.188638 0 0 255
0.020929 -0.050684 0.166638 0 0 255
-0.003418 0.005675 0.190638 0 0 255
0.008486 -0.006107 0.170638 0 0 255
0.029418 -0.058909 0.160638 0 0 255
0.051850 -0.080721 0.119672 0 0 255
0.019853 -0.042540 0.180638 0 0 255
0.005845 -0.008578 0.154638 0 0 255
-0.006943 0.013105 0.185087 0 0 255
0.096429 -0.069201 0.119676 0 0 255
0.023848 -0.035557 0.162626 0 0 255
0.002188 0.013001 0.148638 0 0 255
0.093981 -0.028829 0.119665 0 0 255
0.046690 -0.075685 0.125623 0 0 255
0.010802 -0.017883 0.178638 0 0 255
0.005369 -0.019038 0.136638 0 0 255
0.002502 0.000800 0.182638 0 0 255
0.054733 -0.026948 0.125500 0 0 255
0.037124 -0.083852 0.126638 0 0 255
0.031533 -0.071714 0.126638 0 0 255
0.062189 0.005308 0.119680 0 0 255
0.076299 0.006262 0.119716 0 0 255
0.038311 -0.079510 0.178638 0 0 255
0.036676 -0.075769 0.186638 0 0 255
0.085031 -0.034820 0.125505 0 0 255
0.043486 -0.070231 0.119697 0 0 255
0.057322 0.018586 0.119673 0 0 255
0.012450 -0.001176 0.119683 0 0 255
0.014775 -0.031352 0.179971 0 0 255
0.020503 -0.052625 0.186638 0 0 255
0.001098 0.008680 0.142638 0 0 255
-0.000658 0.012396 0.125037 0 0 255
0.039227 -0.093628 0.166638 0 0 255
-0.003739 0.007652 0.119644 0 0 255
0.090124 -0.084854 0.126638 0 0 255
0.064438 0.013965 0.125091 0 0 255
0.025096 -0.041426 0.156911 0 0 255
0.036405 -0.069692 0.130638 0 0 255
0.084861 -0.053258 0.125074 0 0 255
0.038742 -0.067151 0.171652 0 0 255
0.030009 -0.026069 0.125465 0 0 255
-0.024521 -0.058106 0.119765 0 255 255
0.032389 -0.088948 0.128638 0 255 255
-0.019163 -0.112174 0.133480 0 255 255
0.005962 -0.028371 0.122638 0 255 255
0.011230 -0.062775 0.119707 0 255 255
-0.000970 -0.091949 0.117752 0 255 255
-0.049575 -0.051163 0.132638 0 255 255
-0.023444 -0.082413 0.124701 0 255 255
-0.014569 -0.037588 0.119691 0 255 255
-0.007916 -0.068889 0.124829 0 255 255
0.017552 -0.082896 0.116638 0 255 255
0.014580 -0.097770 0.128638 0 255 255
0.001620 -0.046416 0.125751 0 255 255
-0.039336 -0.069434 0.120638 0 255 255
-0.041126 -0.047323 0.117683 0 255 255
-0.018161 -0.097647 0.117654 0 255 255
-0.004162 -0.105791 0.128638 0 255 255
0.004360 -0.078548 0.124997 0 255 255
0.023691 -0.070350 0.122638 0 255 255
-0.008870 -0.054780 0.119733 0 255 255
-0.027432 -0.044412 0.123205 0 255 255
0.014189 -0.047833 0.119652 0 255 255
-0.009041 -0.082837 0.124638 0 255 255
0.020133 -0.085419 0.128894 0 255 255
-0.019654 -0.071385 0.119746 0 255 255
-0.041003 -0.057520 0.125127 0 255 255
0.029282 -0.080361 0.118638 0 255 255
0.004899 -0.090702 0.128199 0 255 255
-0.002416 -0.037050 0.119646 0 255 255
-0.013833 -0.098773 0.128575 0 255 255
0.000618 -0.060941 0.125237 0 255 255
-0.028727 -0.067179 0.125451 0 255 255
-0.020097 -0.107778 0.122638 0 255 255
-0.016403 -0.048202 0.125128 0 255 255
0.013310 -0.072556 0.125313 0 255 255
0.008198 -0.038883 0.119734 0 255 255
0.009618 -0.089699 0.118638 0 255 255
-0.015864 -0.060355 0.125199 0 255 255
0.005022 -0.100899 0.125929 0 255 255
-0.004467 -0.094737 0.128054 0 255 255
-0.031637 -0.053485 0.125397 0 255 255
0.005239 -0.053825 0.119686 0 255 255
0.000740 -0.071139 0.119706 0 255 255
-0.010215 -0.091869 0.120638 0 255 255
-0.019409 -0.091779 0.125210 0 255 255
-0.007453 -0.042211 0.125458 0 255 255
0.018010 -0.056189 0.120638 0 255 255
-0.033887 -0.062141 0.119702 0 255 255
0.031162 -0.089209 0.119841 0 255 255
-0.005505 -0.099474 0.120638 0 255 255
-0.010581 -0.075590 0.119717 0 255 255
-0.016743 -0.085078 0.119692 0 255 255
0.017227 -0.090982 0.122638 0 255 255
0.011477 -0.083169 0.126785 0 255 255
-0.047256 -0.050670 0.122638 0 255 255
-0.004250 -0.047663 0.119676 0 255 255
0.024755 -0.078303 0.125496 0 255 255
0.022068 -0.094519 0.130638 0 255 255
0.006194 -0.067935 0.125039 0 255 255
-0.027063 -0.075004 0.119713 0 255 255
-0.002451 -0.079996 0.120638 0 255 255
-0.017112 -0.054487 0.119679 0 255 255
-0.012577 -0.104640 0.122638 0 255 255
-0.005251 -0.062189 0.119727 0 255 255
-0.003002 -0.053532 0.125232 0 255 255
0.009983 -0.056906 0.125490 0 255 255
-0.023813 -0.051821 0.125789 0 255 255
-0.016116 -0.078812 0.124638 0 255 255
-0.035257 -0.046076 0.123178 0 255 255
0.010229 -0.077300 0.119708 0 255 255
0.018054 -0.075638 0.119710 0 255 255
0.003651 -0.084833 0.119641 0 255 255
-0.002217 -0.086080 0.125992 0 255 255
-0.012660 -0.065809 0.119718 0 255 255
0.017932 -0.065440 0.123284 0 255 255
0.025293 -0.090457 0.125210 0 255 255
0.024462 -0.086544 0.117769 0 255 255
-0.021148 -0.041032 0.120638 0 255 255
-0.021780 -0.090238 0.117743 0 255 255
0.003453 -0.035803 0.124481 0 255 255
0.008373 -0.049070 0.124638 0 255 255
-0.020902 -0.065516 0.124997 0 255 255
-0.009116 -0.034385 0.123158 0 255 255
-0.010950 -0.044998 0.119666 0 255 255
0.005730 -0.094614 0.122210 0 255 255
-0.035966 -0.052361 0.119753 0 255 255
-0.028141 -0.050697 0.119768 0 255 255
-0.023567 -0.072216 0.125535 0 255 255
-0.015741 -0.070553 0.125491 0 255 255
0.003405 -0.064439 0.119748 0 255 255
-0.008039 -0.058692 0.125369 0 255 255
-0.002756 -0.073926 0.124947 0 255 255
-0.009703 -0.050867 0.125273 0 255 255
0.000249 -0.030349 0.119707 0 255 255
-0.022053 -0.112788 0.126638 0 255 255
0.003160 -0.044043 0.119687 0 255 255
-0.037383 -0.064930 0.125142 0 255 255
-0.024814 -0.066347 0.119725 0 255 255
0.012787 -0.089335 0.128638 0 255 255
-0.040333 -0.051051 0.124638 0 255 255
-0.011876 -0.098357 0.119891 0 255 255
0.018224 -0.079691 0.126638 0 255 255
-0.013124 -0.092488 0.126369 0 255 255
-0.000872 -0.067392 0.124638 0 255 255
-0.013986 -0.041554 0.124638 0 255 255
-0.028434 -0.058937 0.124737 0 255 255
-0.000214 -0.057030 0.119723 0 255 255
-0.020315 -0.049033 0.119752 0 255 255
-0.007671 -0.089284 0.126035 0 255 255
-0.030267 -0.069551 0.119728 0 255 255
-0.040172 -0.061432 0.119654 0 255 255
-0.020363 -0.077669 0.119695 0 255 255
0.010522 -0.069060 0.119728 0 255 255
0.011524 -0.054533 0.119734 0 255 255
0.000278 -0.097818 0.122493 0 255 255
-0.032854 -0.092592 0.158638 0 0 255
-0.032639 -0.068010 0.119741 0 0 255
-0.052368 -0.102874 0.124638 0 0 255
-0.016385 -0.103404 0.120638 0 0 255
-0.057431 -0.095665 0.180638 0 0 255
-0.036127 -0.070841 0.176638 0 0 255
-0.052263 -0.081505 0.138638 0 0 255
-0.033396 -0.102931 0.180790 0 0 255
-0.030142 -0.089378 0.134638 0 0 255
-0.048681 -0.102091 0.146638 0 0 255
-0.051633 -0.086361 0.162638 0 0 255
-0.024653 -0.086343 0.176638 0 0 255
-0.045549 -0.103470 0.166691 0 0 255
-0.024984 -0.084785 0.117725 0 0 255
-0.052911 -0.078453 0.178644 0 0 255
-0.037003 -0.105198 0.132638 0 0 255
-0.037969 -0.081412 0.145616 0 0 255
-0.035058 -0.095106 0.121748 0 0 255
-0.028188 -0.079333 0.163640 0 0 255
-0.056059 -0.095480 0.136638 0 0 255
-0.033626 -0.098891 0.144638 0 0 255
-0.045502 -0.074834 0.166991 0 0 255
-0.037431 -0.093566 0.171788 0 0 255
-0.045206 -0.091129 0.152638 0 0 255
-0.047505 -0.103886 0.179176 0 0 255
-0.039681 -0.102222 0.154877 0 0 255
-0.022905 -0.094567 0.125130 0 0 255
-0.043080 -0.095845 0.136638 0 0 255
-0.036181 -0.080208 0.130638 0 0 255
-0.048460 -0.089776 0.173019 0 0 255
-0.035767 -0.082153 0.176638 0 0 255
-0.041221 -0.104595 0.122179 0 0 255
-0.051211 -0.098539 0.158638 0 0 255
-0.049461 -0.104301 0.135392 0 0 255
-0.053916 -0.092963 0.146638 0 0 255
-0.033329 -0.078380 0.120638 0 0 255
-0.042340 -0.094609 0.162638 0 0 255
-0.036113 -0.085106 0.166638 0 0 255
-0.035687 -0.101770 0.166638 0 0 255
-0.057613 -0.094809 0.122638 0 0 255
-0.053346 -0.098993 0.170638 0 0 255
-0.030293 -0.098292 0.130638 0 0 255
-0.037334 -0.084402 0.156638 0 0 255
-0.043130 -0.076374 0.179914 0 0 255
-0.028799 -0.076455 0.172638 0 0 255
-0.038049 -0.090658 0.142638 0 0 255
-0.029585 -0.093942 0.178638 0 0 255
-0.050123 -0.081950 0.147634 0 0 255
-0.033571 -0.086610 0.124638 0 0 255
-0.041145 -0.104952 0.140638 0 0 255
-0.055341 -0.087149 0.178638 0 0 255
-0.044076 -0.081545 0.172638 0 0 255
-0.045942 -0.082384 0.156638 0 0 255
-0.024551 -0.101051 0.118638 0 0 255
-0.037638 -0.092589 0.130638 0 0 255
-0.037090 -0.075929 0.168638 0 0 255
-0.039156 -0.104689 0.174638 0 0 255
-0.049438 -0.089984 0.136638 0 0 255
-0.044629 -0.098178 0.128638 0 0 255
-0.050710 -0.098432 0.117645 0 0 255
-0.034022 -0.090362 0.150638 0 0 255
-0.017329 -0.101561 0.128744 0 0 255
-0.033420 -0.102819 0.124638 0 0 255
-0.045879 -0.092301 0.144638 0 0 255
-0.044840 -0.097185 0.175636 0 0 255
-0.025015 -0.084641 0.168638 0 0 255
-0.021365 -0.092194 0.117778 0 0 255
-0.044920 -0.082889 0.164638 0 0 255
-0.034884 -0.082800 0.138638 0 0 255
-0.044874 -0.106643 0.128638 0 0 255
-0.029436 -0.073464 0.125042 0 0 255
-0.027772 -0.081289 0.124932 0 0 255
-0.052488 -0.090631 0.154638 0 0 255
-0.028545 -0.091676 0.120638 0 0 255
-0.032227 -0.098808 0.172638 0 0 255
-0.032394 -0.088405 0.174441 0 0 255
-0.047725 -0.073989 0.174638 0 0 255
-0.053149 -0.094862 0.164638 0 0 255
-0.056994 -0.097723 0.129271 0 0 255
-0.032398 -0.094540 0.166638 0 0 255
-0.031370 -0.093218 0.140638 0 0 255
-0.052400 -0.100092 0.140638 0 0 255
-0.054621 -0.093130 0.174638 0 0 255
-0.036136 -0.070799 0.125084 0 0 255
-0.034370 -0.098345 0.152638 0 0 255
-0.033811 -0.100975 0.137119 0 0 255
-0.045726 -0.102639 0.158638 0 0 255
-0.032932 -0.076251 0.179330 0 0 255
-0.050908 -0.097494 0.132638 0 0 255
-0.045448 -0.094324 0.168638 0 0 255
-0.049041 -0.083765 0.176638 0 0 255
-0.050787 -0.098064 0.178638 0 0 255
-0.040512 -0.098309 0.119696 0 0 255
-0.045571 -0.089162 0.160638 0 0 255
-0.044479 -0.084840 0.150638 0 0 255
-0.034698 -0.099118 0.160638 0 0 255
-0.031566 -0.082096 0.170638 0 0 255
-0.041554 -0.103024 0.148638 0 0 255
-0.040009 -0.091054 0.156638 0 0 255
-0.029839 -0.091951 0.128638 0 0 255
-0.052942 -0.087925 0.142638 0 0 255
-0.039577 -0.093084 0.148638 0 0 255
-0.049707 -0.083907 0.170173 0 0 255
-0.028853 -0.081518 0.176638 0 0 255
-0.051303 -0.076067 0.164638 0 0 255
-0.051949 -0.096651 0.152638 0 0 255
-0.047674 -0.103921 0.172638 0 0 255
-0.041920 -0.072450 0.172638 0 0 255
-0.046149 -0.100648 0.122638 0 0 255
-0.042976 -0.105958 0.134638 0 0 255
-0.024568 -0.086742 0.124711 0 0 255
-0.036748 -0.091375 0.136638 0 0 255
-0.037847 -0.091609 0.165637 0 0 255
-0.040331 -0.102361 0.162638 0 0 255
-0.023214 -0.100767 0.124638 0 0 255
-0.038079 -0.085524 0.150638 0 0 255
-0.019123 -0.097853 0.118638 0 0 255
-0.051849 -0.078228 0.172638 0 0 255
-0.051446 -0.037248 0.137764 0 0 255
-0.015722 0.025551 0.141564 0 0 255
0.005702 -0.027145 0.119680 0 0 255
-0.060665 0.006127 0.140638 0 0 255
-0.021932 -0.012572 0.144332 0 0 255
-0.024351 -0.039668 0.119659 0 0 255
-0.013936 0.007528 0.122056 0 0 255
-0.062305 -0.015020 0.125673 0 0 255
-0.034746 0.009239 0.144307 0 0 255
0.003208 -0.015408 0.141782 0 0 255
-0.046239 -0.013650 0.144231 0 0 255
-0.046579 -0.050527 0.119709 0 0 255
-0.029512 -0.034630 0.142710 0 0 255
-0.016561 -0.018601 0.120638 0 0 255
-0.006820 0.002908 0.141449 0 0 255
-0.042703 -0.030283 0.120638 0 0 255
-0.011061 -0.028664 0.138638 0 0 255
-0.058223 0.004249 0.123776 0 0 255
-0.028997 -0.027432 0.128638 0 0 255
-0.009533 -0.032429 0.123324 0 0 255
-0.002852 -0.015756 0.126638 0 0 255
-0.038433 -0.040751 0.130638 0 0 255
-0.049357 -0.022492 0.132638 0 0 255
-0.022887 0.001537 0.139737 0 0 255
-0.060476 -0.008497 0.142638 0 0 255
-0.050885 -0.006459 0.130638 0 0 255
-0.045835 -0.050368 0.138638 0 0 255
-0.035748 -0.005286 0.139739 0 0 255
-0.034378 -0.021353 0.143932 0 0 255
-0.047609 0.002417 0.143995 0 0 255
-0.018584 0.019777 0.126638 0 0 255
-0.021468 0.014107 0.144097 0 0 255
-0.009778 -0.012034 0.139797 0 0 255
-0.045285 -0.027760 0.143900 0 0 255
-0.049064 -0.019599 0.120638 0 0 255
-0.021809 -0.022770 0.137683 0 0 255
-0.040833 -0.039082 0.143729 0 0 255
-0.035673 -0.044119 0.119705 0 0 255
-0.062388 -0.002770 0.132638 0 0 255
-0.059516 -0.018517 0.136705 0 0 255
-0.000966 -0.024474 0.134638 0 0 255
-0.045036 0.013186 0.140638 0 0 255
-0.021396 -0.034331 0.134638 0 0 255
-0.030820 0.019627 0.140638 0 0 255
-0.040748 -0.029863 0.132638 0 0 255
-0.011271 0.014229 0.139711 0 0 255
-0.012226 -0.019756 0.130638 0 0 255
-0.005743 -0.021400 0.144461 0 0 255
-0.055066 -0.029839 0.127511 0 0 255
-0.047963 -0.038552 0.126638 0 0 255
-0.000828 -0.006042 0.140215 0 0 255
-0.020182 -0.030427 0.124638 0 0 255
-0.052816 -0.021183 0.143966 0 0 255
-0.015354 -0.005041 0.144217 0 0 255
-0.033423 -0.035462 0.124334 0 0 255
-0.055481 -0.027883 0.137719 0 0 255
-0.054916 0.002907 0.132638 0 0 255
-0.015477 0.005157 0.144169 0 0 255
-0.020145 -0.030595 0.143086 0 0 255
-0.024680 -0.023381 0.120638 0 0 255
-0.029757 -0.014236 0.139813 0 0 255
-0.014352 0.009484 0.132480 0 0 255
-0.049859 -0.006241 0.139738 0 0 255
-0.047249 -0.013865 0.134638 0 0 255
-0.007283 -0.023772 0.124289 0 0 255
-0.014399 -0.019150 0.144135 0 0 255
-0.032912 -0.028250 0.136638 0 0 255
-0.027507 -0.005579 0.144412 0 0 255
0.004967 -0.019123 0.130638 0 0 255
-0.036627 -0.030009 0.144406 0 0 255
-0.013918 -0.031034 0.130638 0 0 255
-0.031009 -0.037204 0.134638 0 0 255
-0.017556 0.014938 0.119644 0 0 255
-0.039784 0.004079 0.139766 0 0 255
-0.027262 -0.025974 0.144311 0 0 255
-0.043615 -0.021270 0.138638 0 0 255
-0.056220 -0.019861 0.128638 0 0 255
-0.059206 -0.010360 0.134638 0 0 255
-0.055019 -0.001203 0.144264 0 0 255
-0.037997 -0.013943 0.144118 0 0 255
-0.004818 -0.016132 0.134638 0 0 255
-0.031127 0.001830 0.144285 0 0 255
-0.001707 -0.030765 0.119681 0 0 255
-0.026506 0.008947 0.139744 0 0 255
-0.046190 -0.042734 0.134638 0 0 255
-0.053185 0.009409 0.140331 0 0 255
-0.016942 -0.036049 0.119686 0 0 255
-0.019635 -0.023377 0.128638 0 0 255
-0.023132 0.021932 0.141091 0 0 255
-0.054480 -0.013357 0.144429 0 0 255
0.003208 -0.015408 0.121737 0 0 255
-0.042033 -0.004577 0.144255 0 0 255
-0.063589 -0.000981 0.140638 0 0 255
-0.021223 -0.006288 0.139754 0 0 255
-0.047901 -0.034688 0.144638 0 0 255
-0.009485 -0.003793 0.139722 0 0 255
-0.048781 -0.030548 0.136297 0 0 255
-0.041248 -0.037126 0.124020 0 0 255
-0.042917 -0.043615 0.120638 0 0 255
-0.027265 -0.035578 0.128638 0 0 255
-0.006554 -0.027199 0.130638 0 0 255
-0.037951 0.014693 0.140329 0 0 255
-0.024597 -0.019274 0.143927 0 0 255
-0.030758 -0.028762 0.121771 0 0 255
-0.048843 -0.034651 0.120638 0 0 255
-0.061562 0.005584 0.132638 0 0 255
0.000808 -0.023358 0.126638 0 0 255
-0.009555 -0.018121 0.120638 0 0 255
-0.054480 -0.013357 0.130010 0 0 255
-0.045870 -0.044242 0.141621 0 0 255
-0.015108 -0.025435 0.123990 0 0 255
-0.034872 -0.038267 0.140638 0 0 255
-0.003695 -0.011797 0.142638 0 0 255
-0.027469 -0.024997 0.134638 0 0 255
-0.038368 -0.031443 0.126638 0 0 255
-0.016432 0.019266 0.139746 0 0 255
-0.045773 -0.035080 0.132638 0 0 255
-0.042572 0.007577 0.144546 0 0 255
-0.057054 -0.005726 0.128638 0 0 255
-0.022168 0.005779 0.144638 0 0 255
-0.043220 -0.023232 0.130638 0 0 255
-0.014399 -0.019150 0.137658 0 0 255
-0.039415 -0.026513 0.139776 0 0 255
-0.044006 -0.043392 0.128638 0 0 255
-0.019437 -0.024310 0.144168 0 0 255
-0.017603 -0.013697 0.139761 0 0 255
-0.051409 -0.029061 0.142638 0 0 255
-0.043157 -0.008906 0.139710 0 0 255
-0.051993 -0.025058 0.124638 0 0 255
-0.015092 0.012969 0.144638 0 0 255
-0.040663 -0.020644 0.144577 0 0 255
-0.027753 0.014816 0.143564 0 0 255
-0.053894 0.003125 0.139765 0 0 255
-0.032545 -0.010740 0.144338 0 0 255
-0.040282 -0.041672 0.136638 0 0 255
-0.011195 -0.024603 0.144501 0 0 255
-0.002661 -0.016655 0.119753 0 0 255
-0.018264 0.008653 0.139725 0 0 255
-0.030219 -0.040915 0.121574 0 0 255
-0.006205 0.028874 0.124638 255 125 0
0.054281 0.061748 0.124638 255 125 0
0.022224 0.049039 0.120638 255 125 0
0.040542 0.049433 0.126638 255 125 0
0.010680 0.036013 0.126638 255 125 0
-0.018187 0.031162 0.126638 255 125 0
-0.000195 0.039075 0.121747 255 125 0
0.042721 0.058421 0.119765 255 125 0
0.030402 0.045579 0.126638 255 125 0
0.010711 0.045483 0.121659 255 125 0
0.019843 0.040999 0.126638 255 125 0
0.033166 0.055276 0.122638 255 125 0
0.049929 0.053366 0.126638 255 125 0
0.001053 0.033206 0.128308 255 125 0
-0.009560 0.035040 0.119745 255 125 0
-0.006032 0.037681 0.126638 255 125 0
0.005259 0.042279 0.125438 255 125 0
0.046218 0.061208 0.125552 255 125 0
0.016402 0.047569 0.124638 255 125 0
0.027487 0.053138 0.119641 255 125 0
-0.011881 0.034546 0.126638 255 125 0
0.039224 0.055632 0.125409 255 125 0
0.013249 0.041933 0.126638 255 125 0
0.025946 0.050765 0.125423 255 125 0
-0.008666 0.040448 0.122638 0 255 0
-0.102529 -0.013347 0.130638 0 255 0
-0.062380 0.023813 0.121671 0 255 0
-0.090893 0.013663 0.123987 0 255 0
-0.034029 0.025749 0.126638 0 255 0
-0.062814 0.003273 0.130638 0 255 0
-0.110715 0.005359 0.124638 0 255 0
-0.084568 -0.006479 0.130638 0 255 0
-0.027504 0.042503 0.122638 0 255 0
-0.048564 0.016526 0.126886 0 255 0
-0.073995 0.011120 0.121686 0 255 0
-0.047561 0.031052 0.121742 0 255 0
-0.095807 -0.001695 0.121732 0 255 0
-0.020141 0.030746 0.126638 0 255 0
-0.061642 0.010720 0.120638 0 255 0
-0.084486 0.002757 0.121667 0 255 0
-0.036240 0.035503 0.121762 0 255 0
-0.100025 0.008529 0.122638 0 255 0
-0.105373 -0.004788 0.124638 0 255 0
-0.017924 0.045530 0.125368 0 255 0
-0.067002 0.016696 0.127041 0 255 0
-0.094145 -0.009520 0.127590 0 255 0
-0.041570 0.022102 0.121765 0 255 0
-0.076244 0.002464 0.126666 0 255 0
-0.054555 0.025476 0.126783 0 255 0
-0.082236 0.011413 0.127119 0 255 0
-0.010713 0.050082 0.122638 0 255 0
-0.092908 0.005056 0.126638 0 255 0
-0.075659 0.018946 0.125196 0 255 0
-0.029135 0.034968 0.126638 0 255 0
-0.018217 0.037289 0.121727 0 255 0
-0.055934 0.012722 0.126638 0 255 0
-0.040843 0.030435 0.126638 0 255 0
-0.055264 0.019191 0.121658 0 255 0
-0.067523 0.008407 0.126638 0 255 0
-0.026555 0.028418 0.122638 0 255 0
-0.102924 0.002927 0.127122 0 255 0
-0.058401 0.005093 0.124638 0 255 0
-0.046314 0.025183 0.127162 0 255 0
-0.013623 0.034917 0.126638 0 255 0
-0.081112 0.015742 0.121699 0 255 0
-0.022546 0.038414 0.127124 0 255 0
-0.087982 -0.000031 0.127042 0 255 0
-0.069789 0.020193 0.121664 0 255 0
-0.050226 0.024351 0.121744 0 255 0
-0.007727 0.045653 0.126757 0 255 0
-0.059593 0.020316 0.126652 0 255 0
-0.099242 -0.004470 0.126638 0 255 0
-0.061318 0.009195 0.128638 0 255 0
-0.089646 0.007794 0.121728 0 255 0
-0.048774 0.017514 0.120638 0 255 0
-0.079032 0.005960 0.121770 0 255 0
-0.036948 0.029218 0.121670 0 255 0
-0.023671 0.034085 0.121734 0 255 0
-0.063089 0.017528 0.121691 0 255 0
-0.088276 -0.008272 0.125675 0 255 0
-0.043111 0.019730 0.127212 0 255 0
-0.034346 0.031816 0.126638 0 255 0
-0.075536 0.008748 0.127056 0 255 0
-0.075296 0.055715 0.150638 0 255 255
-0.104217 0.061948 0.124638 0 255 255
-0.083550 0.027212 0.130638 0 255 255
-0.107866 0.055038 0.156946 0 255 255
-0.087349 0.045086 0.175724 0 255 255
-0.068202 0.051200 0.123764 0 255 255
-0.090295 0.030092 0.154638 0 255 255
-0.093109 0.047950 0.138638 0 255 255
-0.080367 0.069954 0.124638 0 255 255
-0.092127 0.067564 0.148638 0 255 255
-0.072360 0.038049 0.156638 0 255 255
-0.086933 0.043130 0.121645 0 255 255
-0.074347 0.041636 0.138638 0 255 255
-0.092631 0.060320 0.165591 0 255 255
-0.089721 0.046626 0.155685 0 255 255
-0.079586 0.056657 0.134638 0 255 255
-0.061247 0.037719 0.130638 0 255 255
-0.078645 0.071472 0.155436 0 255 255
-0.078077 0.049564 0.164638 0 255 255
-0.100006 0.060798 0.138638 0 255 255
-0.091069 0.033731 0.140638 0 255 255
-0.073532 0.037800 0.123713 0 255 255
-0.090598 0.060373 0.126638 0 255 255
-0.066470 0.047479 0.146638 0 255 255
-0.096147 0.045261 0.166638 0 255 255
-0.097669 0.055160 0.149627 0 255 255
-0.081357 0.036136 0.148107 0 255 255
-0.085676 0.039308 0.164638 0 255 255
-0.083560 0.056115 0.173526 0 255 255
-0.082435 0.060443 0.159542 0 255 255
-0.101209 0.052364 0.130638 0 255 255
-0.075292 0.059917 0.124638 0 255 255
-0.085532 0.039338 0.132638 0 255 255
-0.078948 0.048917 0.126638 0 255 255
-0.083437 0.045918 0.143616 0 255 255
-0.069742 0.048829 0.156926 0 255 255
-0.094759 0.041466 0.147645 0 255 255
-0.094965 0.042438 0.128638 0 255 255
-0.100725 0.062690 0.156638 0 255 255
-0.079524 0.046750 0.153733 0 255 255
-0.067174 0.046364 0.132638 0 255 255
-0.079143 0.064196 0.146638 0 255 255
-0.097254 0.053204 0.160226 0 255 255
-0.106742 0.059366 0.148012 0 255 255
-0.104130 0.047080 0.152638 0 255 255
-0.093376 0.054201 0.172638 0 255 255
-0.091053 0.062511 0.156638 0 255 255
-0.087056 0.053327 0.163665 0 255 255
-0.091846 0.033907 0.128638 0 255 255
-0.075720 0.051647 0.142638 0 255 255
-0.101700 0.052259 0.140638 0 255 255
-0.082266 0.033898 0.156638 0 255 255
-0.094342 0.039511 0.160590 0 255 255
-0.092784 0.056199 0.140638 0 255 255
-0.072122 0.040786 0.148638 0 255 255
-0.095618 0.064749 0.132638 0 255 255
-0.079769 0.047901 0.172638 0 255 255
-0.081480 0.046334 0.134508 0 255 255
-0.082914 0.062700 0.128638 0 255 255
-0.078579 0.042306 0.160638 0 255 255
-0.074194 0.031296 0.128638 0 255 255
-0.082898 0.033765 0.125783 0 255 255
-0.097033 0.057340 0.122638 0 255 255
-0.094112 0.055916 0.132638 0 255 255
-0.095836 0.065774 0.123671 0 255 255
-0.086470 0.069809 0.153922 0 255 255
-0.074262 0.041734 0.130638 0 255 255
-0.074193 0.060150 0.157108 0 255 255
-0.090446 0.054651 0.156638 0 255 255
-0.086517 0.041174 0.151649 0 255 255
-0.086101 0.039217 0.141548 0 255 255
-0.082728 0.052203 0.157660 0 255 255
-0.072316 0.051320 0.130638 0 255 255
-0.066325 0.037287 0.124638 0 255 255
-0.080232 0.040465 0.126280 0 255 255
-0.086337 0.045301 0.128638 0 255 255
-0.070867 0.044500 0.123905 0 255 255
-0.076137 0.063826 0.130638 0 255 255
-0.066621 0.043759 0.152638 0 255 255
-0.090722 0.032101 0.147887 0 255 255
-0.100412 0.048823 0.146638 0 255 255
-0.095347 0.041341 0.140638 0 255 255
-0.070885 0.048586 0.138638 0 255 255
-0.084144 0.058868 0.166638 0 255 255
-0.077358 0.046175 0.146638 0 255 255
-0.099931 0.060814 0.146638 0 255 255
-0.095511 0.049485 0.152638 0 255 255
-0.091933 0.042067 0.134638 0 255 255
-0.090024 0.042473 0.168638 0 255 255
-0.066245 0.051616 0.151842 0 255 255
-0.074902 0.053865 0.158974 0 255 255
-0.094952 0.051996 0.166638 0 255 255
-0.080913 0.043667 0.166638 0 255 255
-0.094050 0.047751 0.145348 0 255 255
-0.106032 0.053383 0.150638 0 255 255
-0.099013 0.058965 0.128638 0 255 255
-0.094897 0.061884 0.150638 0 255 255
-0.111433 0.058369 0.152638 0 255 255
-0.080894 0.062815 0.153719 0 255 255
-0.079231 0.054990 0.123671 0 255 255
-0.071477 0.047366 0.150638 0 255 255
-0.082036 0.052350 0.168638 0 255 255
-0.089255 0.034817 0.158638 0 255 255
-0.088058 0.038801 0.126023 0 255 255
-0.068079 0.041004 0.129554 0 255 255
-0.089252 0.034800 0.134638 0 255 255
-0.092093 0.048166 0.172137 0 255 255
-0.093711 0.041689 0.122638 0 255 255
-0.077074 0.051360 0.136638 0 255 255
-0.080430 0.041394 0.140638 0 255 255
-0.077218 0.035899 0.152638 0 255 255
-0.081480 0.046334 0.121688 0 255 255
-0.101539 0.054338 0.154638 0 255 255
-0.088596 0.050955 0.176173 0 255 255
-0.080499 0.054721 0.162638 0 255 255
-0.041716 0.040473 0.126638 255 0 255
-0.084871 0.019032 0.122638 255 0 255
-0.064729 0.034865 0.132638 255 0 255
-0.044222 0.063434 0.130638 255 0 255
-0.055759 0.050377 0.132638 255 0 255
-0.068249 0.022566 0.121644 255 0 255
-0.053430 0.029805 0.121712 255 0 255
-0.041522 0.050738 0.135975 255 0 255
-0.079694 0.028311 0.130890 255 0 255
-0.051181 0.038461 0.135500 255 0 255
-0.034268 0.050235 0.124638 255 0 255
-0.053969 0.041958 0.123950 255 0 255
-0.046683 0.055774 0.121696 255 0 255
-0.030971 0.039576 0.122638 255 0 255
-0.051426 0.058855 0.135275 255 0 255
-0.032450 0.046532 0.133367 255 0 255
-0.047183 0.048511 0.128638 255 0 255
-0.061631 0.044419 0.128638 255 0 255
-0.062635 0.029892 0.122638 255 0 255
-0.076074 0.020902 0.125340 255 0 255
-0.072145 0.031960 0.128638 255 0 255
-0.044065 0.033840 0.121657 255 0 255
-0.041580 0.054815 0.128638 255 0 255
-0.053409 0.056390 0.126638 255 0 255
-0.039540 0.041407 0.134638 255 0 255
-0.042647 0.046409 0.121684 255 0 255
-0.052598 0.035508 0.128638 255 0 255
-0.048932 0.047118 0.135814 255 0 255
-0.057544 0.043242 0.134638 255 0 255
-0.053466 0.049209 0.124638 255 0 255
-0.047483 0.040300 0.122638 255 0 255
-0.035430 0.043854 0.126638 255 0 255
-0.075724 -0.169179 0.170638 0 255 0
-0.136786 -0.116729 0.113752 0 255 0
-0.102717 -0.209676 0.113809 0 255 0
-0.095160 -0.100933 0.170638 0 255 0
-0.068363 -0.130810 0.113646 0 255 0
-0.041778 -0.188544 0.120033 0 255 0
-0.117025 -0.161600 0.136090 0 255 0
-0.099323 -0.100587 0.127781 0 255 0
-0.083569 -0.203561 0.149706 0 255 0
-0.076529 -0.169350 0.127769 0 255 0
-0.093877 -0.136233 0.154638 0 255 0
-0.124633 -0.116190 0.147357 0 255 0
-0.071806 -0.201187 0.118638 0 255 0
-0.062466 -0.197031 0.171082 0 255 0
-0.108736 -0.133258 0.127774 0 255 0
-0.106229 -0.179752 0.114638 0 255 0
-0.095676 -0.175465 0.149907 0 255 0
-0.049130 -0.161482 0.128638 0 255 0
-0.074478 -0.111664 0.132753 0 255 0
-0.134837 -0.138805 0.128638 0 255 0
-0.075650 -0.142583 0.172638 0 255 0
-0.081934 -0.143918 0.132225 0 255 0
-0.103277 -0.195483 0.134638 0 255 0
-0.119331 -0.150748 0.114638 0 255 0
-0.088436 -0.122949 0.176638 0 255 0
-0.107308 -0.118641 0.162638 0 255 0
-0.060632 -0.186418 0.132433 0 255 0
-0.073202 -0.185000 0.155203 0 255 0
-0.085308 -0.156904 0.155153 0 255 0
-0.080469 -0.102713 0.113723 0 255 0
-0.114804 -0.136592 0.148638 0 255 0
-0.097046 -0.159399 0.127863 0 255 0
-0.117224 -0.112570 0.127709 0 255 0
-0.082568 -0.189036 0.132127 0 255 0
-0.059876 -0.151497 0.113675 0 255 0
-0.093322 -0.119758 0.132638 0 255 0
-0.061946 -0.141715 0.132638 0 255 0
-0.090313 -0.210311 0.130638 0 255 0
-0.104162 -0.154777 0.150288 0 255 0
-0.058715 -0.177832 0.170638 0 255 0
-0.137363 -0.118896 0.132638 0 255 0
-0.113184 -0.179668 0.132638 0 255 0
-0.049433 -0.171769 0.113802 0 255 0
-0.060217 -0.188374 0.113665 0 255 0
-0.127175 -0.133088 0.113714 0 255 0
-0.095433 -0.176608 0.132638 0 255 0
-0.088518 -0.199517 0.114638 0 255 0
-0.118163 -0.167976 0.118638 0 255 0
-0.081837 -0.096277 0.130638 0 255 0
-0.077020 -0.128560 0.127725 0 255 0
-0.046230 -0.177223 0.132471 0 255 0
-0.109814 -0.108951 0.149664 0 255 0
-0.107782 -0.147367 0.135654 0 255 0
-0.104531 -0.124185 0.147653 0 255 0
-0.066870 -0.157074 0.132169 0 255 0
-0.090901 -0.145824 0.166638 0 255 0
-0.092474 -0.191142 0.146638 0 255 0
-0.123181 -0.128149 0.130638 0 255 0
-0.060638 -0.172106 0.126638 0 255 0
-0.123108 -0.146536 0.136638 0 255 0
-0.073247 -0.199323 0.160638 0 255 0
-0.076092 -0.118140 0.116638 0 255 0
-0.105664 -0.195808 0.118638 0 255 0
-0.092254 -0.133844 0.127835 0 255 0
-0.093021 -0.123784 0.162638 0 255 0
-0.080025 -0.172138 0.152895 0 255 0
-0.094317 -0.162907 0.142638 0 255 0
-0.075745 -0.201898 0.132540 0 255 0
-0.069818 -0.155656 0.170638 0 255 0
-0.107121 -0.169719 0.142179 0 255 0
-0.071661 -0.182628 0.168975 0 255 0
-0.082473 -0.131764 0.166883 0 255 0
-0.126220 -0.155376 0.126638 0 255 0
-0.106159 -0.169514 0.126638 0 255 0
-0.087463 -0.108289 0.127746 0 255 0
-0.083072 -0.157803 0.168638 0 255 0
-0.071661 -0.182628 0.125640 0 255 0
-0.082936 -0.158444 0.132204 0 255 0
-0.115144 -0.122352 0.139678 0 255 0
-0.102991 -0.105455 0.160638 0 255 0
-0.103132 -0.207720 0.128114 0 255 0
-0.098369 -0.114696 0.171478 0 255 0
-0.052935 -0.193776 0.124638 0 255 0
-0.093889 -0.193487 0.125663 0 255 0
-0.138174 -0.127247 0.122638 0 255 0
-0.100997 -0.140815 0.144638 0 255 0
-0.105070 -0.112031 0.132284 0 255 0
-0.086145 -0.110054 0.172638 0 255 0
-0.122628 -0.140300 0.124638 0 255 0
-0.095436 -0.147731 0.132638 0 255 0
-0.106005 -0.130633 0.158638 0 255 0
-0.085772 -0.183583 0.155901 0 255 0
-0.064182 -0.198579 0.128638 0 255 0
-0.092227 -0.201312 0.139234 0 255 0
-0.079780 -0.192533 0.145065 0 255 0
-0.102496 -0.183048 0.140638 0 255 0
-0.092841 -0.150326 0.147646 0 255 0
-0.064622 -0.142283 0.120638 0 255 0
-0.116685 -0.124724 0.151598 0 255 0
-0.123938 -0.130355 0.142638 0 255 0
-0.056350 -0.163016 0.118638 0 255 0
-0.063080 -0.166492 0.170638 0 255 0
-0.095607 -0.163182 0.154638 0 255 0
-0.102210 -0.144725 0.156638 0 255 0
-0.074402 -0.150496 0.125642 0 255 0
-0.066324 -0.130377 0.132638 0 255 0
-0.113944 -0.156856 0.125644 0 255 0
-0.102888 -0.185177 0.124638 0 255 0
-0.088682 -0.169889 0.125655 0 255 0
-0.096167 -0.134675 0.166118 0 255 0
-0.062652 -0.188892 0.162638 0 255 0
-0.076232 -0.163153 0.160638 0 255 0
-0.127004 -0.114649 0.135665 0 255 0
-0.087142 -0.167516 0.161089 0 255 0
-0.071868 -0.174494 0.160638 0 255 0
-0.082891 -0.206752 0.122638 0 255 0
-0.102575 -0.123769 0.127764 0 255 0
-0.086891 -0.181776 0.144638 0 255 0
-0.110068 -0.136612 0.138638 0 255 0
-0.088143 -0.182042 0.125644 0 255 0
-0.081110 -0.195889 0.122638 0 255 0
-0.114813 -0.146818 0.144638 0 255 0
-0.077123 -0.108136 0.122638 0 255 0
-0.101791 -0.156317 0.137671 0 255 0
-0.072569 -0.139883 0.127749 0 255 0
-0.111257 -0.191045 0.128638 0 255 0
-0.057306 -0.153974 0.124638 0 255 0
-0.051048 -0.183414 0.116638 0 255 0
-0.092452 -0.209869 0.118638 0 255 0
-0.119274 -0.170258 0.130011 0 255 0
-0.085323 -0.093521 0.116638 0 255 0
-0.043755 -0.188867 0.130638 0 255 0
-0.083012 -0.119611 0.127837 0 255 0
-0.085580 -0.138560 0.174638 0 255 0
-0.071955 -0.190869 0.132454 0 255 0
-0.055206 -0.189354 0.172638 0 255 0
-0.081103 -0.147831 0.163137 0 255 0
-0.132749 -0.130183 0.134638 0 255 0
-0.115915 -0.177722 0.122638 0 255 0
-0.067825 -0.191058 0.120638 0 255 0
-0.116807 -0.114526 0.155164 0 255 0
-0.080664 -0.192720 0.156638 0 255 0
-0.080734 -0.178423 0.132131 0 255 0
-0.096214 -0.153088 0.158638 0 255 0
-0.118618 -0.110822 0.140638 0 255 0
-0.113598 -0.124068 0.128638 0 255 0
-0.100647 -0.137672 0.132638 0 255 0
-0.092394 -0.187035 0.134638 0 255 0
-0.067438 -0.173637 0.176638 0 255 0
-0.127052 -0.143286 0.115859 0 255 0
-0.131074 -0.119604 0.124638 0 255 0
-0.100372 -0.166239 0.134638 0 255 0
-0.115065 -0.146870 0.128638 0 255 0
-0.111987 -0.156440 0.143186 0 255 0
-0.109077 -0.170134 0.113589 0 255 0
-0.072763 -0.119478 0.126638 0 255 0
-0.086651 -0.165368 0.148638 0 255 0
-0.104578 -0.152821 0.127728 0 255 0
-0.059338 -0.163651 0.132040 0 255 0
-0.052263 -0.182594 0.126638 0 255 0
-0.102326 -0.115537 0.154638 0 255 0
-0.068996 -0.175928 0.132270 0 255 0
-0.097905 -0.126866 0.154638 0 255 0
-0.087920 -0.145191 0.156638 0 255 0
-0.081174 -0.176355 0.162638 0 255 0
-0.129394 -0.122649 0.140638 0 255 0
-0.064545 -0.187249 0.173663 0 255 0
-0.051806 -0.170229 0.123323 0 255 0
