ply
format ascii 1.0
element vertex 1310
property float x
property float y
property float z
property uchar red
property uchar green
property uchar blue
end_header
-0.288166 0.262316 0.068209 255 255 0
-0.381957 0.202088 0.070222 255 255 0
-0.390300 0.286079 0.132100 255 255 0
-0.338794 0.302851 0.121161 255 255 0
-0.336042 0.294564 0.114219 255 255 0
-0.367419 0.344357 -0.099794 255 255 0
-0.342576 0.283888 -0.076839 255 255 0
-0.305117 0.306261 0.091161 255 255 0
-0.374831 0.216578 0.089161 255 255 0
-0.294401 0.224407 0.056825 255 255 0
-0.403681 0.260574 0.115161 255 255 0
-0.441480 0.242687 0.067161 255 255 0
-0.390515 0.269737 -0.076839 255 255 0
-0.316445 0.248888 0.089161 255 255 0
-0.449160 0.243846 0.062186 255 255 0
-0.296278 0.255012 0.071161 255 255 0
-0.254130 0.290271 0.056199 255 255 0
-0.353631 0.215464 0.095161 255 255 0
-0.284469 0.273155 0.085161 255 255 0
-0.305108 0.236296 0.066169 255 255 0
-0.332675 0.187253 0.061161 255 255 0
-0.365246 0.252120 -0.064839 255 255 0
-0.286390 0.296211 0.070166 255 255 0
-0.316810 0.264238 -0.090839 255 255 0
-0.289337 0.280101 0.087161 255 255 0
-0.415887 0.269661 0.121161 255 255 0
-0.356513 0.286896 -0.022839 255 255 0
-0.348406 0.206672 0.083161 255 255 0
-0.362632 0.294842 -0.022839 255 255 0
-0.416010 0.217178 0.059161 255 255 0
-0.342422 0.294201 0.119161 255 255 0
-0.419302 0.224979 0.073161 255 255 0
-0.474138 0.259632 0.069161 255 255 0
-0.356093 0.303423 0.119161 255 255 0
-0.350895 0.348471 0.065161 255 255 0
-0.386808 0.230015 0.105161 255 255 0
-0.324300 0.302445 0.094167 255 255 0
-0.334527 0.282472 0.125161 255 255 0
-0.433852 0.265702 0.100173 255 255 0
-0.347339 0.295155 0.137483 255 255 0
-0.356576 0.321825 0.103161 255 255 0
-0.268104 0.293836 0.077092 255 255 0
-0.342245 0.205808 0.095161 255 255 0
-0.406122 0.267783 -0.082839 255 255 0
-0.387944 0.385085 0.058179 255 255 0
-0.382586 0.368380 0.079161 255 255 0
-0.394161 0.266454 0.134901 255 255 0
-0.420908 0.215458 0.062631 255 255 0
-0.335870 0.281263 0.137161 255 255 0
-0.460606 0.241613 0.061176 255 255 0
-0.396492 0.202456 0.065161 255 255 0
-0.378846 0.194123 0.061161 255 255 0
-0.443874 0.249931 0.073161 255 255 0
-0.355215 0.279991 -0.045795 255 255 0
-0.362573 0.258274 -0.058839 255 255 0
-0.368894 0.289205 -0.029806 255 255 0
-0.264983 0.299337 0.064901 255 255 0
-0.350577 0.227651 0.123161 255 255 0
-0.370229 0.304150 0.133161 255 255 0
-0.321499 0.206677 0.059161 255 255 0
-0.377035 0.273800 -0.044839 255 255 0
-0.418622 0.247121 0.091161 255 255 0
-0.400169 0.279884 0.127161 255 255 0
-0.344034 0.345285 0.063161 255 255 0
-0.372778 0.242647 0.137161 255 255 0
-0.418244 0.266300 0.114841 255 255 0
-0.414229 0.261842 -0.093777 255 255 0
-0.422555 0.265110 -0.099615 255 255 0
-0.360098 0.256755 -0.042839 255 255 0
-0.365796 0.297720 -0.000839 255 255 0
-0.381666 0.234644 0.114967 255 255 0
-0.336152 0.258819 0.135161 255 255 0
-0.301751 0.317366 0.067161 255 255 0
-0.345922 0.315272 0.113161 255 255 0
-0.354338 0.256559 -0.074839 255 255 0
-0.366700 0.207752 -0.088839 255 255 0
-0.322828 0.261956 -0.084839 255 255 0
-0.310563 0.251323 0.087161 255 255 0
-0.316276 0.320435 0.070223 255 255 0
-0.395795 0.262292 -0.083790 255 255 0
-0.370889 0.238966 0.119161 255 255 0
-0.483773 0.255388 0.057161 255 255 0
-0.350806 0.242215 -0.084839 255 255 0
-0.307103 0.277560 -0.094839 255 255 0
-0.381775 0.188795 0.063161 255 255 0
-0.368144 0.190303 0.075161 255 255 0
-0.346735 0.252640 0.126314 255 255 0
-0.322119 0.219323 0.075161 255 255 0
-0.314864 0.305558 0.087161 255 255 0
-0.438217 0.245626 0.081161 255 255 0
-0.355215 0.285968 -0.028839 255 255 0
-0.430874 0.241471 0.082906 255 255 0
-0.329222 0.275035 0.129161 255 255 0
-0.407105 0.249417 0.109161 255 255 0
-0.395546 0.251750 -0.082839 255 255 0
-0.327258 0.286325 0.115161 255 255 0
-0.345101 0.256802 -0.077950 255 255 0
-0.366511 0.186391 0.063161 255 255 0
-0.352219 0.263850 -0.066839 255 255 0
-0.367402 0.263636 0.136029 255 255 0
-0.412647 0.224217 0.071161 255 255 0
-0.313889 0.284907 -0.091813 255 255 0
-0.355795 0.214878 -0.101797 255 255 0
-0.300088 0.265038 0.095161 255 255 0
-0.382134 0.241141 0.121161 255 255 0
-0.308968 0.216673 0.064618 255 255 0
-0.363471 0.277941 -0.058839 255 255 0
-0.381277 0.229612 0.101161 255 255 0
-0.342431 0.280737 -0.040839 255 255 0
-0.332138 0.246944 0.105161 255 255 0
-0.293606 0.305860 0.069161 255 255 0
-0.360051 0.294476 -0.004839 255 255 0
-0.329875 0.218969 0.093161 255 255 0
-0.405202 0.266760 0.129161 255 255 0
-0.388062 0.247725 -0.081338 255 255 0
-0.358780 0.266016 -0.051960 255 255 0
-0.331096 0.320548 0.081161 255 255 0
-0.306589 0.302245 0.081161 255 255 0
-0.325319 0.296144 0.103161 255 255 0
-0.477998 0.255558 0.063161 255 255 0
-0.357430 0.210716 -0.084530 255 255 0
-0.428056 0.268231 -0.085476 255 255 0
-0.349223 0.270347 0.015161 255 255 0
-0.330819 0.205073 0.082456 255 255 0
-0.323393 0.238671 0.101030 255 255 0
-0.355994 0.170264 0.057161 255 255 0
-0.360783 0.268241 -0.060839 255 255 0
-0.387893 0.218272 0.091161 255 255 0
-0.347031 0.246991 -0.077901 255 255 0
-0.333489 0.302245 0.103161 255 255 0
-0.332014 0.236291 0.096195 255 255 0
-0.375307 0.383007 0.062992 255 255 0
-0.344035 0.182408 0.059161 255 255 0
-0.318179 0.299881 0.107161 255 255 0
-0.363233 0.235095 -0.078394 255 255 0
-0.358149 0.185847 0.075161 255 255 0
-0.324652 0.255014 0.101161 255 255 0
-0.288178 0.274284 0.079161 255 255 0
-0.444725 0.261296 0.085161 255 255 0
-0.342863 0.218449 0.094195 255 255 0
-0.353273 0.235989 0.118177 255 255 0
-0.427534 0.264663 0.115161 255 255 0
-0.364046 0.259909 -0.052839 255 255 0
-0.349567 0.279695 0.021957 255 255 0
-0.450412 0.261558 0.081161 255 255 0
-0.360186 0.312412 -0.078839 255 255 0
-0.434651 0.263599 -0.090839 255 255 0
-0.385527 0.215020 0.080205 255 255 0
-0.350078 0.265779 -0.002839 255 255 0
-0.281783 0.303050 0.060209 255 255 0
-0.317315 0.267788 0.117161 255 255 0
-0.349715 0.276871 -0.077374 255 255 0
-0.347908 0.176228 0.077662 255 255 0
-0.449456 0.238197 0.058372 255 255 0
-0.342676 0.237456 -0.092839 255 255 0
-0.263497 0.300676 0.054281 255 255 0
-0.352963 0.280479 -0.072839 255 255 0
-0.309169 0.225863 0.061161 255 255 0
-0.327556 0.240306 0.105716 255 255 0
-0.370084 0.293516 -0.075647 255 255 0
-0.373059 0.228938 0.115161 255 255 0
-0.270612 0.288887 0.085161 255 255 0
-0.323887 0.233242 0.097161 255 255 0
-0.368653 0.279970 -0.076839 255 255 0
-0.343169 0.227756 -0.088839 255 255 0
-0.411523 0.215835 0.069161 255 255 0
-0.470122 0.249193 0.060716 255 255 0
-0.384557 0.275101 -0.070839 255 255 0
-0.412376 0.262772 0.123161 255 255 0
-0.348980 0.317900 0.100257 255 255 0
-0.424378 0.217716 0.055161 255 255 0
-0.365465 0.246541 -0.027974 255 255 0
-0.290392 0.246854 0.060374 255 255 0
-0.351927 0.237483 0.133161 255 255 0
-0.355068 0.282815 -0.037626 255 255 0
-0.331660 0.241992 -0.090839 255 255 0
-0.342566 0.224099 0.108399 255 255 0
-0.425098 0.257437 0.095161 255 255 0
-0.322553 0.293254 -0.088839 255 255 0
-0.326611 0.215344 0.083161 255 255 0
-0.358020 0.212875 0.101161 255 255 0
-0.329229 0.252255 -0.084839 255 255 0
-0.344337 0.163296 0.054499 255 255 0
-0.309861 0.211686 0.055161 255 255 0
-0.394726 0.241724 0.111161 255 255 0
-0.433163 0.255558 0.097161 255 255 0
-0.336936 0.304524 -0.084622 255 255 0
-0.366622 0.288559 -0.020839 255 255 0
-0.379878 0.214725 0.094227 255 255 0
-0.269620 0.277584 0.059161 255 255 0
-0.348793 0.323671 0.105161 255 255 0
-0.318052 0.286541 0.123377 255 255 0
-0.363557 0.337079 -0.094839 255 255 0
-0.298098 0.252423 0.081161 255 255 0
-0.269887 0.286849 0.068175 255 255 0
-0.295455 0.285357 0.094188 255 255 0
-0.315734 0.230164 0.085161 255 255 0
-0.334400 0.197094 0.079161 255 255 0
-0.408010 0.257924 -0.088839 255 255 0
-0.381074 0.245943 0.131375 255 255 0
-0.428247 0.257293 0.101161 255 255 0
-0.353198 0.300646 -0.080839 255 255 0
-0.322787 0.317263 0.077161 255 255 0
-0.338700 0.216815 0.099384 255 255 0
-0.339438 0.253501 0.129161 255 255 0
-0.373051 0.193958 0.075161 255 255 0
-0.277589 0.287987 0.077161 255 255 0
-0.396535 0.248169 0.117560 255 255 0
-0.314238 0.289975 0.115161 255 255 0
-0.336919 0.292548 0.135161 255 255 0
-0.374833 0.256944 -0.083813 255 255 0
-0.309283 0.291745 0.110458 255 255 0
-0.383759 0.370015 0.071161 255 255 0
-0.353151 0.196997 0.085161 255 255 0
-0.380932 0.275674 -0.027568 255 255 0
-0.357968 0.250169 -0.018839 255 255 0
-0.321926 0.254975 0.111161 255 255 0
-0.305596 0.289682 -0.090839 255 255 0
-0.423363 0.237469 0.077161 255 255 0
-0.352253 0.212685 -0.094839 255 255 0
-0.354013 0.221866 0.110257 255 255 0
-0.323160 0.229446 0.081161 255 255 0
-0.407120 0.276317 0.135161 255 255 0
-0.352817 0.190648 0.093713 255 255 0
-0.284693 0.308503 0.071161 255 255 0
-0.438601 0.229132 0.063415 255 255 0
-0.347075 0.232095 -0.096839 255 255 0
-0.421428 0.245925 0.085161 255 255 0
-0.331576 0.182002 0.055161 255 255 0
-0.399212 0.251142 0.110163 255 255 0
-0.360807 0.348969 0.073161 255 255 0
-0.320749 0.276039 0.119161 255 255 0
-0.293553 0.280255 0.091161 255 255 0
-0.321629 0.326381 0.078933 255 255 0
-0.435484 0.250777 0.081161 255 255 0
-0.451014 0.248894 0.065161 255 255 0
-0.345626 0.299391 0.131161 255 255 0
-0.372906 0.338494 0.101161 255 255 0
-0.333489 0.181138 0.063816 255 255 0
-0.334698 0.266170 0.124162 255 255 0
-0.346308 0.236876 -0.082839 255 255 0
-0.308092 0.287435 -0.084628 255 255 0
-0.413779 0.243408 0.099196 255 255 0
-0.340255 0.193885 0.081161 255 255 0
-0.345244 0.227071 0.104207 255 255 0
-0.362096 0.249573 -0.044839 255 255 0
-0.332862 0.313575 0.091161 255 255 0
-0.441130 0.234928 0.058243 255 255 0
-0.336640 0.310174 -0.086070 255 255 0
-0.321144 0.272041 -0.084839 255 255 0
-0.357897 0.309871 -0.083806 255 255 0
-0.368444 0.270772 0.138070 255 255 0
-0.273382 0.299698 0.071161 255 255 0
-0.321155 0.200317 0.058211 255 255 0
-0.406695 0.255168 0.117161 255 255 0
-0.456185 0.257626 0.071161 255 255 0
-0.358655 0.283811 -0.008839 255 255 0
-0.316566 0.287879 0.106187 255 255 0
-0.274613 0.306815 0.065161 255 255 0
-0.410708 0.234018 0.083161 255 255 0
-0.421526 0.252580 0.101161 255 255 0
-0.345546 0.248329 0.135844 255 255 0
-0.318644 0.275242 0.125964 255 255 0
-0.369905 0.233538 0.123161 255 255 0
-0.377385 0.370371 0.062196 255 255 0
-0.313645 0.225919 0.079161 255 255 0
-0.302592 0.269370 0.089161 255 255 0
-0.364417 0.212498 -0.099762 255 255 0
-0.321712 0.310158 0.085161 255 255 0
-0.323005 0.199383 0.067161 255 255 0
-0.332902 0.259713 -0.088839 255 255 0
-0.376407 0.268984 -0.062839 255 255 0
-0.316157 0.251557 0.101161 255 255 0
-0.306408 0.225785 0.071161 255 255 0
-0.356734 0.236844 -0.082839 255 255 0
-0.280117 0.265332 0.063161 255 255 0
-0.395973 0.219071 0.077161 255 255 0
-0.337969 0.230948 0.109161 255 255 0
-0.355955 0.265868 -0.077630 255 255 0
-0.338280 0.237271 0.105161 255 255 0
-0.367241 0.212646 0.101760 255 255 0
-0.355055 0.229002 -0.089832 255 255 0
-0.348923 0.264036 0.005161 255 255 0
-0.391626 0.276811 -0.058839 255 255 0
-0.260222 0.282094 0.056211 255 255 0
-0.442918 0.254848 0.087641 255 255 0
-0.300797 0.237486 0.074257 255 255 0
-0.375156 0.248336 -0.076839 255 255 0
-0.292619 0.231394 0.062367 255 255 0
-0.353654 0.270632 -0.068839 255 255 0
-0.423913 0.224774 0.063161 255 255 0
-0.438772 0.266655 0.095161 255 255 0
-0.398010 0.193016 0.058299 255 255 0
-0.315786 0.312802 0.091161 255 255 0
-0.336918 0.296466 0.127161 255 255 0
-0.420171 0.259473 -0.084839 255 255 0
-0.433260 0.277000 -0.089755 255 255 0
-0.382758 0.220205 0.097161 255 255 0
-0.307642 0.269001 0.098247 255 255 0
-0.272190 0.282082 0.071161 255 255 0
-0.297688 0.296803 0.094239 255 255 0
-0.329254 0.301971 -0.088839 255 255 0
-0.469530 0.260491 0.064287 255 255 0
-0.315650 0.236048 0.089161 255 255 0
-0.348358 0.194663 0.095269 255 255 0
-0.279847 0.285954 0.092156 255 255 0
-0.465272 0.248177 0.057161 255 255 0
-0.418522 0.239710 0.091161 255 255 0
-0.467539 0.254210 0.069161 255 255 0
-0.312385 0.205522 0.052164 255 255 0
-0.334817 0.303740 0.117161 255 255 0
-0.407156 0.249370 0.101161 255 255 0
-0.277778 0.283658 0.085161 255 255 0
-0.336782 0.280441 -0.077164 255 255 0
-0.337226 0.236100 -0.086839 255 255 0
-0.267032 0.308258 0.057161 255 255 0
-0.298789 0.232268 0.067161 255 255 0
-0.311691 0.286886 -0.100839 255 255 0
-0.346954 0.234948 0.109161 255 255 0
-0.400565 0.239158 0.095161 255 255 0
-0.363245 0.288909 -0.029660 255 255 0
-0.369345 0.348007 0.079161 255 255 0
-0.364479 0.251424 -0.004839 255 255 0
-0.384163 0.259309 0.135161 255 255 0
-0.325659 0.262110 -0.096839 255 255 0
-0.438762 0.239752 0.063161 255 255 0
-0.313895 0.311813 0.078233 255 255 0
-0.394895 0.225424 0.093654 255 255 0
-0.309802 0.295311 -0.090839 255 255 0
-0.292854 0.264534 0.077161 255 255 0
-0.361895 0.233609 -0.083836 255 255 0
-0.422769 0.267608 0.121161 255 255 0
-0.415915 0.209189 0.061161 255 255 0
-0.387766 0.253374 -0.083751 255 255 0
-0.319532 0.258295 -0.094461 255 255 0
-0.387522 0.245519 0.113161 255 255 0
-0.277164 0.256075 0.062735 255 255 0
-0.347825 0.268795 -0.070839 255 255 0
0.090969 0.187963 0.157161 255 0 0
-0.305980 0.152082 0.011161 255 0 0
-0.033447 -0.038513 -0.081692 255 0 0
-0.183936 0.170468 0.290661 255 0 0
-0.051841 0.273258 -0.094839 255 0 0
-0.110714 0.175828 0.091161 255 0 0
-0.132425 0.111889 -0.094839 255 0 0
-0.027306 0.236143 0.271161 255 0 0
-0.302433 0.147202 0.177161 255 0 0
0.155294 0.212168 0.010316 255 0 0
0.076536 0.072477 -0.066839 255 0 0
0.010008 0.262933 0.047161 255 0 0
0.156484 0.207857 0.289894 255 0 0
-0.198836 0.224334 0.173161 255 0 0
-0.148573 0.250751 -0.003775 255 0 0
-0.049065 0.173491 -0.018839 255 0 0
-0.033737 0.266684 0.157161 255 0 0
-0.098887 0.168999 0.207161 255 0 0
-0.300335 0.165239 0.290131 255 0 0
-0.221861 0.155159 0.087161 255 0 0
-0.002608 0.178309 0.109161 255 0 0
-0.025601 0.111188 -0.099430 255 0 0
0.061199 0.185157 0.257161 255 0 0
-0.122801 0.012903 -0.068324 255 0 0
-0.161943 0.211800 -0.095817 255 0 0
0.059647 0.182563 0.015161 255 0 0
0.014702 0.200931 -0.090839 255 0 0
-0.162686 0.158822 0.013161 255 0 0
-0.156057 0.256075 0.089161 255 0 0
-0.008125 0.178459 0.199161 255 0 0
0.157809 0.200976 0.099161 255 0 0
-0.117637 0.228349 0.271161 255 0 0
-0.061758 0.258947 -0.001640 255 0 0
-0.226402 0.154863 0.217161 255 0 0
0.155442 0.214992 0.205224 255 0 0
0.078782 0.229397 0.083161 255 0 0
-0.081068 0.187736 -0.095806 255 0 0
-0.000106 0.038039 -0.066839 255 0 0
-0.072781 0.265211 0.081161 255 0 0
-0.303899 0.151264 0.094358 255 0 0
-0.066709 0.168369 0.289161 255 0 0
0.040957 0.246494 0.177161 255 0 0
-0.123434 0.234786 0.157161 255 0 0
-0.164516 0.160856 0.145161 255 0 0
-0.064943 0.048853 -0.100839 255 0 0
-0.049435 0.182493 0.053161 255 0 0
-0.234673 0.161060 0.009161 255 0 0
-0.068217 0.233242 0.211161 255 0 0
-0.063990 0.171757 0.145161 255 0 0
-0.180941 0.221607 0.241161 255 0 0
-0.116190 0.166963 -0.038839 255 0 0
0.001400 0.176847 0.289161 255 0 0
0.019316 0.251209 0.113161 255 0 0
-0.241686 0.162871 0.151161 255 0 0
-0.176617 0.051748 -0.066839 255 0 0
0.031866 0.241647 0.243161 255 0 0
-0.162255 0.161332 0.225161 255 0 0
-0.101248 0.165313 0.023161 255 0 0
-0.241350 0.151068 0.277161 255 0 0
0.094207 0.214255 0.213161 255 0 0
0.113079 0.190306 0.049940 255 0 0
-0.125504 0.165352 0.273161 255 0 0
0.010444 0.190714 0.049161 255 0 0
-0.284276 0.147404 0.234508 255 0 0
0.006294 0.193731 -0.010839 255 0 0
0.055914 0.241840 0.013161 255 0 0
0.031021 0.191774 0.156157 255 0 0
-0.166284 0.170214 0.071161 255 0 0
-0.094160 0.235155 -0.064772 255 0 0
-0.010082 0.237423 0.203161 255 0 0
-0.125822 0.225484 0.214122 255 0 0
-0.078380 0.130948 -0.089934 255 0 0
0.098904 0.215220 0.287161 255 0 0
-0.050809 0.184019 0.237161 255 0 0
0.139260 0.218021 0.151161 255 0 0
0.054067 0.184112 0.105161 255 0 0
-0.029776 0.166637 -0.089872 255 0 0
-0.068093 0.002955 -0.067817 255 0 0
-0.265928 0.150466 0.053161 255 0 0
-0.162625 0.157361 -0.092839 255 0 0
-0.038262 0.220896 -0.089705 255 0 0
0.013858 -0.013338 -0.078839 255 0 0
0.049669 0.184345 0.205161 255 0 0
0.127777 0.191916 0.247161 255 0 0
0.071293 0.233418 0.135161 255 0 0
0.106376 0.189652 0.105161 255 0 0
-0.114970 0.174576 0.157161 255 0 0
-0.022468 0.270104 0.089161 255 0 0
-0.101298 0.059178 -0.066839 255 0 0
0.013924 0.189838 0.242183 255 0 0
-0.012254 0.257770 0.002070 255 0 0
-0.044078 0.242301 -0.044839 255 0 0
0.100141 0.213643 0.008254 255 0 0
-0.041113 0.265908 0.043161 255 0 0
-0.075090 0.240875 0.149161 255 0 0
-0.191846 0.167297 0.185161 255 0 0
-0.071114 0.215537 0.278059 255 0 0
0.047501 0.032989 -0.074839 255 0 0
0.031359 0.213609 0.283161 255 0 0
-0.049444 0.182502 0.101161 255 0 0
-0.019548 0.186610 0.153161 255 0 0
-0.201968 0.156923 0.043161 255 0 0
0.149691 0.220580 0.057161 255 0 0
-0.053958 0.172572 0.191161 255 0 0
-0.154074 0.253872 0.042344 255 0 0
0.058075 0.194604 0.060175 255 0 0
-0.116591 0.158442 -0.090209 255 0 0
-0.282656 0.148861 0.135161 255 0 0
-0.212704 0.202419 0.275161 255 0 0
-0.156591 0.205854 0.279012 255 0 0
0.010353 0.145980 -0.092839 255 0 0
-0.121797 0.234492 0.109161 255 0 0
-0.041198 0.056776 -0.063503 255 0 0
-0.019520 0.173180 0.020620 255 0 0
-0.054892 0.192465 -0.058839 255 0 0
-0.264401 0.161198 0.195161 255 0 0
-0.204634 0.166555 0.127161 255 0 0
-0.198987 0.167681 0.249161 255 0 0
-0.154736 0.254607 0.133161 255 0 0
0.122885 0.191373 0.187161 255 0 0
-0.117224 0.212947 -0.094839 255 0 0
-0.156522 0.220724 0.183161 255 0 0
0.040353 0.248620 0.075161 255 0 0
-0.092123 0.179091 0.249161 255 0 0
-0.149069 0.173589 0.185161 255 0 0
0.009570 0.263964 0.153161 255 0 0
-0.025577 0.003560 -0.075728 255 0 0
-0.018601 0.055592 -0.101430 255 0 0
-0.263014 0.159657 0.099161 255 0 0
0.083365 0.228140 0.175161 255 0 0
-0.035282 0.196665 0.288282 255 0 0
0.069708 0.223917 0.245161 255 0 0
-0.146824 0.163515 0.107161 255 0 0
-0.128184 0.165340 0.055161 255 0 0
-0.271497 0.175057 0.262618 255 0 0
-0.041220 0.231688 0.177161 255 0 0
-0.063094 0.093050 -0.090839 255 0 0
0.085073 0.227389 0.043161 255 0 0
-0.130432 0.178273 -0.002839 255 0 0
-0.016193 0.254223 -0.092839 255 0 0
0.027740 0.066892 -0.066839 255 0 0
0.051887 0.224020 0.209161 255 0 0
-0.141052 0.245387 -0.092839 255 0 0
-0.087918 0.177409 -0.012839 255 0 0
-0.096829 0.226163 0.185161 255 0 0
-0.086051 0.169792 0.061161 255 0 0
-0.088164 0.228495 0.245161 255 0 0
-0.102030 0.193082 0.287857 255 0 0
-0.035474 0.235733 0.233161 255 0 0
-0.063029 0.168991 0.017161 255 0 0
-0.304594 0.150638 0.051161 255 0 0
0.124568 0.186513 0.287161 255 0 0
-0.017108 0.176479 0.073161 255 0 0
-0.071268 0.239619 -0.095829 255 0 0
0.117260 0.215552 0.079161 255 0 0
-0.137973 0.047686 -0.063321 255 0 0
0.158289 0.193335 0.173161 255 0 0
-0.085929 0.169222 -0.062839 255 0 0
0.105465 0.216697 0.133161 255 0 0
-0.127760 0.173835 0.235161 255 0 0
-0.095757 0.168182 0.125161 255 0 0
0.153575 0.218694 0.253161 255 0 0
-0.018447 0.176838 0.257161 255 0 0
-0.020118 0.188790 -0.037334 255 0 0
0.023230 0.191459 0.085161 255 0 0
0.038842 0.177109 0.287161 255 0 0
-0.160487 0.171325 0.261161 255 0 0
-0.269096 0.147614 0.015161 255 0 0
-0.014046 0.271715 0.125161 255 0 0
0.079290 0.184102 0.289161 255 0 0
-0.307174 0.169846 0.252106 255 0 0
0.127088 0.189692 0.015161 255 0 0
-0.144513 0.225320 0.247161 255 0 0
0.009011 0.241931 0.271161 255 0 0
-0.099370 0.097471 -0.092839 255 0 0
0.092673 0.189058 0.239161 255 0 0
0.157083 0.192248 0.133899 255 0 0
0.022661 0.254859 0.011161 255 0 0
-0.185095 0.216590 0.205161 255 0 0
0.022505 0.178724 0.017161 255 0 0
0.155903 0.190571 0.039161 255 0 0
-0.074438 0.263678 0.031161 255 0 0
-0.084336 0.179410 0.174157 255 0 0
-0.184568 0.159215 0.099161 255 0 0
0.061621 0.195106 0.139161 255 0 0
-0.224635 0.155353 0.181161 255 0 0
-0.004192 0.209958 0.277161 255 0 0
0.040265 0.248542 0.141161 255 0 0
-0.071818 0.039970 -0.065728 255 0 0
0.083007 0.187837 0.191161 255 0 0
0.052646 0.242480 0.107161 255 0 0
-0.251113 0.152419 0.243161 255 0 0
-0.167719 0.248104 0.165161 255 0 0
0.089204 0.187647 0.075161 255 0 0
-0.139193 0.186533 -0.089470 255 0 0
0.065204 0.222554 0.279325 255 0 0
-0.233883 0.163172 0.054181 255 0 0
-0.001430 0.236779 0.237161 255 0 0
0.126581 0.217157 0.223161 255 0 0
0.022901 0.242636 0.209161 255 0 0
0.158321 0.193364 0.231161 255 0 0
0.008350 0.257483 0.081161 255 0 0
-0.234965 0.154124 0.119161 255 0 0
0.037315 0.243193 0.041161 255 0 0
-0.198502 0.162734 0.010221 255 0 0
0.135523 0.218586 0.117161 255 0 0
0.125858 0.217959 0.033643 255 0 0
-0.065558 -0.029749 -0.077804 255 0 0
-0.217830 0.172244 0.288563 255 0 0
0.026050 0.191317 0.123161 255 0 0
-0.045527 0.136308 -0.089662 255 0 0
-0.272821 0.146637 0.289161 255 0 0
0.008775 0.239025 0.175161 255 0 0
0.139434 0.192505 0.071161 255 0 0
0.020392 0.191621 0.189161 255 0 0
-0.087524 0.245719 0.103161 255 0 0
0.090188 0.185840 0.025946 255 0 0
-0.305237 0.152751 0.210230 255 0 0
0.106707 0.215317 0.255161 255 0 0
-0.050164 0.264004 0.104700 255 0 0
-0.078864 0.170881 0.093161 255 0 0
-0.270817 0.150390 0.165161 255 0 0
-0.194363 0.158136 0.217161 255 0 0
-0.005557 0.223430 -0.101775 255 0 0
0.110869 0.212536 0.165161 255 0 0
0.125025 0.191985 0.139161 255 0 0
-0.096336 0.044807 -0.096839 255 0 0
-0.058566 0.234909 0.255161 255 0 0
0.058798 0.195255 0.171161 255 0 0
-0.293717 0.144284 0.265161 255 0 0
-0.152200 0.159134 0.289161 255 0 0
-0.020931 0.186703 0.227161 255 0 0
-0.097537 -0.006190 -0.074839 255 0 0
-0.049701 0.191756 -0.093497 255 0 0
-0.204260 0.157173 0.157161 255 0 0
-0.186921 0.221606 0.271962 255 0 0
-0.037209 0.174893 0.129161 255 0 0
-0.066939 0.160088 -0.089614 255 0 0
-0.018336 0.195777 -0.089931 255 0 0
-0.156556 0.220761 0.217161 255 0 0
-0.156311 0.171119 0.041161 255 0 0
0.022768 0.014794 -0.068839 255 0 0
0.129537 0.216864 0.277161 255 0 0
-0.132948 0.161663 0.023161 255 0 0
-0.126311 0.175215 0.127161 255 0 0
-0.050904 0.249882 -0.074016 255 0 0
0.154152 0.189524 0.265161 255 0 0
-0.251132 0.179340 0.285161 255 0 0
0.059257 0.230655 0.059161 255 0 0
-0.044719 0.027808 -0.072839 255 0 0
-0.023841 0.185438 -0.006839 255 0 0
-0.197506 0.167606 0.071161 255 0 0
-0.072201 0.180876 0.215161 255 0 0
-0.013539 0.271151 0.029161 255 0 0
0.084151 0.219446 0.111161 255 0 0
0.043150 0.193247 0.233161 255 0 0
0.136941 0.217606 0.181161 255 0 0
-0.049091 0.173145 0.265161 255 0 0
-0.005403 -0.034793 -0.070839 255 0 0
0.008935 0.056164 -0.088839 255 0 0
-0.016501 0.271452 0.059161 255 0 0
0.113722 0.190885 0.217161 255 0 0
0.007569 0.178732 0.143161 255 0 0
-0.095837 0.165281 0.279161 255 0 0
-0.107562 0.128893 -0.094839 255 0 0
-0.094617 0.023446 -0.074839 255 0 0
0.100295 0.189560 0.268169 255 0 0
-0.038277 0.269324 0.013161 255 0 0
-0.128095 0.165240 0.205161 255 0 0
-0.071552 0.180156 -0.037894 255 0 0
0.039008 0.182819 0.041161 255 0 0
-0.096861 0.229187 0.217161 255 0 0
-0.088062 0.216425 -0.089696 255 0 0
-0.132144 0.190188 0.287161 255 0 0
0.002393 0.174071 -0.094839 255 0 0
-0.153756 0.165346 -0.014839 255 0 0
-0.046605 0.183779 0.165161 255 0 0
0.040889 0.238338 0.271161 255 0 0
-0.127657 0.226525 0.185161 255 0 0
0.080179 0.187594 0.117161 255 0 0
-0.281643 0.157848 0.077161 255 0 0
-0.070553 0.234881 0.177161 255 0 0
-0.137736 0.172958 0.081161 255 0 0
-0.227534 0.163506 0.255161 255 0 0
0.073078 0.195876 0.219161 255 0 0
0.033200 0.192341 0.263161 255 0 0
-0.140223 0.139854 -0.089913 255 0 0
-0.116643 0.227244 0.241161 255 0 0
0.002034 0.179131 0.171194 255 0 0
-0.018348 0.249591 0.173971 255 0 0
0.015987 0.180929 0.215161 255 0 0
-0.017133 0.137652 -0.089800 255 0 0
-0.046294 0.267490 0.071161 255 0 0
0.145818 0.222474 0.085161 255 0 0
-0.039467 0.235957 0.205161 255 0 0
-0.014063 0.062507 -0.068839 255 0 0
-0.020934 0.186706 0.047161 255 0 0
0.059310 0.232089 0.161161 255 0 0
-0.109461 0.186391 -0.089978 255 0 0
-0.070851 0.180787 0.119161 255 0 0
-0.250979 0.161236 0.032185 255 0 0
-0.140696 0.164291 0.159161 255 0 0
-0.248712 0.152741 0.075161 255 0 0
-0.166906 0.184432 -0.094839 255 0 0
-0.181940 0.195151 0.277161 255 0 0
0.072508 0.212982 0.195161 255 0 0
-0.173300 0.170613 0.121161 255 0 0
-0.078004 0.179729 0.037161 255 0 0
-0.136052 0.233857 0.133161 255 0 0
-0.111397 0.167618 0.183161 255 0 0
0.075953 0.224158 0.017161 255 0 0
-0.169407 0.160311 0.199161 255 0 0
-0.047655 0.189483 0.005161 255 0 0
-0.056820 0.172760 0.077161 255 0 0
0.053698 0.199466 0.289161 255 0 0
0.140321 0.193303 0.211161 255 0 0
0.084469 0.198169 0.049161 255 0 0
0.132210 0.192971 0.097161 255 0 0
-0.200869 0.156396 0.275161 255 0 0
-0.284448 0.158013 0.035161 255 0 0
-0.062054 0.253298 -0.027798 255 0 0
-0.260200 0.161007 0.127161 255 0 0
-0.030874 0.185790 0.187161 255 0 0
0.053098 0.059651 -0.070839 255 0 0
0.111348 0.216140 0.105161 255 0 0
-0.181858 0.169647 0.031161 255 0 0
0.111725 0.215722 0.193161 255 0 0
-0.026608 0.172085 0.283161 255 0 0
-0.305869 0.153452 0.123161 255 0 0
-0.170478 0.170466 0.169161 255 0 0
-0.046237 -0.012352 -0.071275 255 0 0
-0.040877 0.048992 -0.088839 255 0 0
0.108110 0.216748 0.053161 255 0 0
-0.262633 0.150742 0.219161 255 0 0
-0.039865 0.174853 0.213161 255 0 0
-0.042016 0.174454 -0.044839 255 0 0
-0.141586 0.248969 0.169631 255 0 0
0.085494 0.217955 0.151161 255 0 0
0.082170 0.209690 0.263161 255 0 0
-0.000474 0.268376 0.103161 255 0 0
-0.045188 0.216633 0.275161 255 0 0
-0.090743 0.179023 0.149161 255 0 0
0.134395 0.193350 0.163161 255 0 0
-0.091317 0.154285 -0.095752 255 0 0
-0.062641 0.215093 -0.095790 255 0 0
-0.305237 0.152751 0.152184 255 0 0
-0.106387 0.176998 0.047161 255 0 0
0.100172 0.189697 0.133161 255 0 0
0.007514 0.189448 0.267161 255 0 0
0.065906 0.194874 0.085161 255 0 0
-0.096682 0.214044 0.274306 255 0 0
-0.066143 0.265763 0.055161 255 0 0
-0.002536 0.010849 -0.067670 255 0 0
-0.106090 0.182648 0.005161 255 0 0
-0.072890 0.181642 0.268164 255 0 0
-0.275808 0.173866 0.288069 255 0 0
-0.062338 0.193835 0.288022 255 0 0
-0.023872 0.185410 0.097161 255 0 0
-0.265328 0.150272 0.265161 255 0 0
-0.040934 0.183503 0.029161 255 0 0
-0.284276 0.147404 0.109679 255 0 0
-0.114482 0.036542 -0.065984 255 0 0
-0.223201 0.164717 0.031161 255 0 0
-0.162085 0.182068 0.286619 255 0 0
-0.248784 0.161787 0.175161 255 0 0
0.113276 0.190483 0.081161 255 0 0
0.023707 0.041482 -0.072839 255 0 0
0.053174 0.222486 0.183161 255 0 0
-0.039753 0.246465 -0.095728 255 0 0
0.000352 0.186978 0.025161 255 0 0
-0.110115 0.166963 -0.014839 255 0 0
-0.011237 0.272141 0.165161 255 0 0
-0.023653 0.040279 -0.073831 255 0 0
0.047736 0.225664 0.233161 255 0 0
0.033986 0.182501 0.065161 255 0 0
0.064555 0.196375 0.035161 255 0 0
-0.163877 0.222915 0.263161 255 0 0
-0.015244 0.186366 0.129161 255 0 0
-0.211776 0.165521 0.199161 255 0 0
-0.284384 0.147524 0.197161 255 0 0
-0.000996 0.188475 0.087161 255 0 0
-0.207496 0.166744 0.103161 255 0 0
0.151028 0.219895 0.229161 255 0 0
-0.179790 0.159885 0.053161 255 0 0
0.151869 0.219849 0.033161 255 0 0
-0.054067 0.244341 0.161161 255 0 0
-0.071457 0.171084 0.237161 255 0 0
-0.103790 0.168137 0.231161 255 0 0
0.057988 0.232203 0.035161 255 0 0
-0.048198 0.112373 -0.089605 255 0 0
-0.075700 0.190740 -0.070839 255 0 0
-0.240308 0.162771 0.199161 255 0 0
0.017045 0.195339 0.289539 255 0 0
-0.141431 0.224887 0.271615 255 0 0
-0.140241 0.220576 -0.090360 255 0 0
0.130517 0.215774 0.247161 255 0 0
0.135659 0.202562 0.049161 255 0 0
-0.150537 0.172231 0.129161 255 0 0
-0.143319 0.026724 -0.073586 255 0 0
-0.061240 0.171692 -0.068839 255 0 0
0.124224 0.213796 0.010171 255 0 0
-0.176125 0.170760 0.243161 255 0 0
0.039306 0.183087 0.177161 255 0 0
0.091315 0.213769 0.237161 255 0 0
-0.069927 0.163406 -0.004839 255 0 0
-0.139741 0.163230 -0.094839 255 0 0
-0.108510 0.167400 0.069161 255 0 0
-0.095054 0.177833 -0.038839 255 0 0
-0.222033 0.155989 0.139161 255 0 0
-0.136279 0.174330 -0.028839 255 0 0
-0.151249 0.253724 0.066175 255 0 0
-0.140916 0.248225 0.115161 255 0 0
0.008140 0.265008 0.129161 255 0 0
0.073483 0.221934 0.221161 255 0 0
-0.187528 0.168480 0.145161 255 0 0
-0.078728 0.170192 0.195161 255 0 0
-0.183259 0.169716 0.267161 255 0 0
-0.113293 0.166736 0.253161 255 0 0
-0.091997 0.238730 0.165161 255 0 0
-0.069914 0.063216 -0.066839 255 0 0
0.092427 0.214769 0.071161 255 0 0
0.104606 0.190750 0.008238 255 0 0
-0.150244 0.254630 0.019161 255 0 0
-0.300904 0.141960 0.289161 255 0 0
-0.084052 0.232896 0.269161 255 0 0
-0.146954 0.163398 0.243161 255 0 0
0.055144 0.233728 0.085161 255 0 0
0.108608 0.199735 0.029161 255 0 0
-0.023937 -0.019185 -0.071966 255 0 0
-0.073838 0.264218 0.105161 255 0 0
-0.117672 0.204478 0.275161 255 0 0
-0.176010 0.227423 0.171161 255 0 0
0.139073 0.192179 0.119161 255 0 0
0.153475 0.215913 0.133161 255 0 0
-0.084632 0.173761 0.009613 255 0 0
0.026129 0.246578 0.159161 255 0 0
0.099401 0.199519 0.180173 255 0 0
-0.165503 0.170918 0.094137 255 0 0
-0.007503 0.177768 -0.020839 255 0 0
-0.079563 0.108351 -0.095766 255 0 0
0.149867 0.191134 0.017161 255 0 0
-0.072111 0.263081 -0.092839 255 0 0
-0.067402 0.232336 0.233868 255 0 0
-0.214408 0.156487 0.236778 255 0 0
0.085904 0.196575 0.097161 255 0 0
0.157089 0.204196 0.153161 255 0 0
-0.150540 0.172234 0.209161 255 0 0
0.009564 0.179735 0.069161 255 0 0
-0.292402 0.168385 0.269161 255 0 0
0.157530 0.206697 0.073161 255 0 0
0.020648 0.251117 0.063161 255 0 0
0.042569 0.183334 0.137161 255 0 0
-0.091936 0.238662 -0.086839 255 0 0
-0.038006 0.184745 0.075161 255 0 0
0.035243 0.231918 0.193161 255 0 0
0.005471 0.257582 0.025161 255 0 0
-0.123281 0.165873 0.107127 255 0 0
0.155710 0.190783 0.195161 255 0 0
-0.241019 0.162131 0.096160 255 0 0
-0.122298 0.234041 -0.088839 255 0 0
-0.046508 0.239022 -0.020839 255 0 0
0.028616 0.254199 0.093161 255 0 0
-0.200143 0.185479 0.285394 255 0 0
0.050409 0.224041 0.257161 255 0 0
0.103269 0.192236 0.289957 255 0 0
-0.080205 0.051258 -0.082839 255 0 0
0.077102 0.206353 0.288601 255 0 0
0.007115 0.059908 -0.062910 255 0 0
-0.214699 0.156224 0.063161 255 0 0
-0.301258 0.145568 0.073161 255 0 0
0.071678 0.197430 0.241161 255 0 0
0.032176 0.182050 0.103161 255 0 0
-0.019948 0.236424 0.249161 255 0 0
0.112775 0.190645 0.159161 255 0 0
0.092683 0.188088 0.211161 255 0 0
-0.013356 0.193235 0.289161 255 0 0
-0.305948 0.152111 0.239161 255 0 0
0.046568 0.183473 0.083161 255 0 0
0.146772 0.188347 0.287161 255 0 0
-0.115703 0.175389 0.289938 255 0 0
0.119322 0.201308 0.120191 255 0 0
-0.004856 0.178311 0.239161 255 0 0
-0.223112 0.151209 0.289161 255 0 0
0.038744 0.190655 0.009161 255 0 0
-0.082702 0.183572 0.290183 255 0 0
-0.094296 0.178515 0.106158 255 0 0
-0.064251 0.172048 0.169161 255 0 0
-0.158188 0.040249 -0.063921 255 0 0
-0.005508 0.181531 0.005161 255 0 0
-0.281661 0.157831 0.253161 255 0 0
0.077847 0.193569 0.010168 255 0 0
0.099603 0.220219 0.029161 255 0 0
-0.244501 0.163009 0.225161 255 0 0
0.134156 0.217357 0.203161 255 0 0
0.120031 0.201948 0.265161 255 0 0
-0.029699 0.268176 0.109161 255 0 0
0.049607 0.235422 0.127161 255 0 0
-0.046279 0.175999 0.290414 255 0 0
-0.010448 0.157127 -0.095752 255 0 0
0.110092 0.201073 0.237161 255 0 0
-0.147667 0.172033 0.061161 255 0 0
-0.142323 0.222887 0.201161 255 0 0
-0.056920 0.232651 0.193161 255 0 0
-0.137867 0.238862 0.096187 255 0 0
-0.281518 0.159286 0.215161 255 0 0
-0.011157 0.265517 0.145161 255 0 0
-0.016992 0.239119 0.223161 255 0 0
-0.023971 0.216980 0.279161 255 0 0
-0.032014 0.175387 0.241161 255 0 0
-0.130581 0.173978 0.175161 255 0 0
-0.078941 -0.014887 -0.070479 255 0 0
-0.262897 0.150562 0.145161 255 0 0
-0.139093 0.174466 0.259161 255 0 0
-0.092122 0.179089 0.079161 255 0 0
0.155177 0.214754 0.171161 255 0 0
0.096114 0.220780 0.091161 255 0 0
-0.007735 -0.007289 -0.077770 255 0 0
0.058855 0.181850 0.279161 255 0 0
-0.212303 0.209516 0.179161 255 0 0
0.067642 0.227440 0.101161 255 0 0
-0.301053 0.145754 0.031161 255 0 0
0.079481 0.197731 0.172159 255 0 0
-0.049400 0.170498 -0.095746 255 0 0
-0.284458 0.158003 0.179161 255 0 0
-0.068431 0.185657 0.004194 255 0 0
-0.171247 0.157672 0.279161 255 0 0
-0.153612 0.181624 -0.001908 255 0 0
-0.223222 0.164699 0.161161 255 0 0
-0.027332 0.175879 0.169161 255 0 0
0.082306 0.197583 0.140157 255 0 0
-0.140247 0.247483 0.148163 255 0 0
-0.020574 0.234130 -0.090682 255 0 0
-0.285169 0.157363 0.056193 255 0 0
0.126214 0.214575 0.135161 255 0 0
0.079815 0.187266 0.267161 255 0 0
-0.160433 0.253530 0.109161 255 0 0
-0.057737 0.265259 0.019161 255 0 0
-0.058449 0.173115 0.037161 255 0 0
-0.216697 0.153052 0.015161 255 0 0
0.130503 0.215789 0.097161 255 0 0
0.004676 0.189584 0.125161 255 0 0
0.138479 0.202410 0.231161 255 0 0
0.020632 0.249703 0.135161 255 0 0
-0.119329 0.174814 0.031161 255 0 0
-0.109650 0.225457 0.201161 255 0 0
-0.048025 0.007568 -0.075784 255 0 0
0.014215 0.222394 0.274533 255 0 0
-0.105891 0.173459 -0.055659 255 0 0
0.126964 0.216732 0.061161 255 0 0
-0.071368 0.021537 -0.075777 255 0 0
0.063097 0.195005 0.191161 255 0 0
0.013277 0.190557 0.105161 255 0 0
-0.032314 0.185882 0.269161 255 0 0
-0.008086 0.229227 0.270333 255 0 0
-0.248806 0.161812 0.261161 255 0 0
0.052510 0.184210 0.155161 255 0 0
-0.070066 0.181494 0.056161 255 0 0
-0.006021 0.271769 0.077161 255 0 0
-0.255290 0.160046 0.290355 255 0 0
0.147374 0.209009 0.271161 255 0 0
-0.059779 0.053501 -0.081690 255 0 0
0.017181 0.240023 0.229161 255 0 0
-0.067996 0.180666 -0.016839 255 0 0
0.040524 0.238009 0.218592 255 0 0
0.012492 0.242241 0.251161 255 0 0
0.019194 0.178007 0.279161 255 0 0
0.025048 0.256369 0.031161 255 0 0
-0.285799 0.158062 0.153161 255 0 0
0.035793 0.241823 0.019161 255 0 0
-0.053195 0.234362 -0.086839 255 0 0
-0.025450 0.235122 0.189161 255 0 0
0.002906 0.257963 0.171161 255 0 0
0.154648 0.216968 0.111161 255 0 0
0.157117 0.192210 0.059161 255 0 0
-0.268724 0.160021 0.237161 255 0 0
-0.110109 0.166969 0.139161 255 0 0
0.102946 0.198571 0.065161 255 0 0
0.085686 0.219465 0.131161 255 0 0
-0.047974 0.183859 0.145161 255 0 0
-0.135771 0.170776 0.290561 255 0 0
0.138444 0.202380 0.029161 255 0 0
0.031021 0.191774 0.206128 255 0 0
-0.160874 0.219579 0.237161 255 0 0
0.091816 0.216911 0.191500 255 0 0
0.079254 0.229821 0.063161 255 0 0
-0.029469 0.266490 0.137161 255 0 0
-0.116349 0.176106 0.217161 255 0 0
0.118131 0.205619 0.289977 255 0 0
-0.080343 0.231448 0.195161 255 0 0
-0.177574 0.169380 0.215161 255 0 0
-0.187097 0.159548 0.167161 255 0 0
0.008687 0.241639 0.195161 255 0 0
-0.025190 0.186914 0.207161 255 0 0
0.145450 0.200612 0.251161 255 0 0
0.019129 0.181068 -0.002508 255 0 0
-0.181042 0.159618 0.079161 255 0 0
-0.002449 0.187100 0.219161 255 0 0
-0.091590 0.041007 -0.064607 255 0 0
-0.226206 0.187523 0.279161 255 0 0
-0.028454 0.175901 -0.024839 255 0 0
-0.005048 0.178030 0.055161 255 0 0
-0.054763 0.235641 -0.060839 255 0 0
-0.103817 0.226460 0.257161 255 0 0
-0.117821 0.165786 0.011161 255 0 0
0.038159 0.249336 0.119161 255 0 0
0.023217 0.191474 0.033161 255 0 0
-0.236560 0.166145 0.290159 255 0 0
-0.017553 0.021549 -0.075748 255 0 0
-0.048908 -0.036286 -0.069564 255 0 0
-0.031878 0.261629 -0.003782 255 0 0
-0.094592 0.172866 -0.090236 255 0 0
-0.051320 0.232411 0.221161 255 0 0
-0.142622 0.229198 0.172182 255 0 0
-0.109211 0.177146 0.271161 255 0 0
-0.087930 0.178866 0.227161 255 0 0
0.021603 0.180604 0.169161 255 0 0
-0.208940 0.165360 0.175161 255 0 0
-0.036594 0.174209 0.011161 255 0 0
0.031614 0.182148 0.245161 255 0 0
-0.012389 0.187676 0.181161 255 0 0
-0.120581 0.055272 -0.067797 255 0 0
-0.031772 0.175605 0.059161 255 0 0
-0.139945 0.226225 0.227457 255 0 0
-0.099166 0.168978 0.167161 255 0 0
-0.009272 0.119954 -0.090839 255 0 0
0.050304 0.194268 0.123161 255 0 0
-0.253951 0.158559 0.010191 255 0 0
-0.098761 0.201408 -0.095763 255 0 0
-0.137716 0.174407 0.037161 255 0 0
-0.139723 0.164526 0.223161 255 0 0
-0.039430 0.235991 0.253161 255 0 0
-0.287417 0.155339 0.015161 255 0 0
-0.188196 0.158559 0.119161 255 0 0
-0.113458 0.110128 -0.089451 255 0 0
0.141290 0.202250 0.139161 255 0 0
-0.084230 0.200215 0.279161 255 0 0
0.047341 0.193013 0.027161 255 0 0
-0.175255 0.220605 0.189161 255 0 0
-0.133844 0.164437 0.141161 255 0 0
0.121496 0.201883 0.203161 255 0 0
-0.144993 0.170546 0.011161 255 0 0
-0.136818 0.204819 0.274380 255 0 0
0.065681 0.236440 0.179161 255 0 0
-0.063683 0.181859 0.251161 255 0 0
-0.048820 0.235611 0.271614 255 0 0
-0.096445 0.177912 0.189161 255 0 0
-0.231728 0.163767 0.073161 255 0 0
-0.175709 0.221110 0.221161 255 0 0
-0.219743 0.156433 0.271161 255 0 0
0.071019 0.186207 0.159161 255 0 0
0.155314 0.190655 0.083161 255 0 0
-0.124176 0.175833 -0.095813 255 0 0
-0.202225 0.157901 0.087161 255 0 0
-0.063664 0.141506 -0.095731 255 0 0
-0.010966 0.187593 0.271161 255 0 0
0.139948 0.202312 0.193161 255 0 0
-0.092179 0.238933 0.141161 255 0 0
0.061086 0.185282 0.231161 255 0 0
0.102994 0.198519 0.199161 255 0 0
-0.056911 0.172862 0.223161 255 0 0
-0.020966 0.214939 -0.094839 255 0 0
-0.032528 0.263736 -0.092839 255 0 0
-0.033854 0.184494 0.113161 255 0 0
-0.236590 0.151234 0.025161 255 0 0
0.046599 0.246170 0.159161 255 0 0
-0.073662 0.180946 0.075161 255 0 0
0.004729 0.241897 0.215161 255 0 0
0.000042 0.260766 0.063161 255 0 0
0.137903 0.204582 0.290557 255 0 0
-0.180956 0.157004 0.017161 255 0 0
-0.055882 0.172736 0.127161 255 0 0
-0.245353 0.152846 0.135161 255 0 0
0.024712 0.192801 0.227161 255 0 0
-0.003473 0.209160 -0.089865 255 0 0
-0.075086 0.261793 0.011161 255 0 0
0.136775 0.192802 0.271161 255 0 0
-0.078572 0.171144 0.133161 255 0 0
-0.040780 0.194406 -0.046839 255 0 0
-0.147835 0.170678 0.275161 255 0 0
0.040310 0.046954 -0.064839 255 0 0
-0.265328 0.150271 0.083161 255 0 0
0.075721 0.186963 0.061161 255 0 0
-0.015815 0.178033 -0.094839 255 0 0
-0.189860 0.159112 0.235161 255 0 0
-0.220263 0.165978 0.117161 255 0 0
0.035479 0.195788 0.286226 255 0 0
-0.077123 0.172449 -0.078839 255 0 0
-0.054901 0.173618 -0.001140 255 0 0
-0.110653 0.175759 0.117161 255 0 0
-0.053558 0.042954 -0.064839 255 0 0
-0.132096 0.203688 -0.088839 255 0 0
0.095824 0.198990 0.117161 255 0 0
-0.155916 0.255918 0.153161 255 0 0
-0.004351 0.270268 0.013161 255 0 0
-0.125206 0.129154 -0.089164 255 0 0
-0.064417 0.181198 -0.089972 255 0 0
-0.006941 0.239912 0.185161 255 0 0
-0.032873 0.149154 -0.094839 255 0 0
-0.252238 0.152027 0.113161 255 0 0
-0.288907 0.153998 0.281161 255 0 0
0.045987 0.245619 0.057161 255 0 0
-0.055550 0.267229 0.087161 255 0 0
0.157233 0.192081 0.115161 255 0 0
0.124164 0.192212 0.035161 255 0 0
0.158103 0.197093 0.213161 255 0 0
0.020401 0.191613 0.141161 255 0 0
0.107965 0.215303 0.225161 255 0 0
-0.086230 0.008154 -0.069400 255 0 0
0.122856 0.200372 0.069161 255 0 0
-0.152688 0.162664 0.083161 255 0 0
-0.025589 0.057374 -0.082038 255 0 0
-0.129277 0.226332 0.257161 255 0 0
-0.113038 0.226231 0.174261 255 0 0
-0.211774 0.165517 0.221161 255 0 0
-0.150958 0.160743 0.027161 255 0 0
-0.055560 0.255053 -0.092839 255 0 0
0.068754 0.194701 0.103161 255 0 0
-0.204808 0.165131 0.027161 255 0 0
0.045900 0.221319 0.275161 255 0 0
-0.055085 0.182790 0.207161 255 0 0
-0.154193 0.162262 0.171161 255 0 0
-0.001537 0.192064 -0.095759 255 0 0
-0.063363 0.120248 -0.095762 255 0 0
0.006131 0.189527 0.201161 255 0 0
-0.265694 0.150678 0.033414 255 0 0
-0.232210 0.153915 0.239161 255 0 0
0.017877 0.182632 -0.090839 255 0 0
-0.059464 0.172708 -0.050839 255 0 0
-0.034986 0.202314 -0.093511 255 0 0
-0.248426 0.152770 0.049161 255 0 0
-0.285830 0.158096 0.095161 255 0 0
0.110354 0.190543 0.253161 255 0 0
0.050308 0.194264 0.269161 255 0 0
0.111261 0.215580 0.273161 255 0 0
0.010453 0.190704 0.159161 255 0 0
0.066762 0.235769 0.117161 255 0 0
0.129130 0.212832 0.165161 255 0 0
-0.113494 0.175926 0.199161 255 0 0
-0.305884 0.153469 0.275161 255 0 0
-0.030509 0.125607 -0.089679 255 0 0
0.057997 0.240286 0.145161 255 0 0
0.108706 0.201140 0.145161 255 0 0
-0.094728 0.116227 -0.090244 255 0 0
0.026919 0.235185 0.259161 255 0 0
-0.064013 0.171782 0.103161 255 0 0
0.157703 0.206504 0.047161 255 0 0
-0.152570 0.174489 -0.089387 255 0 0
-0.090741 0.177555 0.267161 255 0 0
-0.036255 0.099109 -0.090839 255 0 0
-0.050288 0.153551 -0.089775 255 0 0
0.139007 0.218302 0.019161 255 0 0
0.020155 0.254654 0.174290 255 0 0
0.157724 0.203590 0.027161 255 0 0
0.144977 0.220638 0.285161 255 0 0
-0.257431 0.160810 0.159161 255 0 0
-0.135465 0.164459 -0.012839 255 0 0
-0.277322 0.159047 0.121161 255 0 0
0.009502 0.024379 -0.075754 255 0 0
-0.075028 0.181027 0.157161 255 0 0
0.092488 0.214826 0.167161 255 0 0
0.157923 0.206462 0.187161 255 0 0
0.043140 0.193258 0.191161 255 0 0
-0.066311 0.231126 0.271161 255 0 0
-0.054457 0.182093 -0.033819 255 0 0
-0.008790 0.053661 -0.085995 255 0 0
0.041524 0.241600 0.093161 255 0 0
-0.152871 0.195747 -0.095751 255 0 0
-0.106673 0.009936 -0.074839 255 0 0
-0.187098 0.159546 0.201161 255 0 0
-0.161013 0.161503 0.055161 255 0 0
-0.067908 0.182087 0.183161 255 0 0
-0.161500 0.220274 0.200131 255 0 0
-0.101740 0.225638 -0.095812 255 0 0
-0.033050 0.185219 -0.089870 255 0 0
-0.037169 0.174849 0.091161 255 0 0
0.045996 0.193076 0.251161 255 0 0
-0.071853 0.201414 -0.089785 255 0 0
0.065565 0.216176 0.261161 255 0 0
-0.024099 0.271327 0.043161 255 0 0
-0.093402 0.168556 0.038954 255 0 0
0.115704 0.200742 0.095161 255 0 0
-0.288586 0.146213 0.165752 255 0 0
-0.235433 0.153704 0.167161 255 0 0
-0.156211 0.172554 0.155161 255 0 0
-0.034906 0.175474 0.153161 255 0 0
-0.050608 0.255531 -0.014809 255 0 0
-0.005270 0.188702 0.253161 255 0 0
0.095806 0.198974 0.225161 255 0 0
-0.082628 0.170184 -0.028839 255 0 0
-0.011190 0.177990 0.035161 255 0 0
0.018958 0.180913 0.257161 255 0 0
-0.201179 0.165707 0.289892 255 0 0
0.097988 0.189133 0.041161 255 0 0
-0.164862 0.161239 0.109161 255 0 0
-0.292636 0.144732 0.219161 255 0 0
-0.076434 0.170633 0.255161 255 0 0
-0.004264 0.239927 0.257161 255 0 0
0.068386 0.186142 0.205161 255 0 0
-0.124947 0.175139 0.069161 255 0 0
-0.007647 0.264609 0.044156 255 0 0
0.055801 0.185175 0.045161 255 0 0
0.025817 0.238223 0.179161 255 0 0
-0.262136 0.151190 0.181161 255 0 0
-0.033782 0.266733 0.059161 255 0 0
-0.173389 0.209568 0.272725 255 0 0
-0.195387 0.205909 0.275161 255 0 0
-0.036052 0.247107 0.171161 255 0 0
0.098608 0.198805 0.085161 255 0 0
-0.211063 0.156807 0.255161 255 0 0
-0.059337 0.266509 0.039161 255 0 0
-0.159421 0.232910 0.170251 255 0 0
-0.302029 0.144875 0.195161 255 0 0
0.094429 0.199064 0.253161 255 0 0
0.075810 0.231698 0.155161 255 0 0
-0.042329 0.183568 0.253161 255 0 0
0.038569 0.183390 0.219161 255 0 0
-0.081345 0.167121 0.025161 255 0 0
0.140846 0.192348 0.179161 255 0 0
0.141299 0.202258 0.085161 255 0 0
-0.062461 -0.012267 -0.076839 255 0 0
-0.080789 0.232260 0.223161 255 0 0
0.116501 0.216397 0.149161 255 0 0
0.008210 0.179311 0.187161 255 0 0
-0.155224 0.056375 -0.068839 255 0 0
-0.145899 0.123979 -0.092839 255 0 0
0.027428 0.191231 0.051161 255 0 0
-0.136290 0.174341 0.099161 255 0 0
-0.104547 0.145065 -0.090098 255 0 0
-0.041951 0.174513 0.179161 255 0 0
-0.246160 0.152118 0.211161 255 0 0
-0.177036 0.159816 0.181161 255 0 0
-0.133952 0.164339 0.189161 255 0 0
-0.289821 0.144595 0.045161 255 0 0
-0.100202 0.167816 -0.000839 255 0 0
-0.051199 0.232276 0.239161 255 0 0
-0.263059 0.159707 0.067161 255 0 0
-0.288660 0.173195 0.251161 255 0 0
-0.079129 0.167648 0.277161 255 0 0
-0.003743 0.236360 -0.090839 255 0 0
-0.167087 0.160722 0.033161 255 0 0
-0.217552 0.164421 0.047161 255 0 0
-0.075152 0.179606 -0.054839 255 0 0
0.059549 0.074824 -0.066839 255 0 0
-0.184034 0.159615 0.253161 255 0 0
0.011290 0.004460 -0.075769 255 0 0
0.053119 0.194131 0.219161 255 0 0
-0.148469 0.191637 0.283161 255 0 0
-0.031955 0.175440 0.041161 255 0 0
0.073423 0.184201 0.025161 255 0 0
-0.000334 0.133939 -0.097831 255 0 0
-0.038815 0.269334 0.093161 255 0 0
-0.049957 0.201007 0.279161 255 0 0
0.014130 0.162709 -0.090839 255 0 0
0.146799 0.191062 0.151161 255 0 0
0.088533 0.195116 0.279161 255 0 0
-0.004159 0.178939 0.155161 255 0 0
0.012331 0.254376 0.097161 255 0 0
-0.081791 0.092891 -0.089676 255 0 0
-0.213240 0.165613 0.077161 255 0 0
0.157469 0.206765 0.241161 255 0 0
-0.125315 0.165141 0.089161 255 0 0
-0.154686 0.227651 -0.094839 255 0 0
-0.224859 0.155150 0.199161 255 0 0
0.093753 0.213273 0.045161 255 0 0
-0.209653 0.166151 0.144168 255 0 0
0.119322 0.201308 0.174161 255 0 0
-0.137772 0.164032 0.121161 255 0 0
-0.046655 0.176417 -0.060839 255 0 0
-0.020838 0.268880 0.011161 255 0 0
-0.057429 0.179415 0.278154 255 0 0
-0.095796 0.168225 0.093161 255 0 0
-0.075106 0.231926 0.255161 255 0 0
-0.226410 0.154873 0.103161 255 0 0
0.038395 0.179575 0.023161 255 0 0
-0.029516 0.185710 0.139161 255 0 0
-0.300152 0.146565 0.137161 255 0 0
-0.037748 0.175491 -0.006839 255 0 0
0.021344 0.250344 0.046191 255 0 0
-0.112504 0.225639 0.225161 255 0 0
-0.079132 0.170640 -0.095825 255 0 0
0.065743 0.186090 0.125161 255 0 0
-0.017992 0.177248 0.115161 255 0 0
0.011704 0.179764 0.035161 255 0 0
0.122464 0.191839 0.231161 255 0 0
0.124308 0.201748 0.153161 255 0 0
-0.032409 0.265209 0.029161 255 0 0
-0.005272 0.187245 0.069161 255 0 0
-0.055152 0.235291 -0.034839 255 0 0
0.099474 0.220362 0.117161 255 0 0
0.066012 0.236737 0.073161 255 0 0
0.039359 0.182512 0.119161 255 0 0
0.139109 0.219124 0.261161 255 0 0
-0.180801 0.217799 0.257161 255 0 0
-0.130417 0.164831 0.249071 255 0 0
-0.179730 0.159819 0.133161 255 0 0
-0.127195 0.237706 0.173161 255 0 0
0.069696 0.234672 0.047161 255 0 0
0.048376 0.245079 0.029161 255 0 0
-0.025129 0.267707 0.073161 255 0 0
0.138143 0.218254 0.045161 255 0 0
-0.098607 0.177325 0.290705 255 0 0
0.009466 0.185823 0.010196 255 0 0
0.103749 0.218604 0.179161 255 0 0
0.115098 0.216344 0.209161 255 0 0
-0.065204 0.180488 0.089161 255 0 0
-0.159016 0.172682 0.237161 255 0 0
-0.085053 0.057658 -0.064093 255 0 0
0.033124 0.028034 -0.068839 255 0 0
-0.289242 0.145623 0.085161 255 0 0
-0.263051 0.161132 0.253161 255 0 0
-0.126888 0.028063 -0.072839 255 0 0
-0.081268 0.170024 0.111161 255 0 0
0.043150 0.193247 0.097161 255 0 0
-0.101432 0.177474 -0.023811 255 0 0
-0.014936 0.177057 0.215161 255 0 0
-0.303024 0.153281 0.255161 255 0 0
-0.083743 0.169179 0.213161 255 0 0
0.133423 0.215535 0.077161 255 0 0
-0.022000 -0.036280 -0.070339 255 0 0
0.063411 0.226322 0.197161 255 0 0
-0.188892 0.155050 0.289161 255 0 0
-0.038021 0.184762 0.227161 255 0 0
-0.263841 0.172531 0.277161 255 0 0
-0.194696 0.167472 0.055161 255 0 0
0.072992 0.186506 0.045161 255 0 0
0.069565 0.186111 0.179161 255 0 0
-0.122980 0.144615 -0.095816 255 0 0
0.082898 0.208882 0.224182 255 0 0
-0.230969 0.153958 0.041161 255 0 0
-0.164762 0.170096 0.187161 255 0 0
-0.037010 0.174673 0.197161 255 0 0
-0.120631 0.174885 -0.024839 255 0 0
0.059171 0.184826 0.073161 255 0 0
0.127180 0.201546 0.219161 255 0 0
-0.077491 0.147896 -0.089581 255 0 0
0.014766 0.179937 0.093161 255 0 0
-0.121751 0.234533 0.141161 255 0 0
-0.019550 0.186609 0.243161 255 0 0
0.006150 0.222383 -0.090839 255 0 0
-0.012521 0.177363 0.089161 255 0 0
0.080308 0.217314 0.277161 255 0 0
0.021734 0.061607 -0.080839 255 0 0
0.015036 0.180074 0.117161 255 0 0
0.080791 0.187309 0.251161 255 0 0
0.017638 0.206637 0.278191 255 0 0
0.116644 0.216237 0.239161 255 0 0
-0.081334 0.047550 -0.101716 255 0 0
-0.273128 0.157440 0.277161 255 0 0
0.078546 0.186814 0.231161 255 0 0
-0.248377 0.152813 0.189161 255 0 0
0.112604 0.214098 0.021161 255 0 0
-0.031972 0.016640 -0.069101 255 0 0
-0.292332 0.144394 0.123161 255 0 0
0.070064 0.193246 0.279161 255 0 0
0.043146 0.193251 0.053161 255 0 0
0.149133 0.220076 0.191161 255 0 0
-0.300201 0.146520 0.109161 255 0 0
-0.189893 0.218929 0.228227 255 0 0
-0.057393 0.017972 -0.068134 255 0 0
-0.039771 0.043235 -0.072839 255 0 0
-0.253366 0.148321 0.023161 255 0 0
0.073406 0.232629 0.031161 255 0 0
0.119131 0.217284 0.121161 255 0 0
0.008549 0.179614 0.229161 255 0 0
0.148628 0.206166 0.121161 255 0 0
-0.112055 0.177315 0.241161 255 0 0
-0.162973 0.165121 -0.001909 255 0 0
0.043924 0.072829 -0.068839 255 0 0
0.021987 0.249629 0.079161 255 0 0
0.001485 -0.020517 -0.071308 255 0 0
-0.290362 0.145197 0.249161 255 0 0
-0.025211 0.185479 0.029161 255 0 0
