ply
format ascii 1.0
element vertex 1195
property float x
property float y
property float z
property uchar red
property uchar green
property uchar blue
end_header
-0.274843 -0.188307 -0.044657 0 255 255
-0.291124 -0.261981 -0.045141 0 255 255
-0.309800 -0.303142 -0.075141 0 255 255
-0.342930 -0.194331 -0.052117 0 255 255
-0.350381 -0.296039 -0.052092 0 255 255
-0.284547 -0.313104 -0.059141 0 255 255
-0.379649 -0.102217 -0.055141 0 255 255
-0.257808 -0.209204 -0.045141 0 255 255
-0.287912 -0.168079 -0.052116 0 255 255
-0.271719 -0.236910 -0.052114 0 255 255
-0.319674 -0.252667 -0.044736 0 255 255
-0.373950 -0.163992 -0.073141 0 255 255
-0.282408 -0.275455 -0.044705 0 255 255
-0.335303 -0.256636 -0.045234 0 255 255
-0.257076 -0.176630 -0.044937 0 255 255
-0.288755 -0.201053 -0.044727 0 255 255
-0.314524 -0.279002 -0.052118 0 255 255
-0.260451 -0.275318 -0.061141 0 255 255
-0.394646 -0.302442 -0.071141 0 255 255
-0.328678 -0.225265 -0.044751 0 255 255
-0.258309 -0.300817 -0.074105 0 255 255
-0.342914 -0.231694 -0.044900 0 255 255
-0.386156 -0.252910 -0.047658 0 255 255
-0.340971 -0.269592 -0.052106 0 255 255
-0.368155 -0.128130 -0.045141 0 255 255
-0.250489 -0.114118 -0.045141 0 255 255
-0.373118 -0.198412 -0.054141 0 255 255
-0.304513 -0.153098 -0.045022 0 255 255
-0.280122 -0.110050 -0.046452 0 255 255
-0.240437 -0.124112 -0.069141 0 255 255
-0.368826 -0.220357 -0.052067 0 255 255
-0.376227 -0.187173 -0.072070 0 255 255
-0.303382 -0.298696 -0.044853 0 255 255
-0.330574 -0.299456 -0.049990 0 255 255
-0.333055 -0.158722 -0.051141 0 255 255
-0.255166 -0.139802 -0.050070 0 255 255
-0.367239 -0.177212 -0.052134 0 255 255
-0.261629 -0.297821 -0.052099 0 255 255
-0.377687 -0.282240 -0.044896 0 255 255
-0.274083 -0.215499 -0.044516 0 255 255
-0.234890 -0.126565 -0.049141 0 255 255
-0.345309 -0.135558 -0.052094 0 255 255
-0.253093 -0.229622 -0.044696 0 255 255
-0.367671 -0.298515 -0.067141 0 255 255
-0.330152 -0.282969 -0.052133 0 255 255
-0.349895 -0.309253 -0.059141 0 255 255
-0.317080 -0.168476 -0.045141 0 255 255
-0.241403 -0.185128 -0.049141 0 255 255
-0.339188 -0.180840 -0.044443 0 255 255
-0.359822 -0.247760 -0.044919 0 255 255
-0.390893 -0.277474 -0.055141 0 255 255
-0.318136 -0.239639 -0.051141 0 255 255
-0.356742 -0.306727 -0.045141 0 255 255
-0.242453 -0.155780 -0.045141 0 255 255
-0.272997 -0.249008 -0.044818 0 255 255
-0.382436 -0.306851 -0.059141 0 255 255
-0.383155 -0.291101 -0.071141 0 255 255
-0.243223 -0.201228 -0.049141 0 255 255
-0.387105 -0.206986 -0.055141 0 255 255
-0.283313 -0.136147 -0.045141 0 255 255
-0.307077 -0.312023 -0.047141 0 255 255
-0.349067 -0.111685 -0.044647 0 255 255
-0.312983 -0.123768 -0.052117 0 255 255
-0.244565 -0.178025 -0.071141 0 255 255
-0.252312 -0.163423 -0.061141 0 255 255
-0.365198 -0.192307 -0.044775 0 255 255
-0.305664 -0.217118 -0.044948 0 255 255
-0.280788 -0.307037 -0.074023 0 255 255
-0.358364 -0.152692 -0.044944 0 255 255
-0.353188 -0.274505 -0.045141 0 255 255
-0.263439 -0.259444 -0.045141 0 255 255
-0.379877 -0.233896 -0.059141 0 255 255
-0.257353 -0.282404 -0.074106 0 255 255
-0.263977 -0.313775 -0.054027 0 255 255
-0.381408 -0.243269 -0.069141 0 255 255
-0.363045 -0.117185 -0.051141 0 255 255
-0.374270 -0.146206 -0.057141 0 255 255
-0.253986 -0.192016 -0.059141 0 255 255
-0.329260 -0.115103 -0.044576 0 255 255
-0.333319 -0.301871 -0.075141 0 255 255
-0.248509 -0.302896 -0.049141 0 255 255
-0.302165 -0.137145 -0.049993 0 255 255
-0.278651 -0.299328 -0.052093 0 255 255
-0.303882 -0.285531 -0.045141 0 255 255
-0.386572 -0.184304 -0.055141 0 255 255
-0.387898 -0.296012 -0.047141 0 255 255
-0.246036 -0.151789 -0.073141 0 255 255
-0.259767 -0.313559 -0.071141 0 255 255
-0.252349 -0.219452 -0.057872 0 255 255
-0.243786 -0.115976 -0.059141 0 255 255
-0.302035 -0.189069 -0.044688 0 255 255
-0.365995 -0.262536 -0.045141 0 255 255
-0.337359 -0.204178 -0.044617 0 255 255
-0.264349 -0.195369 -0.050045 0 255 255
-0.370267 -0.105806 -0.044805 0 255 255
-0.298859 -0.312403 -0.063141 0 255 255
-0.333522 -0.310090 -0.057141 0 255 255
-0.384030 -0.220291 -0.047141 0 255 255
-0.364227 -0.211255 -0.044259 0 255 255
-0.321226 -0.303170 -0.059141 0 255 255
-0.246177 -0.129842 -0.044206 0 255 255
-0.373991 -0.298851 -0.053141 0 255 255
-0.251310 -0.140870 -0.062074 0 255 255
-0.291557 -0.158767 -0.044370 0 255 255
-0.382041 -0.253039 -0.061141 0 255 255
-0.372849 -0.111316 -0.061141 0 255 255
-0.378359 -0.213563 -0.061141 0 255 255
-0.342961 -0.119605 -0.052100 0 255 255
-0.252430 -0.279618 -0.052607 0 255 255
-0.282342 -0.177926 -0.044919 0 255 255
-0.313258 -0.311861 -0.065141 0 255 255
-0.318199 -0.194963 -0.052115 0 255 255
-0.357879 -0.285657 -0.052106 0 255 255
-0.373406 -0.162030 -0.055141 0 255 255
-0.265822 -0.163261 -0.045141 0 255 255
-0.300935 -0.259940 -0.052113 0 255 255
-0.271964 -0.275216 -0.051141 0 255 255
-0.272623 -0.120432 -0.044898 0 255 255
-0.370851 -0.242625 -0.044759 0 255 255
-0.283395 -0.219144 -0.052090 0 255 255
-0.303995 -0.113808 -0.044460 0 255 255
-0.376566 -0.199531 -0.071141 0 255 255
-0.292594 -0.237347 -0.052134 0 255 255
-0.251474 -0.261204 -0.044970 0 255 255
-0.302282 -0.178622 -0.051141 0 255 255
-0.268543 -0.150620 -0.050059 0 255 255
-0.325163 -0.182655 -0.044633 0 255 255
-0.281226 -0.286160 -0.052130 0 255 255
-0.341641 -0.309430 -0.071141 0 255 255
-0.374897 -0.133579 -0.061141 0 255 255
-0.368763 -0.167741 -0.045141 0 255 255
-0.292650 -0.304904 -0.055141 0 255 255
-0.384168 -0.195347 -0.051141 0 255 255
-0.382787 -0.125165 -0.055141 0 255 255
-0.372177 -0.142635 -0.044650 0 255 255
-0.288577 -0.118083 -0.044433 0 255 255
-0.279844 -0.146467 -0.051141 0 255 255
-0.356781 -0.300490 -0.063141 0 255 255
-0.379683 -0.263007 -0.055141 0 255 255
-0.324160 -0.276330 -0.044529 0 255 255
-0.293503 -0.225655 -0.051141 0 255 255
-0.290862 -0.283488 -0.044493 0 255 255
-0.322295 -0.127412 -0.044676 0 255 255
-0.323041 -0.137582 -0.052134 0 255 255
-0.349132 -0.209215 -0.044944 0 255 255
-0.324659 -0.106000 -0.050053 0 255 255
-0.298927 -0.200307 -0.052135 0 255 255
-0.390486 -0.295294 -0.063141 0 255 255
-0.368184 -0.307848 -0.045141 0 255 255
-0.352550 -0.229022 -0.052067 0 255 255
-0.354088 -0.137274 -0.044269 0 255 255
-0.387857 -0.281495 -0.065444 0 255 255
-0.340071 -0.294747 -0.045141 0 255 255
-0.320224 -0.217232 -0.044952 0 255 255
-0.250993 -0.128506 -0.069141 0 255 255
-0.271171 -0.227451 -0.045141 0 255 255
-0.250650 -0.275961 -0.067141 0 255 255
-0.379518 -0.277582 -0.055141 0 255 255
-0.350665 -0.173507 -0.051141 0 255 255
-0.262277 -0.285189 -0.052135 0 255 255
-0.266924 -0.182201 -0.050029 0 255 255
-0.332548 -0.186833 -0.052122 0 255 255
-0.370642 -0.309225 -0.069141 0 255 255
-0.253870 -0.165067 -0.044820 0 255 255
-0.329310 -0.249995 -0.052104 0 255 255
-0.295801 -0.248911 -0.044664 0 255 255
-0.260479 -0.233801 -0.052093 0 255 255
-0.300331 -0.302665 -0.069141 0 255 255
-0.249320 -0.290858 -0.074017 0 255 255
-0.250078 -0.244987 -0.051141 0 255 255
-0.310619 -0.145178 -0.049986 0 255 255
-0.354493 -0.191124 -0.052117 0 255 255
-0.310021 -0.292703 -0.052126 0 255 255
-0.260652 -0.298092 -0.063141 0 255 255
-0.332743 -0.232439 -0.052129 0 255 255
-0.312499 -0.256733 -0.052113 0 255 255
-0.352760 -0.237266 -0.044719 0 255 255
-0.289427 -0.304641 -0.067141 0 255 255
-0.243618 -0.136777 -0.055141 0 255 255
-0.293665 -0.174786 -0.045141 0 255 255
-0.336531 -0.133841 -0.044829 0 255 255
-0.247550 -0.200027 -0.065141 0 255 255
-0.309647 -0.164126 -0.052140 0 255 255
-0.273369 -0.130603 -0.050046 0 255 255
-0.360033 -0.256004 -0.052103 0 255 255
-0.375137 -0.153306 -0.071141 0 255 255
-0.261840 -0.306065 -0.044992 0 255 255
-0.378728 -0.244592 -0.055141 0 255 255
-0.281452 -0.257041 -0.044771 0 255 255
-0.315156 -0.303732 -0.044263 0 255 255
-0.383581 -0.266077 -0.069954 0 255 255
-0.377453 -0.258949 -0.045141 0 255 255
-0.281786 -0.194684 -0.051141 0 255 255
-0.371495 -0.125204 -0.055141 0 255 255
-0.371267 -0.229157 -0.045141 0 255 255
-0.309843 -0.209734 -0.052137 0 255 255
-0.265289 -0.251146 -0.052129 0 255 255
-0.241853 -0.226512 -0.048261 0 255 255
-0.382880 -0.152119 -0.051141 0 255 255
-0.361621 -0.299148 -0.052063 0 255 255
-0.376551 -0.180856 -0.058122 0 255 255
-0.283748 -0.210743 -0.045141 0 255 255
-0.369977 -0.284378 -0.052121 0 255 255
-0.286036 -0.303506 -0.044672 0 255 255
-0.343546 -0.256425 -0.052126 0 255 255
-0.281030 -0.240554 -0.044646 0 255 255
-0.372552 -0.271211 -0.044784 0 255 255
-0.387138 -0.241482 -0.049141 0 255 255
-0.331319 -0.309627 -0.044898 0 255 255
-0.292317 -0.131575 -0.050024 0 255 255
-0.298407 -0.161018 -0.052110 0 255 255
-0.253586 -0.201461 -0.051141 0 255 255
-0.251291 -0.148282 -0.045141 0 255 255
-0.346039 -0.183091 -0.052134 0 255 255
-0.387461 -0.229717 -0.053141 0 255 255
-0.310634 -0.107815 -0.052123 0 255 255
-0.274433 -0.314056 -0.055141 0 255 255
-0.336258 -0.275050 -0.044449 0 255 255
-0.378139 -0.224001 -0.056115 0 255 255
-0.319968 -0.302397 -0.071141 0 255 255
-0.324531 -0.157924 -0.044507 0 255 255
-0.337019 -0.143083 -0.051141 0 255 255
-0.356518 -0.213393 -0.052110 0 255 255
-0.252890 -0.269113 -0.053141 0 255 255
-0.247116 -0.185619 -0.063749 0 255 255
-0.373129 -0.131097 -0.071141 0 255 255
-0.253007 -0.150777 -0.065141 0 255 255
-0.376504 -0.292945 -0.044938 0 255 255
-0.330508 -0.201927 -0.052131 0 255 255
-0.349796 -0.159219 -0.052088 0 255 255
-0.267897 -0.305454 -0.075141 0 255 255
-0.341572 -0.301694 -0.053141 0 255 255
-0.321820 -0.118213 -0.051141 0 255 255
-0.388108 -0.283501 -0.047141 0 255 255
-0.307493 -0.193781 -0.052134 0 255 255
-0.349780 -0.196582 -0.044687 0 255 255
-0.284659 -0.268605 -0.052133 0 255 255
-0.251827 -0.184313 -0.051141 0 255 255
-0.254276 -0.218917 -0.044800 0 255 255
-0.282502 -0.313214 -0.047141 0 255 255
-0.383970 -0.166345 -0.059141 0 255 255
-0.311867 -0.232003 -0.044745 0 255 255
-0.245542 -0.171528 -0.063141 0 255 255
-0.333369 -0.167339 -0.045141 0 255 255
-0.305211 -0.275358 -0.044641 0 255 255
-0.377111 -0.299003 -0.063141 0 255 255
-0.359853 -0.173034 -0.044847 0 255 255
-0.382090 -0.140956 -0.061141 0 255 255
-0.269823 -0.304915 -0.055141 0 255 255
-0.328791 -0.210705 -0.044872 0 255 255
-0.344096 -0.220989 -0.044627 0 255 255
-0.279134 -0.166362 -0.044976 0 255 255
-0.367010 -0.150294 -0.051141 0 255 255
-0.369798 -0.201408 -0.044966 0 255 255
-0.372939 -0.115443 -0.071954 0 255 255
-0.338978 -0.172597 -0.052138 0 255 255
-0.382093 -0.112903 -0.057141 0 255 255
-0.299137 -0.208551 -0.044941 0 255 255
-0.362592 -0.280200 -0.044889 0 255 255
-0.381107 -0.219736 -0.069141 0 255 255
-0.261790 -0.171172 -0.052121 0 255 255
-0.383445 -0.205715 -0.065141 0 255 255
-0.389020 -0.262493 -0.051141 0 255 255
-0.307154 -0.237460 -0.052117 0 255 255
-0.259779 -0.265127 -0.065141 0 255 255
-0.319847 -0.148517 -0.045141 0 255 255
-0.303677 -0.224921 -0.051141 0 255 255
-0.242556 -0.134997 -0.065141 0 255 255
-0.267021 -0.205005 -0.044799 0 255 255
-0.242238 -0.120556 -0.045141 0 255 255
-0.320418 -0.262839 -0.045037 0 255 255
-0.245430 -0.161181 -0.053141 0 255 255
-0.374519 -0.177269 -0.071141 0 255 255
-0.374640 -0.177235 -0.045141 0 255 255
-0.261158 -0.146442 -0.044644 0 255 255
-0.278367 -0.313934 -0.067141 0 255 255
-0.299282 -0.119266 -0.052139 0 255 255
-0.313051 -0.311112 -0.055141 0 255 255
-0.338946 -0.247323 -0.044569 0 255 255
-0.327901 -0.289820 -0.045062 0 255 255
-0.244023 -0.159496 -0.065897 0 255 255
-0.341018 -0.157503 -0.044515 0 255 255
-0.270407 -0.299539 -0.044716 0 255 255
-0.322572 -0.233184 -0.044602 0 255 255
-0.369911 -0.186849 -0.052107 0 255 255
-0.328914 -0.300955 -0.065141 0 255 255
-0.356389 -0.265316 -0.052129 0 255 255
-0.285240 -0.158443 -0.052129 0 255 255
-0.251342 -0.170920 -0.053141 0 255 255
-0.312319 -0.173763 -0.052128 0 255 255
-0.304813 -0.311343 -0.071141 0 255 255
-0.248980 -0.210009 -0.055141 0 255 255
-0.326782 -0.151073 -0.052121 0 255 255
-0.364169 -0.304668 -0.075141 0 255 255
-0.388637 -0.306757 -0.051141 0 255 255
-0.345401 -0.300535 -0.075141 0 255 255
-0.324207 -0.164240 -0.052104 0 255 255
-0.370040 -0.134926 -0.052043 0 255 255
-0.337714 -0.123135 -0.044562 0 255 255
-0.370009 -0.209651 -0.052117 0 255 255
-0.261271 -0.131883 -0.052134 0 255 255
-0.349390 -0.105368 -0.052134 0 255 255
-0.315623 -0.208130 -0.044419 0 255 255
-0.306182 -0.256409 -0.044672 0 255 255
-0.311219 -0.244635 -0.044664 0 255 255
-0.355628 -0.292508 -0.044687 0 255 255
-0.263248 -0.266240 -0.052101 0 255 255
-0.382792 -0.185351 -0.065141 0 255 255
-0.390871 -0.253678 -0.057141 0 255 255
-0.347498 -0.278159 -0.052107 0 255 255
-0.329002 -0.218948 -0.052114 0 255 255
-0.289711 -0.219468 -0.044696 0 255 255
-0.392206 -0.307270 -0.063141 0 255 255
-0.356873 -0.132351 -0.052076 0 255 255
-0.350186 -0.250433 -0.044836 0 255 255
-0.259457 -0.117857 -0.049983 0 255 255
-0.359238 -0.110940 -0.044840 0 255 255
-0.283364 -0.293870 -0.044870 0 255 255
-0.243509 -0.262418 -0.051141 0 255 255
-0.353132 -0.118860 -0.052116 0 255 255
-0.277094 -0.181457 -0.052140 0 255 255
-0.352816 -0.143853 -0.051141 0 255 255
-0.356292 -0.242513 -0.052133 0 255 255
-0.345602 -0.203968 -0.052107 0 255 255
-0.382324 -0.272652 -0.063141 0 255 255
-0.344985 -0.141874 -0.044940 0 255 255
-0.358140 -0.309051 -0.067141 0 255 255
-0.297292 -0.269252 -0.044950 0 255 255
-0.298749 -0.311925 -0.053141 0 255 255
-0.369732 -0.103879 -0.054101 0 255 255
-0.362186 -0.226349 -0.044973 0 255 255
-0.278327 -0.305643 -0.060132 0 255 255
-0.339721 -0.238806 -0.051141 0 255 255
-0.251459 -0.298567 -0.067972 0 255 255
-0.269159 -0.212714 -0.052094 0 255 255
-0.269565 -0.266564 -0.044512 0 255 255
-0.392221 -0.290662 -0.055141 0 255 255
-0.385838 -0.228092 -0.065141 0 255 255
-0.247213 -0.208423 -0.044615 0 255 255
-0.277824 -0.228990 -0.052106 0 255 255
-0.360870 -0.184183 -0.051141 0 255 255
-0.341310 -0.225913 -0.052104 0 255 255
-0.347596 -0.300962 -0.044618 0 255 255
-0.338006 -0.191545 -0.044645 0 255 255
-0.313275 -0.192177 -0.044649 0 255 255
-0.377296 -0.191027 -0.058103 0 255 255
-0.248525 -0.145795 -0.054255 0 255 255
-0.263911 -0.216245 -0.044563 0 255 255
-0.293016 -0.253834 -0.052090 0 255 255
-0.253553 -0.293835 -0.055141 0 255 255
-0.321050 -0.287569 -0.052093 0 255 255
-0.287331 -0.278241 -0.052115 0 255 255
-0.315706 -0.268297 -0.052103 0 255 255
-0.338895 -0.112430 -0.045028 0 255 255
-0.261422 -0.291652 -0.045141 0 255 255
-0.375806 -0.170686 -0.058140 0 255 255
-0.380163 -0.246270 -0.045115 0 255 255
-0.304831 -0.128104 -0.051141 0 255 255
-0.320660 -0.177676 -0.051141 0 255 255
-0.261793 -0.287399 -0.061141 0 255 255
-0.365307 -0.159069 -0.045141 0 255 255
-0.295785 -0.286273 -0.052099 0 255 255
-0.260025 -0.292040 -0.070110 0 255 255
-0.374608 -0.218753 -0.044768 0 255 255
-0.312291 -0.158691 -0.045141 0 255 255
-0.255392 -0.252879 -0.051141 0 255 255
-0.246792 -0.191935 -0.052465 0 255 255
-0.331514 -0.265430 -0.045141 0 255 255
-0.347901 -0.302066 -0.065141 0 255 255
-0.377803 -0.125499 -0.047141 0 255 255
-0.294456 -0.139283 -0.044291 0 255 255
-0.253012 -0.169456 -0.068120 0 255 255
-0.300982 -0.147850 -0.052117 0 255 255
-0.374131 -0.235490 -0.051141 0 255 255
-0.247440 -0.179303 -0.044826 0 255 255
-0.372068 -0.299398 -0.075141 0 255 255
-0.265817 -0.238081 -0.045141 0 255 255
-0.242617 -0.145357 -0.067141 0 255 255
-0.264213 -0.314621 -0.063141 0 255 255
-0.339999 -0.288540 -0.052104 0 255 255
-0.257353 -0.282404 -0.044944 0 255 255
-0.252559 -0.227695 -0.054008 0 255 255
-0.255761 -0.299113 -0.045141 0 255 255
-0.378229 -0.205296 -0.057141 0 255 255
-0.251635 -0.314170 -0.067141 0 255 255
-0.255665 -0.197777 -0.069141 0 255 255
-0.370949 -0.265429 -0.052118 0 255 255
-0.253285 -0.181833 -0.069141 0 255 255
-0.375601 -0.307724 -0.053141 0 255 255
-0.275589 -0.198478 -0.044312 0 255 255
-0.320131 -0.299220 -0.051141 0 255 255
-0.250354 -0.122456 -0.049996 0 255 255
-0.341295 -0.263275 -0.044447 0 255 255
-0.285014 -0.187562 -0.044556 0 255 255
-0.322264 -0.202138 -0.045016 0 255 255
-0.248304 -0.237177 -0.045141 0 255 255
-0.297389 -0.292055 -0.044495 0 255 255
-0.368550 -0.114584 -0.044441 0 255 255
-0.385823 -0.174134 -0.055141 0 255 255
-0.248568 -0.120877 -0.065141 0 255 255
-0.335025 -0.150862 -0.044774 0 255 255
-0.286860 -0.126861 -0.044654 0 255 255
-0.285030 -0.150199 -0.044873 0 255 255
-0.289808 -0.242270 -0.044851 0 255 255
-0.259749 -0.186267 -0.044483 0 255 255
-0.349878 -0.219386 -0.052133 0 255 255
-0.365070 -0.244229 -0.052078 0 255 255
-0.288431 -0.207369 -0.052126 0 255 255
-0.296691 -0.169796 -0.052139 0 255 255
-0.327593 -0.258773 -0.052113 0 255 255
-0.276528 -0.254255 -0.052124 0 255 255
-0.376438 -0.195416 -0.045070 0 255 255
-0.254955 -0.131558 -0.044690 0 255 255
-0.303607 -0.269576 -0.052121 0 255 255
-0.295396 -0.195060 -0.044610 0 255 255
-0.251515 -0.313740 -0.055141 0 255 255
-0.252754 -0.273301 -0.044655 0 255 255
-0.331869 -0.274191 -0.052119 0 255 255
-0.380421 -0.163179 -0.067141 0 255 255
-0.333571 -0.310267 -0.067141 0 255 255
-0.270947 -0.159291 -0.051141 0 255 255
-0.333648 -0.115961 -0.052141 0 255 255
-0.380549 -0.148615 -0.065141 0 255 255
-0.323430 -0.228796 -0.052134 0 255 255
-0.366915 -0.183529 -0.044588 0 255 255
-0.382144 -0.179305 -0.049141 0 255 255
-0.315926 -0.284059 -0.045141 0 255 255
-0.277711 -0.243550 -0.052120 0 255 255
-0.279736 -0.265819 -0.045492 0 255 255
-0.309987 -0.120447 -0.044650 0 255 255
-0.314215 -0.247955 -0.052128 0 255 255
-0.352034 -0.283128 -0.045141 0 255 255
-0.286829 -0.313848 -0.069141 0 255 255
-0.286376 -0.259827 -0.052093 0 255 255
-0.309000 -0.176760 -0.044678 0 255 255
-0.266990 -0.279731 -0.044705 0 255 255
-0.382973 -0.203981 -0.047141 0 255 255
-0.385923 -0.237102 -0.065141 0 255 255
-0.316957 -0.310227 -0.073141 0 255 255
-0.242618 -0.124602 -0.053141 0 255 255
-0.364340 -0.196695 -0.052126 0 255 255
-0.261840 -0.306065 -0.066146 0 255 255
-0.381962 -0.297658 -0.056120 0 255 255
-0.252846 -0.153891 -0.057141 0 255 255
-0.309778 -0.303148 -0.051141 0 255 255
-0.382294 -0.160584 -0.049141 0 255 255
-0.262632 -0.204146 -0.052121 0 255 255
-0.371012 -0.115976 -0.054068 0 255 255
-0.300596 -0.303619 -0.052127 0 255 255
-0.302437 -0.242903 -0.045141 0 255 255
-0.386651 -0.299597 -0.073141 0 255 255
-0.272171 -0.178671 -0.044273 0 255 255
-0.315382 -0.274612 -0.044835 0 255 255
-0.359385 -0.268636 -0.044766 0 255 255
-0.252978 -0.281597 -0.061141 0 255 255
-0.273490 -0.220848 -0.051141 0 255 255
-0.384634 -0.307295 -0.067375 0 255 255
-0.340694 -0.163818 -0.052099 0 255 255
-0.277434 -0.137777 -0.052136 0 255 255
-0.312977 -0.303360 -0.065141 0 255 255
-0.288139 -0.138959 -0.052114 0 255 255
-0.385298 -0.257299 -0.067741 0 255 255
-0.275768 -0.281448 -0.045047 0 255 255
-0.354185 -0.160078 -0.044481 0 255 255
-0.261565 -0.305075 -0.057141 0 255 255
-0.248519 -0.280703 -0.045141 0 255 255
-0.331802 -0.176662 -0.044774 0 255 255
-0.361020 -0.199691 -0.044595 0 255 255
-0.271265 -0.295149 -0.052119 0 255 255
-0.262339 -0.135736 -0.044521 0 255 255
-0.262151 -0.281073 -0.067141 0 255 255
-0.265449 -0.124497 -0.052113 0 255 255
-0.322377 -0.187578 -0.052094 0 255 255
-0.304352 -0.279747 -0.052129 0 255 255
-0.348372 -0.236407 -0.052090 0 255 255
-0.314021 -0.202349 -0.052127 0 255 255
-0.376049 -0.104203 -0.064436 0 255 255
-0.372326 -0.300330 -0.044975 0 255 255
-0.341685 -0.309588 -0.061141 0 255 255
-0.250212 -0.305139 -0.073141 0 255 255
-0.262730 -0.226950 -0.044957 0 255 255
-0.367207 -0.251938 -0.044936 0 255 255
-0.345818 -0.129908 -0.045141 0 255 255
-0.317969 -0.130687 -0.051141 0 255 255
-0.324747 -0.303148 -0.045141 0 255 255
-0.295735 -0.151381 -0.044469 0 255 255
-0.310408 -0.136934 -0.052099 0 255 255
-0.272682 -0.257398 -0.045141 0 255 255
-0.269928 -0.312778 -0.071141 0 255 255
-0.375822 -0.133322 -0.044863 0 255 255
-0.308901 -0.153956 -0.052108 0 255 255
-0.326638 -0.240359 -0.052124 0 255 255
-0.356083 -0.309119 -0.053141 0 255 255
-0.335318 -0.219272 -0.044458 0 255 255
-0.324418 -0.172483 -0.044992 0 255 255
-0.259425 -0.200885 -0.045141 0 255 255
-0.350089 -0.309954 -0.069141 0 255 255
-0.265238 -0.116253 -0.044225 0 255 255
-0.389039 -0.270790 -0.050564 0 255 255
-0.290279 -0.312707 -0.053141 0 255 255
-0.246323 -0.177537 -0.053141 0 255 255
-0.245431 -0.119671 -0.074062 0 255 255
-0.247003 -0.200179 -0.056862 0 255 255
-0.294475 -0.304000 -0.045141 0 255 255
-0.379968 -0.144625 -0.049141 0 255 255
-0.295751 -0.114018 -0.045258 0 255 255
-0.348954 -0.126245 -0.052137 0 255 255
-0.378239 -0.107746 -0.049141 0 255 255
-0.361262 -0.133209 -0.044998 0 255 255
-0.368238 -0.300561 -0.059141 0 255 255
-0.323476 -0.311283 -0.057141 0 255 255
-0.334541 -0.283828 -0.044327 0 255 255
-0.347831 -0.309297 -0.051141 0 255 255
-0.304302 -0.144855 -0.044618 0 255 255
-0.372461 -0.308302 -0.061141 0 255 255
-0.318472 -0.225884 -0.045141 0 255 255
-0.329471 -0.123346 -0.044955 0 255 255
-0.345181 -0.187481 -0.044355 0 255 255
-0.249076 -0.110359 -0.062123 0 255 255
-0.298489 -0.221184 -0.044711 0 255 255
-0.323852 -0.245283 -0.044802 0 255 255
-0.345360 -0.270451 -0.044661 0 255 255
-0.265905 -0.313240 -0.045186 0 255 255
-0.326361 -0.134586 -0.044900 0 255 255
-0.280076 -0.222140 -0.044936 0 255 255
-0.292106 -0.123331 -0.052124 0 255 255
-0.297971 -0.181893 -0.044577 0 255 255
-0.345586 -0.241330 -0.044881 0 255 255
-0.386654 -0.213338 -0.061141 0 255 255
-0.279330 -0.211968 -0.052126 0 255 255
-0.275799 -0.206721 -0.044387 0 255 255
-0.302667 -0.213799 -0.052096 0 255 255
-0.301777 -0.292914 -0.052089 0 255 255
-0.288366 -0.109839 -0.046435 0 255 255
-0.286196 -0.176857 -0.052130 0 255 255
-0.298402 -0.303193 -0.061141 0 255 255
-0.298037 -0.279423 -0.044616 0 255 255
-0.349214 -0.269381 -0.052119 0 255 255
-0.357669 -0.277414 -0.052082 0 255 255
-0.308918 -0.116593 -0.052139 0 255 255
-0.276966 -0.233380 -0.044750 0 255 255
-0.284351 -0.237558 -0.052091 0 255 255
-0.336906 -0.262418 -0.052103 0 255 255
-0.296660 -0.244521 -0.052133 0 255 255
-0.292902 -0.268394 -0.052108 0 255 255
-0.339255 -0.278370 -0.052114 0 255 255
-0.290651 -0.275244 -0.044712 0 255 255
-0.260005 -0.273367 -0.069141 0 255 255
-0.310053 -0.217977 -0.052127 0 255 255
-0.358725 -0.299952 -0.071141 0 255 255
-0.292918 -0.231030 -0.044961 0 255 255
-0.358913 -0.222031 -0.051141 0 255 255
-0.363245 -0.125392 -0.051141 0 255 255
-0.288689 -0.253199 -0.045141 0 255 255
-0.284398 -0.305084 -0.053141 0 255 255
-0.310198 -0.128691 -0.044994 0 255 255
-0.358153 -0.144448 -0.044965 0 255 255
-0.386630 -0.215419 -0.053141 0 255 255
-0.274325 -0.149017 -0.044569 0 255 255
-0.242336 -0.115994 -0.067141 0 255 255
-0.375385 -0.154199 -0.058126 0 255 255
-0.267653 -0.229736 -0.052103 0 255 255
-0.290162 -0.303417 -0.075141 0 255 255
-0.347985 -0.287402 -0.051141 0 255 255
-0.340282 -0.128650 -0.051141 0 255 255
-0.272413 -0.112189 -0.045055 0 255 255
-0.263993 -0.276411 -0.052121 0 255 255
-0.283923 -0.116271 -0.051141 0 255 255
-0.251169 -0.284118 -0.069141 0 255 255
-0.376130 -0.164369 -0.044720 0 255 255
-0.346401 -0.176912 -0.045141 0 255 255
-0.321698 -0.274936 -0.052130 0 255 255
-0.278616 -0.127072 -0.044997 0 255 255
-0.359983 -0.121111 -0.044774 0 255 255
-0.250675 -0.157651 -0.045141 0 255 255
-0.337553 -0.249785 -0.052127 0 255 255
-0.266178 -0.172031 -0.045077 0 255 255
-0.253456 -0.268347 -0.061141 0 255 255
-0.329481 -0.303000 -0.057141 0 255 255
-0.243828 -0.113889 -0.049993 0 255 255
-0.250319 -0.251147 -0.045141 0 255 255
-0.384326 -0.276247 -0.044734 0 255 255
-0.239185 -0.148385 -0.049141 0 255 255
-0.253780 -0.302074 -0.055141 0 255 255
-0.239152 -0.133866 -0.049141 0 255 255
-0.378673 -0.225928 -0.044729 0 255 255
-0.351511 -0.255209 -0.051141 0 255 255
-0.248849 -0.139478 -0.044731 0 255 255
-0.291767 -0.167010 -0.044667 0 255 255
-0.299008 -0.260475 -0.044350 0 255 255
-0.311090 -0.296557 -0.044488 0 255 255
-0.318230 -0.120236 -0.044113 0 255 255
-0.260690 -0.242045 -0.052138 0 255 255
-0.257159 -0.236797 -0.044931 0 255 255
-0.320984 -0.190040 -0.044399 0 255 255
-0.345423 -0.120998 -0.044330 0 255 255
-0.309729 -0.224294 -0.044830 0 255 255
-0.334686 -0.194541 -0.052110 0 255 255
-0.321293 -0.221087 -0.052117 0 255 255
-0.284074 -0.131784 -0.052133 0 255 255
-0.332290 -0.290678 -0.052133 0 255 255
-0.245400 -0.194397 -0.044583 0 255 255
-0.257319 -0.110148 -0.049992 0 255 255
-0.269986 -0.283051 -0.052135 0 255 255
-0.252770 -0.235939 -0.052101 0 255 255
-0.273574 -0.194886 -0.051141 0 255 255
-0.350120 -0.152903 -0.044386 0 255 255
-0.254864 -0.213554 -0.051141 0 255 255
-0.356421 -0.190590 -0.044455 0 255 255
-0.290148 -0.198591 -0.052123 0 255 255
-0.245092 -0.163350 -0.044740 0 255 255
-0.376001 -0.216292 -0.054097 0 255 255
-0.251235 -0.159571 -0.069141 0 255 255
-0.343011 -0.254497 -0.044483 0 255 255
-0.299039 -0.185748 -0.052133 0 255 255
-0.366364 -0.218964 -0.044707 0 255 255
-0.280333 -0.118294 -0.044420 0 255 255
-0.279087 -0.278451 -0.052103 0 255 255
-0.371954 -0.276536 -0.051141 0 255 255
-0.259651 -0.163463 -0.049984 0 255 255
-0.250453 -0.145260 -0.070100 0 255 255
-0.361893 -0.157939 -0.052136 0 255 255
-0.263296 -0.154152 -0.045019 0 255 255
-0.352469 -0.168855 -0.045100 0 255 255
-0.242809 -0.244927 -0.048230 0 255 255
-0.341423 -0.211352 -0.045096 0 255 255
-0.263944 -0.141518 -0.050036 0 255 255
-0.360033 -0.256004 -0.044297 0 255 255
-0.353747 -0.180954 -0.052128 0 255 255
-0.389987 -0.272602 -0.061141 0 255 255
-0.337892 -0.206105 -0.052135 0 255 255
-0.246567 -0.221055 -0.044902 0 255 255
-0.312222 -0.150960 -0.044932 0 255 255
-0.291477 -0.210869 -0.045141 0 255 255
-0.335972 -0.302111 -0.045141 0 255 255
-0.347740 -0.211677 -0.052133 0 255 255
-0.271754 -0.143503 -0.051141 0 255 255
-0.355901 -0.151300 -0.052125 0 255 255
-0.257087 -0.266475 -0.045141 0 255 255
-0.383846 -0.147290 -0.057141 0 255 255
-0.378940 -0.192646 -0.067141 0 255 255
-0.281396 -0.249357 -0.045141 0 255 255
-0.300335 -0.160483 -0.044709 0 255 255
-0.359693 -0.299683 -0.044508 0 255 255
-0.381221 -0.129750 -0.063141 0 255 255
-0.331284 -0.137372 -0.050063 0 255 255
-0.267134 -0.190445 -0.044899 0 255 255
-0.320208 -0.254595 -0.052114 0 255 255
-0.364103 -0.109591 -0.051141 0 255 255
-0.356842 -0.207076 -0.044713 0 255 255
-0.327059 -0.256846 -0.044753 0 255 255
-0.332743 -0.232439 -0.044503 0 255 255
-0.347385 -0.292718 -0.044509 0 255 255
-0.327337 -0.306580 -0.075141 0 255 255
-0.350623 -0.229556 -0.044724 0 255 255
-0.256133 -0.315421 -0.061141 0 255 255
-0.343440 -0.106363 -0.047141 0 255 255
-0.382075 -0.283099 -0.070178 0 255 255
-0.390164 -0.235195 -0.059141 0 255 255
-0.291255 -0.312436 -0.063141 0 255 255
-0.249802 -0.286573 -0.051141 0 255 255
-0.331237 -0.249460 -0.044819 0 255 255
-0.249439 -0.134123 -0.051141 0 255 255
-0.262160 -0.252013 -0.045141 0 255 255
-0.245191 -0.192379 -0.067141 0 255 255
-0.282973 -0.202657 -0.049970 0 255 255
-0.371417 -0.169827 -0.052089 0 255 255
-0.275247 -0.272087 -0.045141 0 255 255
-0.283153 -0.285626 -0.044888 0 255 255
-0.260072 -0.179950 -0.052133 0 255 255
-0.280739 -0.172144 -0.050032 0 255 255
-0.366853 -0.228208 -0.051141 0 255 255
-0.376887 -0.170385 -0.067141 0 255 255
-0.377397 -0.269868 -0.053141 0 255 255
-0.330718 -0.210171 -0.052100 0 255 255
-0.253596 -0.306275 -0.044653 0 255 255
-0.285533 -0.226853 -0.052118 0 255 255
-0.318328 -0.143040 -0.050028 0 255 255
-0.250115 -0.132900 -0.063141 0 255 255
-0.378447 -0.255048 -0.054113 0 255 255
-0.272787 -0.240765 -0.044687 0 255 255
-0.306956 -0.311586 -0.061141 0 255 255
-0.368260 -0.293156 -0.052116 0 255 255
-0.242322 -0.130911 -0.071532 0 255 255
-0.378474 -0.199003 -0.061141 0 255 255
-0.349810 -0.301466 -0.057141 0 255 255
-0.300272 -0.309936 -0.045011 0 255 255
-0.278601 -0.164435 -0.052132 0 255 255
-0.243566 -0.127914 -0.063141 0 255 255
-0.377363 -0.288557 -0.052067 0 255 255
-0.247590 -0.187326 -0.045141 0 255 255
-0.249484 -0.257605 -0.051141 0 255 255
-0.245176 -0.152949 -0.053141 0 255 255
-0.331454 -0.108048 -0.045141 0 255 255
-0.363424 -0.170940 -0.051141 0 255 255
-0.314832 -0.200048 -0.045141 0 255 255
-0.317243 -0.176549 -0.044693 0 255 255
-0.386528 -0.246768 -0.065141 0 255 255
-0.338981 -0.153916 -0.051141 0 255 255
-0.272221 -0.313564 -0.062501 0 255 255
-0.247312 -0.231226 -0.049762 0 255 255
-0.304319 -0.107491 -0.048223 0 255 255
-0.391990 -0.299028 -0.053141 0 255 255
-0.370511 -0.286306 -0.044746 0 255 255
-0.292144 -0.153399 -0.051141 0 255 255
-0.250226 -0.174379 -0.074080 0 255 255
-0.302718 -0.206495 -0.051141 0 255 255
-0.310182 -0.166054 -0.044704 0 255 255
-0.391388 -0.286742 -0.061756 0 255 255
-0.326282 -0.130457 -0.051141 0 255 255
-0.299902 -0.237396 -0.051141 0 255 255
-0.339630 -0.309659 -0.053141 0 255 255
-0.316230 -0.214189 -0.051141 0 255 255
-0.278503 -0.141632 -0.044644 0 255 255
-0.298994 -0.193066 -0.051141 0 255 255
-0.288551 -0.286205 -0.051141 0 255 255
-0.328764 -0.180670 -0.051141 0 255 255
-0.339777 -0.186903 -0.051141 0 255 255
-0.353204 -0.111636 -0.051141 0 255 255
-0.382780 -0.263187 -0.063141 0 255 255
-0.388291 -0.248167 -0.053141 0 255 255
-0.383679 -0.288881 -0.045048 0 255 255
-0.379255 -0.115766 -0.064823 0 255 255
-0.362258 -0.207650 -0.051141 0 255 255
-0.256308 -0.308571 -0.075141 0 255 255
-0.286587 -0.268070 -0.044609 0 255 255
-0.293966 -0.178853 -0.051141 0 255 255
-0.312352 -0.252622 -0.045141 0 255 255
-0.362073 -0.240909 -0.044320 0 255 255
-0.267053 -0.130279 -0.045188 0 255 255
-0.289727 -0.182104 -0.045078 0 255 255
-0.249157 -0.170525 -0.044337 0 255 255
-0.306749 -0.183610 -0.045172 0 255 255
-0.283297 -0.196340 -0.044260 0 255 255
-0.302246 -0.197312 -0.045286 0 255 255
-0.279186 -0.301255 -0.045080 0 255 255
-0.375451 -0.251727 -0.044731 0 255 255
-0.368113 -0.135460 -0.044633 0 255 255
-0.342071 -0.198720 -0.044994 0 255 255
-0.307154 -0.237460 -0.044383 0 255 255
-0.283848 -0.160904 -0.044337 0 255 255
-0.307915 -0.210268 -0.044659 0 255 255
-0.303022 -0.132756 -0.044330 0 255 255
-0.249465 -0.201571 -0.044833 0 255 255
-0.332548 -0.186833 -0.044408 0 255 255
-0.287281 -0.143348 -0.045089 0 255 255
-0.357474 -0.231807 -0.045179 0 255 255
-0.374008 -0.119296 -0.060102 0 255 255
-0.337456 -0.226981 -0.045040 0 255 255
-0.364843 -0.273349 -0.044610 0 255 255
-0.316498 -0.166378 -0.052107 0 255 255
-0.308321 -0.264118 -0.052108 0 255 255
-0.366705 -0.175285 -0.044889 0 255 255
-0.270002 -0.245688 -0.052097 0 255 255
-0.274229 -0.305833 -0.071141 0 255 255
-0.364097 -0.263178 -0.052115 0 255 255
-0.322459 -0.247744 -0.052119 0 255 255
-0.254917 -0.187607 -0.065141 0 255 255
-0.360341 -0.287050 -0.044993 0 255 255
-0.365003 -0.146699 -0.045069 0 255 255
-0.339644 -0.302225 -0.071141 0 255 255
-0.309811 -0.284460 -0.052099 0 255 255
-0.338978 -0.172597 -0.044809 0 255 255
-0.354525 -0.116398 -0.044818 0 255 255
-0.323657 -0.199675 -0.052117 0 255 255
-0.283364 -0.293870 -0.052131 0 255 255
-0.350315 -0.198510 -0.052137 0 255 255
-0.259328 -0.169780 -0.045126 0 255 255
-0.311867 -0.232003 -0.052134 0 255 255
-0.317957 -0.261446 -0.052085 0 255 255
-0.333488 -0.242610 -0.052082 0 255 255
-0.384160 -0.298097 -0.065141 0 255 255
-0.255843 -0.194634 -0.051141 0 255 255
-0.324860 -0.293824 -0.051141 0 255 255
-0.250144 -0.114213 -0.056169 0 255 255
-0.313372 -0.214981 -0.044633 0 255 255
-0.263038 -0.257997 -0.052128 0 255 255
-0.277587 -0.153297 -0.051141 0 255 255
-0.383175 -0.212226 -0.047622 0 255 255
-0.380352 -0.250369 -0.069141 0 255 255
-0.263927 -0.178882 -0.044465 0 255 255
-0.382084 -0.212529 -0.067141 0 255 255
-0.330508 -0.201927 -0.044994 0 255 255
-0.387000 -0.192487 -0.057141 0 255 255
-0.255471 -0.275616 -0.075141 0 255 255
-0.382105 -0.241580 -0.061141 0 255 255
-0.273677 -0.161650 -0.045012 0 255 255
-0.237187 -0.119881 -0.050097 0 255 255
-0.378284 -0.134715 -0.067292 0 255 255
-0.332985 -0.165957 -0.052101 0 255 255
-0.259043 -0.281011 -0.057141 0 255 255
-0.353779 -0.106227 -0.046583 0 255 255
-0.244339 -0.142805 -0.059141 0 255 255
-0.369984 -0.142210 -0.053141 0 255 255
-0.347340 -0.262622 -0.051141 0 255 255
-0.359920 -0.177167 -0.051141 0 255 255
-0.246927 -0.184934 -0.073141 0 255 255
-0.247063 -0.166954 -0.057141 0 255 255
-0.384213 -0.290808 -0.064154 0 255 255
-0.246792 -0.191935 -0.059536 0 255 255
-0.377586 -0.180568 -0.065141 0 255 255
-0.326526 -0.112731 -0.051141 0 255 255
-0.378108 -0.298727 -0.070133 0 255 255
-0.262483 -0.188643 -0.051141 0 255 255
-0.384932 -0.188623 -0.049141 0 255 255
-0.349727 -0.166455 -0.051141 0 255 255
-0.326846 -0.143820 -0.051141 0 255 255
-0.270099 -0.268491 -0.052113 0 255 255
-0.276365 -0.133923 -0.044611 0 255 255
-0.256330 -0.222498 -0.051141 0 255 255
-0.362186 -0.308673 -0.049141 0 255 255
-0.290748 -0.298048 -0.044890 0 255 255
-0.280905 -0.187713 -0.051141 0 255 255
-0.282473 -0.305625 -0.067141 0 255 255
-0.257206 -0.124707 -0.050023 0 255 255
-0.287055 -0.172468 -0.044784 0 255 255
-0.247733 -0.183373 -0.057141 0 255 255
-0.326782 -0.151073 -0.045129 0 255 255
-0.257841 -0.315476 -0.051141 0 255 255
-0.260269 -0.292918 -0.057141 0 255 255
-0.386320 -0.201115 -0.059141 0 255 255
-0.375095 -0.141825 -0.063141 0 255 255
-0.296984 -0.238206 -0.044873 0 255 255
-0.261723 -0.215840 -0.051141 0 255 255
-0.253540 -0.298590 -0.061141 0 255 255
-0.326669 -0.165633 -0.044571 0 255 255
-0.363368 -0.215644 -0.050006 0 255 255
-0.375725 -0.110518 -0.067957 0 255 255
-0.298960 -0.230365 -0.051141 0 255 255
-0.381131 -0.223172 -0.063141 0 255 255
-0.303310 -0.305923 -0.075141 0 255 255
-0.357977 -0.308461 -0.060010 0 255 255
-0.382496 -0.299586 -0.044786 0 255 255
-0.382508 -0.280903 -0.061141 0 255 255
-0.377163 -0.164083 -0.061141 0 255 255
-0.395343 -0.301004 -0.061141 0 255 255
-0.249260 -0.222384 -0.051141 0 255 255
-0.256290 -0.256117 -0.045141 0 255 255
-0.359643 -0.164790 -0.044338 0 255 255
-0.384439 -0.261687 -0.045652 0 255 255
-0.248686 -0.120844 -0.057141 0 255 255
-0.381178 -0.119384 -0.059141 0 255 255
-0.249253 -0.295028 -0.049141 0 255 255
-0.321648 -0.140044 -0.044857 0 255 255
-0.320267 -0.310616 -0.063141 0 255 255
-0.253739 -0.212840 -0.059141 0 255 255
-0.269627 -0.117112 -0.050057 0 255 255
-0.242875 -0.207746 -0.051141 0 255 255
-0.256142 -0.263070 -0.051141 0 255 255
-0.305469 -0.171512 -0.050039 0 255 255
-0.372615 -0.121758 -0.044767 0 255 255
-0.322437 -0.114920 -0.045141 0 255 255
-0.366847 -0.164868 -0.051141 0 255 255
-0.373393 -0.225317 -0.051141 0 255 255
-0.347895 -0.189783 -0.051141 0 255 255
-0.322737 -0.282950 -0.045141 0 255 255
-0.296075 -0.298647 -0.051141 0 255 255
-0.275802 -0.311510 -0.075141 0 255 255
-0.318541 -0.106388 -0.047141 0 255 255
-0.384795 -0.180646 -0.060679 0 255 255
-0.372867 -0.122668 -0.071141 0 255 255
-0.371531 -0.155267 -0.052060 0 255 255
-0.336770 -0.295663 -0.051141 0 255 255
-0.257414 -0.275135 -0.051141 0 255 255
-0.330877 -0.225710 -0.051141 0 255 255
-0.325153 -0.267752 -0.045141 0 255 255
-0.276950 -0.270742 -0.052135 0 255 255
-0.276251 -0.290676 -0.051141 0 255 255
-0.373052 -0.243080 -0.051141 0 255 255
-0.316360 -0.113493 -0.051141 0 255 255
-0.256115 -0.288973 -0.075141 0 255 255
-0.338937 -0.179935 -0.051141 0 255 255
-0.332775 -0.157714 -0.044459 0 255 255
-0.328123 -0.310514 -0.063141 0 255 255
-0.326844 -0.192566 -0.051141 0 255 255
-0.286313 -0.304504 -0.061141 0 255 255
-0.310070 -0.274010 -0.051141 0 255 255
-0.376937 -0.155843 -0.065141 0 255 255
-0.254713 -0.198041 -0.062111 0 255 255
-0.268656 -0.136061 -0.050055 0 255 255
-0.351882 -0.136804 -0.051141 0 255 255
-0.382315 -0.133597 -0.057141 0 255 255
-0.269369 -0.220957 -0.044739 0 255 255
-0.254385 -0.148321 -0.051141 0 255 255
-0.254450 -0.171132 -0.061141 0 255 255
-0.333549 -0.149196 -0.051141 0 255 255
-0.380496 -0.235800 -0.069141 0 255 255
-0.347498 -0.278159 -0.044784 0 255 255
-0.337277 -0.144012 -0.044480 0 255 255
-0.370301 -0.278062 -0.044802 0 255 255
-0.258583 -0.159609 -0.044588 0 255 255
-0.333359 -0.294533 -0.045080 0 255 255
-0.345212 -0.112754 -0.050038 0 255 255
-0.286023 -0.236102 -0.045141 0 255 255
-0.306204 -0.200365 -0.051141 0 255 255
-0.295993 -0.313198 -0.069141 0 255 255
-0.242897 -0.170186 -0.069141 0 255 255
-0.366251 -0.233524 -0.044444 0 255 255
-0.277337 -0.114974 -0.050005 0 255 255
-0.303335 -0.265501 -0.045141 0 255 255
-0.275620 -0.123751 -0.050014 0 255 255
-0.318184 -0.232326 -0.050011 0 255 255
-0.295848 -0.136822 -0.052136 0 255 255
-0.254070 -0.275012 -0.057141 0 255 255
-0.267037 -0.167642 -0.050031 0 255 255
-0.328786 -0.218171 -0.045141 0 255 255
-0.298731 -0.154701 -0.050035 0 255 255
-0.356146 -0.301861 -0.055141 0 255 255
-0.271879 -0.110261 -0.052141 0 255 255
-0.255603 -0.118925 -0.044667 0 255 255
-0.314895 -0.302793 -0.057141 0 255 255
-0.306650 -0.303000 -0.067141 0 255 255
-0.302471 -0.175671 -0.045141 0 255 255
-0.268905 -0.196829 -0.045141 0 255 255
-0.375740 -0.237802 -0.045141 0 255 255
-0.373952 -0.126579 -0.061141 0 255 255
-0.310880 -0.288314 -0.044655 0 255 255
-0.241093 -0.176912 -0.049141 0 255 255
-0.253804 -0.287539 -0.057141 0 255 255
-0.278035 -0.237234 -0.050013 0 255 255
-0.364998 -0.251455 -0.051141 0 255 255
-0.266147 -0.246757 -0.044948 0 255 255
-0.310669 -0.280070 -0.045136 0 255 255
-0.291795 -0.189562 -0.045141 0 255 255
-0.262854 -0.299558 -0.045141 0 255 255
-0.292431 -0.117015 -0.050090 0 255 255
-0.317859 -0.238642 -0.044641 0 255 255
-0.249016 -0.267305 -0.045141 0 255 255
-0.252446 -0.242255 -0.044795 0 255 255
-0.288108 -0.213686 -0.050017 0 255 255
-0.329345 -0.309995 -0.051141 0 255 255
-0.305897 -0.255378 -0.051141 0 255 255
-0.325650 -0.296671 -0.044694 0 255 255
-0.275665 -0.293929 -0.045141 0 255 255
-0.307446 -0.305870 -0.044955 0 255 255
-0.239621 -0.128653 -0.045141 0 255 255
-0.276149 -0.305275 -0.053141 0 255 255
-0.388325 -0.253249 -0.063141 0 255 255
-0.259094 -0.266226 -0.057141 0 255 255
-0.363440 -0.133580 -0.051141 0 255 255
-0.353789 -0.248457 -0.051141 0 255 255
-0.315165 -0.311252 -0.047141 0 255 255
-0.276883 -0.173213 -0.044885 0 255 255
-0.364772 -0.280578 -0.051141 0 255 255
-0.349733 -0.308672 -0.044942 0 255 255
-0.259124 -0.303755 -0.051141 0 255 255
-0.302779 -0.120371 -0.045141 0 255 255
-0.319299 -0.124091 -0.049936 0 255 255
-0.298228 -0.220243 -0.051141 0 255 255
-0.268236 -0.261774 -0.051141 0 255 255
-0.362344 -0.290645 -0.051141 0 255 255
-0.333128 -0.267616 -0.051141 0 255 255
-0.272113 -0.185946 -0.051141 0 255 255
-0.287640 -0.309288 -0.073991 0 255 255
-0.268828 -0.200353 -0.051141 0 255 255
-0.264142 -0.291914 -0.051141 0 255 255
-0.339168 -0.199525 -0.051141 0 255 255
-0.317286 -0.292764 -0.051141 0 255 255
-0.243374 -0.130619 -0.057141 0 255 255
-0.249234 -0.216165 -0.053141 0 255 255
-0.378594 -0.307965 -0.065141 0 255 255
-0.324262 -0.156955 -0.051141 0 255 255
-0.359115 -0.215274 -0.045141 0 255 255
-0.315799 -0.148892 -0.051141 0 255 255
-0.303047 -0.114070 -0.051141 0 255 255
-0.250242 -0.137016 -0.068128 0 255 255
-0.253222 -0.177699 -0.050019 0 255 255
-0.249583 -0.139275 -0.055141 0 255 255
-0.338201 -0.237152 -0.045081 0 255 255
-0.290436 -0.162211 -0.051141 0 255 255
-0.321682 -0.170105 -0.051141 0 255 255
-0.327285 -0.122952 -0.051141 0 255 255
-0.323823 -0.215241 -0.051141 0 255 255
-0.351732 -0.300911 -0.071141 0 255 255
-0.384535 -0.159963 -0.055141 0 255 255
-0.329488 -0.272776 -0.045141 0 255 255
-0.391723 -0.284574 -0.053141 0 255 255
-0.271472 -0.313771 -0.049141 0 255 255
-0.379443 -0.107413 -0.059141 0 255 255
-0.247591 -0.179261 -0.063141 0 255 255
-0.244558 -0.161423 -0.059480 0 255 255
-0.259960 -0.194510 -0.044875 0 255 255
-0.264365 -0.158005 -0.050017 0 255 255
-0.252801 -0.161212 -0.050017 0 255 255
-0.254004 -0.295785 -0.073141 0 255 255
-0.386254 -0.275713 -0.067642 0 255 255
-0.364164 -0.308319 -0.065141 0 255 255
-0.309506 -0.141167 -0.045141 0 255 255
-0.372341 -0.262967 -0.044616 0 255 255
-0.288335 -0.289343 -0.045141 0 255 255
-0.339528 -0.137161 -0.049965 0 255 255
-0.248899 -0.274371 -0.051879 0 255 255
-0.297986 -0.144531 -0.045342 0 255 255
-0.305550 -0.231679 -0.049995 0 255 255
-0.294213 -0.205766 -0.050009 0 255 255
-0.365943 -0.202477 -0.050010 0 255 255
-0.296707 -0.132432 -0.045024 0 255 255
-0.343593 -0.144335 -0.052109 0 255 255
-0.347868 -0.159754 -0.045141 0 255 255
-0.298798 -0.252231 -0.049989 0 255 255
-0.373864 -0.111035 -0.045141 0 255 255
-0.344760 -0.170994 -0.050043 0 255 255
-0.370543 -0.211579 -0.044868 0 255 255
-0.376115 -0.201732 -0.044362 0 255 255
-0.375709 -0.147882 -0.045241 0 255 255
-0.288545 -0.192809 -0.050041 0 255 255
-0.243955 -0.151768 -0.067141 0 255 255
-0.389163 -0.289435 -0.049141 0 255 255
-0.254010 -0.270346 -0.067141 0 255 255
-0.304884 -0.311596 -0.055141 0 255 255
-0.280594 -0.261430 -0.049994 0 255 255
-0.346768 -0.230625 -0.050009 0 255 255
-0.386580 -0.306825 -0.045141 0 255 255
-0.361909 -0.300188 -0.059141 0 255 255
-0.375806 -0.170686 -0.044281 0 255 255
-0.381896 -0.200129 -0.067709 0 255 255
-0.285872 -0.183173 -0.049996 0 255 255
-0.378011 -0.275923 -0.045323 0 255 255
-0.305890 -0.187999 -0.050088 0 255 255
-0.322475 -0.210381 -0.044457 0 255 255
-0.317454 -0.184792 -0.044825 0 255 255
-0.294620 -0.259616 -0.050048 0 255 255
-0.353311 -0.201829 -0.045097 0 255 255
-0.271426 -0.168500 -0.044709 0 255 255
-0.280313 -0.312805 -0.053141 0 255 255
-0.302020 -0.226431 -0.045070 0 255 255
-0.372908 -0.190168 -0.044744 0 255 255
-0.345602 -0.203968 -0.044595 0 255 255
-0.292106 -0.123331 -0.044997 0 255 255
-0.302652 -0.251162 -0.044975 0 255 255
-0.278480 -0.183148 -0.045141 0 255 255
-0.242342 -0.122603 -0.059141 0 255 255
-0.244671 -0.146863 -0.045052 0 255 255
-0.306235 -0.297904 -0.051141 0 255 255
-0.350607 -0.266920 -0.045159 0 255 255
-0.360599 -0.183205 -0.044771 0 255 255
-0.269612 -0.154475 -0.044841 0 255 255
-0.340051 -0.232488 -0.051141 0 255 255
-0.352436 -0.243581 -0.044902 0 255 255
-0.356927 -0.125064 -0.051141 0 255 255
-0.348809 -0.215530 -0.045127 0 255 255
-0.366009 -0.300007 -0.045092 0 255 255
-0.295477 -0.255228 -0.044771 0 255 255
-0.267474 -0.146766 -0.044787 0 255 255
-0.251562 -0.176085 -0.067141 0 255 255
-0.378255 -0.205290 -0.069141 0 255 255
-0.305633 -0.291845 -0.044761 0 255 255
-0.344064 -0.295715 -0.052136 0 255 255
-0.335107 -0.211029 -0.045133 0 255 255
-0.289711 -0.219468 -0.052121 0 255 255
-0.262226 -0.150297 -0.050027 0 255 255
-0.297565 -0.128044 -0.050088 0 255 255
-0.316596 -0.189181 -0.050036 0 255 255
-0.298813 -0.214868 -0.044957 0 255 255
-0.335245 -0.301332 -0.055141 0 255 255
-0.374629 -0.139879 -0.057141 0 255 255
-0.262136 -0.307130 -0.073141 0 255 255
-0.350443 -0.146586 -0.044441 0 255 255
-0.295072 -0.201377 -0.044626 0 255 255
-0.355628 -0.292508 -0.052065 0 255 255
-0.321374 -0.281253 -0.052099 0 255 255
-0.250628 -0.157664 -0.063141 0 255 255
-0.326993 -0.301513 -0.071141 0 255 255
-0.250745 -0.213670 -0.044842 0 255 255
-0.356615 -0.236197 -0.052126 0 255 255
-0.257385 -0.207677 -0.052125 0 255 255
-0.358024 -0.196371 -0.052137 0 255 255
-0.265321 -0.176419 -0.052137 0 255 255
-0.313552 -0.297951 -0.052117 0 255 255
-0.361149 -0.147769 -0.052129 0 255 255
-0.286894 -0.299117 -0.052126 0 255 255
-0.332841 -0.255243 -0.052097 0 255 255
-0.249076 -0.110359 -0.050071 0 255 255
-0.302101 -0.286597 -0.052088 0 255 255
-0.317535 -0.244959 -0.044824 0 255 255
-0.270552 -0.210252 -0.044445 0 255 255
-0.293242 -0.224715 -0.044872 0 255 255
-0.352987 -0.208146 -0.052103 0 255 255
-0.333001 -0.128593 -0.044879 0 255 255
-0.272301 -0.126748 -0.044813 0 255 255
-0.319284 -0.161454 -0.044434 0 255 255
-0.316725 -0.137258 -0.052130 0 255 255
-0.310685 -0.242708 -0.052110 0 255 255
-0.354606 -0.176565 -0.044626 0 255 255
-0.289063 -0.232100 -0.052114 0 255 255
-0.371273 -0.259112 -0.052104 0 255 255
-0.369588 -0.193164 -0.052121 0 255 255
-0.366298 -0.121435 -0.044745 0 255 255
-0.359709 -0.262319 -0.044488 0 255 255
-0.254688 -0.130597 -0.051141 0 255 255
-0.296476 -0.303734 -0.075141 0 255 255
-0.255700 -0.141729 -0.044074 0 255 255
-0.310644 -0.309919 -0.073141 0 255 255
-0.252213 -0.306660 -0.067141 0 255 255
-0.336132 -0.222210 -0.051141 0 255 255
-0.387748 -0.223412 -0.053141 0 255 255
-0.373020 -0.175609 -0.054094 0 255 255
-0.284772 -0.254045 -0.050007 0 255 255
-0.387682 -0.227581 -0.059141 0 255 255
-0.250338 -0.309255 -0.049141 0 255 255
-0.240653 -0.160431 -0.049141 0 255 255
-0.250927 -0.154453 -0.051141 0 255 255
-0.252898 -0.184016 -0.044717 0 255 255
-0.256445 -0.151900 -0.045240 0 255 255
-0.346991 -0.306270 -0.073141 0 255 255
-0.380830 -0.129858 -0.051141 0 255 255
-0.380324 -0.119621 -0.051848 0 255 255
-0.371718 -0.305624 -0.075141 0 255 255
-0.387435 -0.235952 -0.053141 0 255 255
-0.334895 -0.307557 -0.073141 0 255 255
-0.390672 -0.306613 -0.057141 0 255 255
-0.243250 -0.141739 -0.051141 0 255 255
-0.313568 -0.260587 -0.044609 0 255 255
-0.315706 -0.268297 -0.044644 0 255 255
-0.341342 -0.151186 -0.045247 0 255 255
-0.377425 -0.139104 -0.046444 0 255 255
-0.297065 -0.298372 -0.044802 0 255 255
-0.263248 -0.266240 -0.044508 0 255 255
-0.363950 -0.105482 -0.046505 0 255 255
-0.289737 -0.134365 -0.045141 0 255 255
-0.319315 -0.303762 -0.065141 0 255 255
-0.304694 -0.142670 -0.051141 0 255 255
-0.253847 -0.183753 -0.059141 0 255 255
-0.297713 -0.285739 -0.044865 0 255 255
-0.355578 -0.157615 -0.049970 0 255 255
-0.367936 -0.299472 -0.052104 0 255 255
-0.359865 -0.229069 -0.051141 0 255 255
-0.258875 -0.228019 -0.050074 0 255 255
-0.338870 -0.269502 -0.045141 0 255 255
-0.363722 -0.190641 -0.051141 0 255 255
-0.303596 -0.164762 -0.051141 0 255 255
-0.370406 -0.109918 -0.055141 0 255 255
-0.331511 -0.108252 -0.052116 0 255 255
-0.261892 -0.298767 -0.069141 0 255 255
-0.352680 -0.281878 -0.051141 0 255 255
-0.337714 -0.123135 -0.052122 0 255 255
-0.335039 -0.132180 -0.051141 0 255 255
-0.270484 -0.254912 -0.051141 0 255 255
-0.389661 -0.276844 -0.049141 0 255 255
-0.248802 -0.251567 -0.052136 0 255 255
-0.266196 -0.239452 -0.051141 0 255 255
-0.291444 -0.173326 -0.052135 0 255 255
-0.343842 -0.220075 -0.051141 0 255 255
-0.379774 -0.155056 -0.046713 0 255 255
-0.298426 -0.265858 -0.051141 0 255 255
-0.280830 -0.307185 -0.045141 0 255 255
-0.377190 -0.224264 -0.071141 0 255 255
-0.359822 -0.247760 -0.052126 0 255 255
-0.246083 -0.125716 -0.073141 0 255 255
-0.365751 -0.299073 -0.073141 0 255 255
-0.249473 -0.263834 -0.051141 0 255 255
-0.374364 -0.307678 -0.047141 0 255 255
-0.239952 -0.114881 -0.045141 0 255 255
-0.310038 -0.113146 -0.045141 0 255 255
-0.243649 -0.165627 -0.065141 0 255 255
-0.382550 -0.307264 -0.051141 0 255 255
-0.251069 -0.207353 -0.050056 0 255 255
-0.330014 -0.278857 -0.045141 0 255 255
-0.247878 -0.158427 -0.074101 0 255 255
-0.364679 -0.153016 -0.044875 0 255 255
-0.280398 -0.215824 -0.044920 0 255 255
-0.251424 -0.126311 -0.045414 0 255 255
-0.249771 -0.205638 -0.061141 0 255 255
-0.246161 -0.167205 -0.050608 0 255 255
-0.264739 -0.286581 -0.044801 0 255 255
-0.241492 -0.195273 -0.049141 0 255 255
-0.251938 -0.146923 -0.059141 0 255 255
-0.245244 -0.144629 -0.073141 0 255 255
-0.266877 -0.294291 -0.044940 0 255 255
-0.390715 -0.259947 -0.057141 0 255 255
-0.314976 -0.220763 -0.045490 0 255 255
-0.312562 -0.107280 -0.046403 0 255 255
-0.269241 -0.272880 -0.045088 0 255 255
-0.375370 -0.210240 -0.055141 0 255 255
-0.382415 -0.239418 -0.045825 0 255 255
-0.373771 -0.204458 -0.053141 0 255 255
-0.375693 -0.185245 -0.054052 0 255 255
-0.259873 -0.312837 -0.045141 0 255 255
-0.260365 -0.248360 -0.050001 0 255 255
-0.323107 -0.235112 -0.052129 0 255 255
-0.312418 -0.196567 -0.050020 0 255 255
-0.359000 -0.127610 -0.045141 0 255 255
-0.373250 -0.104978 -0.059141 0 255 255
-0.352485 -0.131492 -0.044929 0 255 255
-0.278369 -0.313279 -0.061141 0 255 255
-0.306132 -0.121517 -0.050039 0 255 255
-0.325002 -0.309304 -0.044703 0 255 255
-0.282358 -0.140563 -0.050042 0 255 255
-0.383290 -0.141629 -0.055141 0 255 255
-0.381829 -0.270714 -0.057141 0 255 255
-0.367321 -0.237378 -0.052129 0 255 255
-0.306650 -0.160807 -0.045167 0 255 255
-0.338072 -0.289075 -0.044794 0 255 255
-0.325073 -0.302075 -0.053141 0 255 255
-0.303655 -0.157487 -0.052104 0 255 255
