ply
format ascii 1.0
element vertex 1252
property float x
property float y
property float z
property uchar red
property uchar green
property uchar blue
end_header
0.132862 -0.250848 0.161905 255 125 0
0.174286 -0.269791 0.100613 255 125 0
0.097495 -0.289887 -0.114095 255 125 0
0.212191 -0.361445 0.100596 255 125 0
0.183731 -0.361726 0.108866 255 125 0
0.104152 -0.425479 0.101906 255 125 0
0.171222 -0.343823 0.108288 255 125 0
0.161489 -0.269483 0.179905 255 125 0
0.171499 -0.156528 -0.048095 255 125 0
0.144322 -0.181751 -0.093095 255 125 0
0.094441 -0.202099 0.107906 255 125 0
0.205208 -0.230589 0.108282 255 125 0
0.081695 -0.304972 0.188905 255 125 0
0.110772 -0.237723 0.134906 255 125 0
0.112900 -0.202088 0.175538 255 125 0
0.081054 -0.339969 0.142428 255 125 0
0.149412 -0.344987 0.178439 255 125 0
0.194008 -0.345495 0.100585 255 125 0
0.174754 -0.317223 0.108150 255 125 0
0.050268 -0.296630 0.100582 255 125 0
0.059338 -0.350619 0.100555 255 125 0
0.156037 -0.391869 0.098906 255 125 0
0.168726 -0.179927 -0.054094 255 125 0
0.160044 -0.420648 0.101906 255 125 0
0.172455 -0.324361 0.161905 255 125 0
0.136207 -0.361923 0.107906 255 125 0
0.210593 -0.342958 0.098906 255 125 0
0.080042 -0.286379 0.098906 255 125 0
0.173871 -0.323874 0.189163 255 125 0
0.040146 -0.281079 0.098906 255 125 0
0.132566 -0.315886 -0.039095 255 125 0
0.051203 -0.391494 0.108696 255 125 0
0.117275 -0.260867 -0.118885 255 125 0
0.140821 -0.402966 0.143906 255 125 0
0.092588 -0.355035 0.139420 255 125 0
0.096729 -0.339417 0.104905 255 125 0
0.030814 -0.295422 0.098906 255 125 0
0.182048 -0.279811 0.131906 255 125 0
0.035698 -0.309607 0.098906 255 125 0
0.133879 -0.309089 -0.079663 255 125 0
0.137638 -0.352214 0.098906 255 125 0
0.133451 -0.306063 -0.108095 255 125 0
0.165320 -0.418831 0.108907 255 125 0
0.114307 -0.298322 0.182906 255 125 0
0.147230 -0.412368 0.097420 255 125 0
0.088119 -0.315325 -0.114095 255 125 0
0.111011 -0.242675 0.158906 255 125 0
0.154202 -0.349683 0.184831 255 125 0
0.108638 -0.222593 0.164905 255 125 0
0.191301 -0.319205 0.146905 255 125 0
0.068210 -0.311883 0.152906 255 125 0
0.157438 -0.340653 0.098906 255 125 0
0.082800 -0.348885 0.116906 255 125 0
0.098074 -0.334108 -0.124397 255 125 0
0.123339 -0.250834 0.155905 255 125 0
0.103239 -0.249835 0.146905 255 125 0
0.083469 -0.332791 -0.123094 255 125 0
0.068398 -0.211066 0.105953 255 125 0
0.072486 -0.292153 0.131906 255 125 0
0.180520 -0.324756 0.181603 255 125 0
0.104162 -0.278073 -0.114571 255 125 0
0.123636 -0.316199 -0.105094 255 125 0
0.093103 -0.356531 0.122905 255 125 0
0.159773 -0.277962 0.173905 255 125 0
0.079550 -0.280313 0.161905 255 125 0
0.165857 -0.328244 0.173905 255 125 0
0.145704 -0.186783 -0.111095 255 125 0
0.144850 -0.267236 -0.116332 255 125 0
0.095921 -0.423689 0.101906 255 125 0
0.101732 -0.367750 0.119905 255 125 0
0.094840 -0.251001 0.101906 255 125 0
0.161598 -0.359829 0.116906 255 125 0
0.133091 -0.401372 0.173905 255 125 0
0.148167 -0.166292 -0.075095 255 125 0
0.069017 -0.341868 0.155905 255 125 0
0.131457 -0.255983 0.146580 255 125 0
0.170420 -0.166418 -0.044041 255 125 0
0.171225 -0.325405 -0.117094 255 125 0
0.167034 -0.304017 0.182526 255 125 0
0.071949 -0.285880 0.152906 255 125 0
0.164145 -0.203481 0.108491 255 125 0
0.089250 -0.363772 0.161905 255 125 0
0.177858 -0.312981 -0.123094 255 125 0
0.156439 -0.158541 -0.054094 255 125 0
0.118813 -0.320621 0.200953 255 125 0
0.145622 -0.378020 0.128905 255 125 0
0.128620 -0.256960 0.169716 255 125 0
0.117929 -0.327271 -0.113741 255 125 0
0.131056 -0.386209 0.176906 255 125 0
0.112468 -0.291077 -0.114095 255 125 0
0.243915 -0.318793 0.104905 255 125 0
0.118117 -0.346244 -0.113689 255 125 0
0.108724 -0.355823 0.185278 255 125 0
0.155490 -0.242846 0.101906 255 125 0
0.146489 -0.384067 0.170905 255 125 0
0.088100 -0.342000 0.188905 255 125 0
0.083864 -0.288236 0.164905 255 125 0
0.184781 -0.318702 0.128905 255 125 0
0.092494 -0.345548 0.108781 255 125 0
0.183610 -0.296871 0.137905 255 125 0
0.167418 -0.291193 0.170905 255 125 0
0.126533 -0.333827 0.192328 255 125 0
0.064481 -0.301052 0.140906 255 125 0
0.137744 -0.412462 0.156836 255 125 0
0.102632 -0.316674 -0.114095 255 125 0
0.088296 -0.259637 0.140906 255 125 0
0.173778 -0.346116 0.134906 255 125 0
0.175900 -0.182331 -0.051095 255 125 0
0.162314 -0.350063 0.149906 255 125 0
0.144425 -0.367362 0.098906 255 125 0
0.189580 -0.185204 -0.058416 255 125 0
0.176281 -0.183438 -0.064496 255 125 0
0.185873 -0.386371 0.100658 255 125 0
0.119679 -0.206100 0.182906 255 125 0
0.156343 -0.374329 0.132766 255 125 0
0.069866 -0.316689 0.125906 255 125 0
0.124417 -0.359939 0.098906 255 125 0
0.174058 -0.342846 0.127342 255 125 0
0.102209 -0.272399 0.178448 255 125 0
0.119845 -0.190178 0.101906 255 125 0
0.200751 -0.355865 0.100633 255 125 0
0.018972 -0.297888 0.100618 255 125 0
0.064544 -0.301234 0.100665 255 125 0
0.053465 -0.282838 0.098906 255 125 0
0.115037 -0.312403 0.203906 255 125 0
0.168142 -0.362525 0.155905 255 125 0
0.122930 -0.316032 -0.021094 255 125 0
0.166432 -0.339126 0.100578 255 125 0
0.231672 -0.316662 0.100597 255 125 0
0.070644 -0.324515 0.128905 255 125 0
0.217095 -0.329614 0.098906 255 125 0
0.044876 -0.373118 0.098906 255 125 0
0.121026 -0.303995 -0.048095 255 125 0
0.081978 -0.241291 0.100549 255 125 0
0.155355 -0.177952 -0.089059 255 125 0
0.111663 -0.361158 0.110905 255 125 0
0.175211 -0.171115 -0.055343 255 125 0
0.120018 -0.250404 0.148906 255 125 0
0.172005 -0.276923 0.152906 255 125 0
0.109128 -0.347783 0.176906 255 125 0
0.122328 -0.340046 0.179905 255 125 0
0.069487 -0.366162 0.098906 255 125 0
0.239995 -0.294759 0.100592 255 125 0
0.119748 -0.415485 0.097430 255 125 0
0.198252 -0.403896 0.104905 255 125 0
0.180427 -0.315270 0.184194 255 125 0
0.070777 -0.310121 0.140906 255 125 0
0.077711 -0.339472 0.128905 255 125 0
0.072596 -0.393646 0.098906 255 125 0
0.183671 -0.306261 0.131906 255 125 0
0.133723 -0.340870 0.179905 255 125 0
0.056821 -0.338794 0.098906 255 125 0
0.165911 -0.190181 -0.124609 255 125 0
0.120942 -0.391308 0.098906 255 125 0
0.076212 -0.284524 0.143906 255 125 0
0.201364 -0.371518 0.098906 255 125 0
0.112256 -0.329225 0.192084 255 125 0
0.109086 -0.200229 0.100551 255 125 0
0.153828 -0.311737 0.181468 255 125 0
0.184127 -0.353658 0.098906 255 125 0
0.125574 -0.377118 0.125906 255 125 0
0.155534 -0.339706 0.176906 255 125 0
0.181098 -0.335645 0.098906 255 125 0
0.097626 -0.375509 0.140906 255 125 0
0.049407 -0.257275 0.098906 255 125 0
0.083235 -0.272587 0.151455 255 125 0
0.082514 -0.344209 0.098906 255 125 0
0.167997 -0.352888 0.098906 255 125 0
0.235180 -0.336064 0.098906 255 125 0
0.064866 -0.380444 0.098906 255 125 0
0.177740 -0.381181 0.098906 255 125 0
0.228327 -0.362234 0.097412 255 125 0
0.121820 -0.283282 -0.114095 255 125 0
0.128420 -0.284024 0.182906 255 125 0
0.133463 -0.363170 0.157437 255 125 0
0.157031 -0.288425 0.185906 255 125 0
0.152436 -0.362983 0.136411 255 125 0
0.090447 -0.330389 0.097435 255 125 0
0.158665 -0.183158 -0.123094 255 125 0
0.162680 -0.286480 0.176906 255 125 0
0.089189 -0.299093 0.178409 255 125 0
0.079227 -0.308869 -0.117094 255 125 0
0.081657 -0.304860 -0.124396 255 125 0
0.069231 -0.347212 0.098906 255 125 0
0.180801 -0.403981 0.098906 255 125 0
0.185405 -0.338939 0.156543 255 125 0
0.176987 -0.305279 -0.123094 255 125 0
0.165357 -0.377571 0.098906 255 125 0
0.127702 -0.304869 0.185906 255 125 0
0.172604 -0.333828 0.155905 255 125 0
0.085023 -0.411578 0.098906 255 125 0
0.167465 -0.402228 0.098906 255 125 0
0.164412 -0.204259 -0.108095 255 125 0
0.124527 -0.226641 0.167430 255 125 0
0.114512 -0.322102 0.182906 255 125 0
0.124992 -0.310925 0.014906 255 125 0
0.082620 -0.358467 0.098906 255 125 0
0.038344 -0.381793 0.101906 255 125 0
0.192604 -0.203200 -0.082474 255 125 0
0.134292 -0.305773 -0.018094 255 125 0
0.079796 -0.308672 0.105715 255 125 0
0.174808 -0.193463 -0.096094 255 125 0
0.107056 -0.221975 0.176906 255 125 0
0.169635 -0.330000 -0.123094 255 125 0
0.182942 -0.350218 0.137905 255 125 0
0.240918 -0.334300 0.104905 255 125 0
0.103837 -0.194198 0.101906 255 125 0
0.089845 -0.365498 0.125414 255 125 0
0.137873 -0.371169 0.098906 255 125 0
0.169325 -0.319093 0.176906 255 125 0
0.154691 -0.263847 -0.123094 255 125 0
0.133893 -0.359849 0.098906 255 125 0
0.135982 -0.359130 0.185906 255 125 0
0.111332 -0.427901 0.104134 255 125 0
0.127488 -0.318174 -0.090095 255 125 0
0.138200 -0.266353 -0.124447 255 125 0
0.099238 -0.355918 0.115242 255 125 0
0.109697 -0.377699 0.149906 255 125 0
0.149577 -0.179941 -0.078094 255 125 0
0.131852 -0.321631 0.200906 255 125 0
0.079764 -0.345434 0.173905 255 125 0
0.138481 -0.294812 0.184591 255 125 0
0.141747 -0.401565 0.158906 255 125 0
0.184597 -0.308951 0.119905 255 125 0
0.130701 -0.211824 0.101906 255 125 0
0.188843 -0.302853 0.149434 255 125 0
0.126387 -0.361046 0.110905 255 125 0
0.138616 -0.212271 0.100526 255 125 0
0.232016 -0.265778 0.104905 255 125 0
0.120742 -0.221598 0.179905 255 125 0
0.068139 -0.290477 0.140906 255 125 0
0.171640 -0.283394 0.104905 255 125 0
0.120308 -0.223605 0.161905 255 125 0
0.150312 -0.192380 -0.105094 255 125 0
0.121527 -0.254789 0.170905 255 125 0
0.122907 -0.350940 0.181829 255 125 0
0.173011 -0.292441 0.182906 255 125 0
0.156343 -0.374329 0.145287 255 125 0
0.182260 -0.336850 0.119905 255 125 0
0.126001 -0.318147 -0.057095 255 125 0
0.104298 -0.370615 0.164905 255 125 0
0.163076 -0.168947 -0.063094 255 125 0
0.123058 -0.239839 0.158906 255 125 0
0.176469 -0.170682 -0.045094 255 125 0
0.139324 -0.380189 0.100710 255 125 0
0.148248 -0.286317 0.188905 255 125 0
0.190475 -0.372095 0.100686 255 125 0
0.077562 -0.274541 0.100691 255 125 0
0.183357 -0.323780 0.118526 255 125 0
0.139028 -0.277970 -0.114095 255 125 0
0.115986 -0.367700 0.122905 255 125 0
0.169007 -0.185942 -0.075095 255 125 0
0.156701 -0.250464 0.101906 255 125 0
0.220794 -0.368001 0.097437 255 125 0
0.130556 -0.322924 -0.114095 255 125 0
0.051432 -0.318440 0.100682 255 125 0
0.057333 -0.243432 0.100628 255 125 0
0.173362 -0.368469 0.100672 255 125 0
0.174560 -0.325875 0.173905 255 125 0
0.075860 -0.322719 0.161905 255 125 0
0.191961 -0.330336 0.100629 255 125 0
0.097378 -0.359730 0.100645 255 125 0
0.125739 -0.377599 0.158906 255 125 0
0.055338 -0.329786 0.100647 255 125 0
0.218093 -0.286437 0.100590 255 125 0
0.099559 -0.292350 0.181651 255 125 0
0.133667 -0.299259 0.203906 255 125 0
0.071287 -0.311603 0.100612 255 125 0
0.060866 -0.216833 0.100588 255 125 0
0.034599 -0.343273 0.100671 255 125 0
0.119900 -0.296137 0.191906 255 125 0
0.104605 -0.353079 0.107906 255 125 0
0.063245 -0.323891 0.146905 255 125 0
0.174848 -0.326710 0.100576 255 125 0
0.140393 -0.392512 0.167996 255 125 0
0.153038 -0.327874 0.181563 255 125 0
0.072357 -0.323926 0.100567 255 125 0
0.098863 -0.317972 0.181578 255 125 0
0.068773 -0.249012 0.100532 255 125 0
0.172896 -0.286135 0.167906 255 125 0
0.176348 -0.331066 0.182906 255 125 0
0.106302 -0.302719 -0.113924 255 125 0
0.147317 -0.366546 0.140906 255 125 0
0.071796 -0.267008 0.100526 255 125 0
0.046039 -0.348852 0.100590 255 125 0
0.140020 -0.354567 0.105952 255 125 0
0.219578 -0.244679 0.100540 255 125 0
0.114587 -0.317563 -0.114095 255 125 0
0.107169 -0.231519 0.152906 255 125 0
0.123463 -0.306484 -0.084095 255 125 0
0.169714 -0.195218 -0.072094 255 125 0
0.166195 -0.264725 0.146905 255 125 0
0.186890 -0.297181 0.125170 255 125 0
0.122608 -0.368505 0.128905 255 125 0
0.147634 -0.164746 -0.086021 255 125 0
0.149934 -0.263571 0.176906 255 125 0
0.122979 -0.305078 -0.021094 255 125 0
0.086898 -0.274007 0.167906 255 125 0
0.212834 -0.234308 0.105981 255 125 0
0.160257 -0.315869 -0.114095 255 125 0
0.115467 -0.366194 0.182706 255 125 0
0.089470 -0.327552 0.175453 255 125 0
0.124479 -0.364721 0.152906 255 125 0
0.151552 -0.369633 0.166413 255 125 0
0.157132 -0.358193 0.139423 255 125 0
0.180520 -0.324756 0.142408 255 125 0
0.204546 -0.210237 -0.114095 255 125 0
0.112648 -0.233904 0.146905 255 125 0
0.082127 -0.311043 0.167906 255 125 0
0.169246 -0.190650 -0.111095 255 125 0
0.170566 -0.277419 0.169871 255 125 0
0.194964 -0.205560 -0.099095 255 125 0
0.107522 -0.278618 0.185906 255 125 0
0.076961 -0.309650 0.157445 255 125 0
0.122127 -0.300443 -0.114095 255 125 0
0.090063 -0.343212 0.155905 255 125 0
0.073054 -0.298303 0.148521 255 125 0
0.176988 -0.351356 0.158873 255 125 0
0.072905 -0.345947 0.125906 255 125 0
0.170862 -0.342777 0.182906 255 125 0
0.140113 -0.364053 0.114948 255 125 0
0.187288 -0.201857 -0.099095 255 125 0
0.181154 -0.330884 0.131906 255 125 0
0.144715 -0.349777 0.175414 255 125 0
0.072654 -0.306360 0.146905 255 125 0
0.162414 -0.175521 -0.072094 255 125 0
0.178193 -0.281137 0.145592 255 125 0
0.117596 -0.197300 0.179905 255 125 0
0.082446 -0.288723 -0.118859 255 125 0
0.163729 -0.257563 0.100600 255 125 0
0.082189 -0.205045 0.101906 255 125 0
0.104663 -0.347703 -0.120094 255 125 0
0.198746 -0.221038 -0.099095 255 125 0
0.087932 -0.267797 0.154340 255 125 0
0.137463 -0.384003 0.137718 255 125 0
0.082931 -0.290132 0.182906 255 125 0
0.239223 -0.348963 0.101906 255 125 0
0.161735 -0.343916 0.109108 255 125 0
0.176105 -0.358005 0.144335 255 125 0
0.081661 -0.301685 0.104905 255 125 0
0.170526 -0.351020 0.170905 255 125 0
0.070638 -0.302307 0.161905 255 125 0
0.075834 -0.316383 0.179905 255 125 0
0.122404 -0.316212 -0.039095 255 125 0
0.117596 -0.197299 0.105896 255 125 0
0.138452 -0.291649 -0.114095 255 125 0
0.084915 -0.332753 0.170905 255 125 0
0.102209 -0.272399 -0.124466 255 125 0
0.032780 -0.255059 0.108811 255 125 0
0.163343 -0.265656 0.173905 255 125 0
0.167315 -0.332476 0.105746 255 125 0
0.121668 -0.310486 -0.078094 255 125 0
0.125845 -0.304188 -0.099095 255 125 0
0.142055 -0.176185 -0.120622 255 125 0
0.191121 -0.327897 0.131906 255 125 0
0.126719 -0.352801 0.097425 255 125 0
0.074892 -0.345263 0.161905 255 125 0
0.068430 -0.299895 0.131906 255 125 0
0.085351 -0.352445 0.173905 255 125 0
0.154430 -0.276629 0.186583 255 125 0
0.109644 -0.229493 0.104905 255 125 0
0.074606 -0.316806 0.116906 255 125 0
0.112017 -0.208738 0.187753 255 125 0
0.131977 -0.404929 0.152536 255 125 0
0.128205 -0.311042 0.210139 255 125 0
0.221133 -0.378202 0.101906 255 125 0
0.020645 -0.275102 0.109433 255 125 0
0.192511 -0.193714 -0.051849 255 125 0
0.191774 -0.311364 0.134530 255 125 0
0.130482 -0.317653 -0.012094 255 125 0
0.226299 -0.372451 0.107906 255 125 0
0.179269 -0.195100 -0.060095 255 125 0
0.157689 -0.359810 0.122905 255 125 0
0.148841 -0.272208 0.185906 255 125 0
0.188338 -0.338245 0.140906 255 125 0
0.158626 -0.183171 -0.084095 255 125 0
0.181730 -0.340205 0.164905 255 125 0
0.130201 -0.270763 -0.114095 255 125 0
0.080077 -0.337132 0.109261 255 125 0
0.210913 -0.394592 0.104905 255 125 0
0.098167 -0.343595 0.097419 255 125 0
0.184357 -0.199694 -0.063094 255 125 0
0.066603 -0.316389 0.158906 255 125 0
0.112578 -0.265657 -0.116441 255 125 0
0.167580 -0.284792 -0.117094 255 125 0
0.143660 -0.374354 0.176906 255 125 0
0.075772 -0.324627 0.113905 255 125 0
0.168519 -0.262259 0.109758 255 125 0
0.242042 -0.309919 0.106762 255 125 0
0.155701 -0.171486 -0.063094 255 125 0
0.106395 -0.201155 0.179905 255 125 0
0.104069 -0.268587 0.184167 255 125 0
0.016830 -0.282453 0.107906 255 125 0
0.165410 -0.158625 -0.045094 255 125 0
0.162194 -0.327895 0.188905 255 125 0
0.125462 -0.321505 0.210371 255 125 0
0.169826 -0.160277 -0.054094 255 125 0
0.113532 -0.231569 0.182906 255 125 0
0.175043 -0.304432 0.176906 255 125 0
0.084437 -0.424471 0.107906 255 125 0
0.134610 -0.302000 0.191906 255 125 0
0.197793 -0.199839 -0.078094 255 125 0
0.071788 -0.416135 0.107906 255 125 0
0.197889 -0.209335 -0.120094 255 125 0
0.029241 -0.370500 0.104905 255 125 0
0.130080 -0.262803 0.176906 255 125 0
0.161817 -0.159862 -0.058460 255 125 0
0.111721 -0.244741 0.149906 255 125 0
0.062667 -0.323429 0.134906 255 125 0
0.132779 -0.315111 -0.027094 255 125 0
0.178130 -0.322406 0.149906 255 125 0
0.138841 -0.222142 0.107906 255 125 0
0.191627 -0.200363 -0.059934 255 125 0
0.148643 -0.180263 -0.123094 255 125 0
0.141370 -0.395349 0.146782 255 125 0
0.074912 -0.332565 0.173905 255 125 0
0.183954 -0.297871 0.173905 255 125 0
0.170230 -0.193510 -0.120094 255 125 0
0.113033 -0.359126 0.158906 255 125 0
0.077247 -0.292051 0.152906 255 125 0
0.134016 -0.373991 0.122905 255 125 0
0.076548 -0.293928 0.170905 255 125 0
0.091252 -0.295871 0.185906 255 125 0
0.124037 -0.317367 -0.096094 255 125 0
0.136226 -0.171847 -0.099095 255 125 0
0.117421 -0.371867 0.170823 255 125 0
0.090195 -0.349512 0.185906 255 125 0
0.084587 -0.313369 0.181431 255 125 0
0.022181 -0.360240 0.101906 255 125 0
0.156521 -0.190242 -0.081094 255 125 0
0.181632 -0.333893 0.167906 255 125 0
0.180596 -0.200989 -0.090095 255 125 0
0.111118 -0.367691 0.137905 255 125 0
0.061677 -0.311739 0.137905 255 125 0
0.130253 -0.381491 0.140906 255 125 0
0.240178 -0.294697 0.107906 255 125 0
0.144997 -0.419483 0.098906 255 125 0
0.149514 -0.363713 0.179905 255 125 0
0.097204 -0.340798 0.173905 255 125 0
0.166841 -0.367961 0.143906 255 125 0
0.049250 -0.385821 0.099101 255 125 0
0.208658 -0.388043 0.108926 255 125 0
0.067661 -0.328716 0.122938 255 125 0
0.122907 -0.350940 -0.121142 255 125 0
0.150565 -0.173255 -0.079456 255 125 0
0.169870 -0.303041 0.100487 255 125 0
0.145692 -0.352613 0.187961 255 125 0
0.135592 -0.194275 0.105984 255 125 0
0.131831 -0.293929 0.191237 255 125 0
0.143780 -0.254913 0.169420 255 125 0
0.119815 -0.231386 0.179905 255 125 0
0.130484 -0.317660 -0.063094 255 125 0
0.193955 -0.243982 0.108344 255 125 0
0.087244 -0.284227 0.173905 255 125 0
0.166784 -0.281894 0.185906 255 125 0
0.091517 -0.342712 0.180650 255 125 0
0.177475 -0.214755 -0.120094 255 125 0
0.186946 -0.297346 0.155905 255 125 0
0.185767 -0.183344 -0.046442 255 125 0
0.118251 -0.263703 0.176665 255 125 0
0.082352 -0.279237 0.154499 255 125 0
0.133702 -0.372606 0.167906 255 125 0
0.079167 -0.327927 0.185906 255 125 0
0.174661 -0.307737 0.186781 255 125 0
0.132676 -0.306329 -0.090095 255 125 0
0.173357 -0.359240 0.152906 255 125 0
0.178257 -0.355039 0.128905 255 125 0
0.181439 -0.210217 -0.084095 255 125 0
0.015439 -0.324487 0.099094 255 125 0
0.155755 -0.372623 0.152906 255 125 0
0.182134 -0.320227 0.158906 255 125 0
0.065913 -0.326144 0.155905 255 125 0
0.173283 -0.276483 0.107906 255 125 0
0.095577 -0.271569 0.179905 255 125 0
0.013719 -0.312388 0.107906 255 125 0
0.119321 -0.276026 0.186939 255 125 0
0.118397 -0.374703 0.164074 255 125 0
0.041816 -0.388381 0.101906 255 125 0
0.172410 -0.282772 0.173905 255 125 0
0.142489 -0.169690 -0.087094 255 125 0
0.154018 -0.197450 -0.117094 255 125 0
0.096868 -0.404326 0.100710 255 125 0
0.132527 -0.268307 0.186574 255 125 0
0.101974 -0.271717 -0.117094 255 125 0
0.148798 -0.186555 -0.117388 255 125 0
0.112017 -0.208738 0.108619 255 125 0
0.070029 -0.280308 0.100642 255 125 0
0.099746 -0.311322 0.191098 255 125 0
0.172240 -0.254632 0.108047 255 125 0
0.098900 -0.429009 0.107906 255 125 0
0.133097 -0.214673 0.107906 255 125 0
0.059712 -0.388564 0.100677 255 125 0
0.194610 -0.310387 0.100633 255 125 0
0.142158 -0.258644 0.176906 255 125 0
0.037248 -0.323323 0.100667 255 125 0
0.218653 -0.343355 0.100621 255 125 0
0.063683 -0.399888 0.098906 255 125 0
0.135247 -0.313064 -0.021094 255 125 0
0.152182 -0.279315 -0.114095 255 125 0
0.162525 -0.327780 -0.113178 255 125 0
0.189820 -0.305691 0.128123 255 125 0
0.107262 -0.351581 0.167906 255 125 0
0.135604 -0.387816 0.130780 255 125 0
0.164425 -0.231940 0.109980 255 125 0
0.173590 -0.295415 0.100611 255 125 0
0.184521 -0.345589 0.108404 255 125 0
0.083402 -0.208568 0.107906 255 125 0
0.113607 -0.370006 0.100616 255 125 0
0.185989 -0.291145 0.128905 255 125 0
0.160282 -0.185774 -0.069094 255 125 0
0.022178 -0.284092 0.098906 255 125 0
0.141692 -0.331781 0.191671 255 125 0
0.084721 -0.230828 0.108029 255 125 0
0.080358 -0.365591 0.100605 255 125 0
0.039524 -0.265428 0.100586 255 125 0
0.120577 -0.381033 0.143906 255 125 0
0.096573 -0.245784 0.107906 255 125 0
0.168667 -0.317974 0.104905 255 125 0
0.141765 -0.378065 0.149906 255 125 0
0.063941 -0.336343 0.100608 255 125 0
0.065665 -0.338922 0.140906 255 125 0
0.066852 -0.411489 0.107906 255 125 0
0.143312 -0.207481 0.108162 255 125 0
0.164613 -0.250913 0.109709 255 125 0
0.176138 -0.297710 0.158906 255 125 0
0.049500 -0.363525 0.098906 255 125 0
0.175678 -0.218547 0.109456 255 125 0
0.192884 -0.231659 0.108054 255 125 0
0.155916 -0.234870 0.108402 255 125 0
0.211401 -0.377580 0.100579 255 125 0
0.165495 -0.244262 0.108132 255 125 0
0.121503 -0.208645 0.109626 255 125 0
0.182095 -0.347759 0.149906 255 125 0
0.131926 -0.303415 -0.114307 255 125 0
0.164800 -0.362031 0.164905 255 125 0
0.140060 -0.262539 -0.118944 255 125 0
0.127100 -0.381225 0.131906 255 125 0
0.024445 -0.322998 0.098906 255 125 0
0.075484 -0.303812 0.179905 255 125 0
0.036084 -0.301515 0.100581 255 125 0
0.089242 -0.400606 0.100582 255 125 0
0.197710 -0.204615 -0.090095 255 125 0
0.191680 -0.301877 0.108207 255 125 0
0.184053 -0.298157 0.109666 255 125 0
0.116028 -0.423112 0.108331 255 125 0
0.034658 -0.242085 0.101906 255 125 0
0.179263 -0.293461 0.167601 255 125 0
0.179450 -0.312433 0.109867 255 125 0
0.080639 -0.394050 0.108301 255 125 0
0.081376 -0.276401 0.108295 255 125 0
0.073199 -0.409304 0.101451 255 125 0
0.167128 -0.313504 -0.114597 255 125 0
0.024136 -0.340530 0.108631 255 125 0
0.199815 -0.261001 0.109729 255 125 0
0.196434 -0.214321 -0.078094 255 125 0
0.041852 -0.309047 0.108381 255 125 0
0.140581 -0.411484 0.108402 255 125 0
0.100629 -0.304673 0.190327 255 125 0
0.066497 -0.306906 0.159213 255 125 0
0.231978 -0.272137 0.101906 255 125 0
0.113742 -0.287466 0.189989 255 125 0
0.075849 -0.389354 0.109320 255 125 0
0.171959 -0.226173 0.108964 255 125 0
0.178245 -0.382651 0.108435 255 125 0
0.108298 -0.216365 0.108165 255 125 0
0.113046 -0.313088 0.192733 255 125 0
0.077469 -0.265054 0.109782 255 125 0
0.065334 -0.285097 0.109524 255 125 0
0.053705 -0.223680 0.104905 255 125 0
0.139271 -0.278675 0.181535 255 125 0
0.064731 -0.320206 0.109182 255 125 0
0.138440 -0.386838 0.180161 255 125 0
0.184468 -0.244076 0.108590 255 125 0
0.075422 -0.249895 0.107921 255 125 0
0.137007 -0.318174 0.203906 255 125 0
0.111841 -0.383307 0.108698 255 125 0
0.078861 -0.213809 0.109512 255 125 0
0.226788 -0.302480 0.108945 255 125 0
0.157225 -0.367679 0.109654 255 125 0
0.078917 -0.353395 0.161905 255 125 0
0.035772 -0.365110 0.098906 255 125 0
0.191172 -0.397238 0.098906 255 125 0
0.185965 -0.395857 0.109102 255 125 0
0.120847 -0.285020 0.182906 255 125 0
0.149765 -0.186222 -0.093095 255 125 0
0.104010 -0.230533 0.161905 255 125 0
0.170432 -0.359959 0.108125 255 125 0
0.057572 -0.363918 0.108813 255 125 0
0.149693 -0.373446 0.108445 255 125 0
0.081563 -0.295373 0.166448 255 125 0
0.091289 -0.415766 0.108579 255 125 0
0.186075 -0.291115 0.140906 255 125 0
0.166939 -0.340601 0.158906 255 125 0
0.155836 -0.180959 -0.072094 255 125 0
0.194101 -0.354982 0.108662 255 125 0
0.087548 -0.303540 0.185906 255 125 0
0.026504 -0.292121 0.108807 255 125 0
0.047618 -0.316580 0.108596 255 125 0
0.226415 -0.264534 0.108771 255 125 0
0.106209 -0.293233 0.190188 255 125 0
0.068409 -0.404607 0.109527 255 125 0
0.080171 -0.346619 0.109184 255 125 0
0.205676 -0.278021 0.108402 255 125 0
0.213073 -0.354795 0.108398 255 125 0
0.081802 -0.415859 0.108641 255 125 0
0.224648 -0.277834 0.108440 255 125 0
0.111602 -0.262821 0.184244 255 125 0
0.058965 -0.312673 0.109022 255 125 0
0.089251 -0.422813 0.101906 255 125 0
0.180264 -0.351657 0.143906 255 125 0
0.162940 -0.273698 0.166850 255 125 0
0.027762 -0.323417 0.109712 255 125 0
0.055993 -0.396191 0.109183 255 125 0
0.048916 -0.255848 0.109111 255 125 0
0.158617 -0.316434 0.190110 255 125 0
0.053706 -0.260545 0.109802 255 125 0
0.119595 -0.355254 0.170905 255 125 0
0.126211 -0.397396 0.109124 255 125 0
0.132206 -0.331874 -0.113942 255 125 0
0.019252 -0.326347 0.108400 255 125 0
0.136529 -0.427363 0.104905 255 125 0
0.095729 -0.336514 0.098906 255 125 0
0.071040 -0.349763 0.137905 255 125 0
0.071703 -0.257521 0.109521 255 125 0
0.102051 -0.373304 0.125906 255 125 0
0.154846 -0.222547 0.109866 255 125 0
0.113086 -0.221061 0.186017 255 125 0
0.158992 -0.354379 0.185243 255 125 0
0.145828 -0.270073 0.178062 255 125 0
0.157735 -0.323084 -0.113595 255 125 0
0.169128 -0.185901 -0.096094 255 125 0
0.163262 -0.210131 0.109329 255 125 0
0.064051 -0.314095 0.146905 255 125 0
0.209302 -0.260908 0.109407 255 125 0
0.074124 -0.310626 0.109858 255 125 0
0.054361 -0.326949 0.108924 255 125 0
0.127544 -0.318336 -0.072094 255 125 0
0.064918 -0.339179 0.108555 255 125 0
0.083250 -0.323348 0.161905 255 125 0
0.087604 -0.358992 0.167906 255 125 0
0.209582 -0.289367 0.108274 255 125 0
0.182848 -0.368376 0.108410 255 125 0
0.108308 -0.409906 0.109046 255 125 0
0.159001 -0.363895 0.167906 255 125 0
0.121327 -0.383212 0.108980 255 125 0
0.103237 -0.376750 0.109260 255 125 0
0.161132 -0.379025 0.108687 255 125 0
0.082933 -0.342494 0.182906 255 125 0
0.131001 -0.402092 0.109472 255 125 0
0.057479 -0.354432 0.109100 255 125 0
0.098635 -0.391027 0.109208 255 125 0
0.100910 -0.333132 0.190081 255 125 0
0.160945 -0.360053 0.108414 255 125 0
0.067608 -0.227202 0.108876 255 125 0
0.033342 -0.311978 0.109387 255 125 0
0.221677 -0.361351 0.109321 255 125 0
0.140393 -0.392512 0.108771 255 125 0
0.202237 -0.314106 0.109764 255 125 0
0.128717 -0.303313 -0.000095 255 125 0
0.080564 -0.289371 0.104905 255 125 0
0.108539 -0.235319 0.173905 255 125 0
0.134896 -0.308737 -0.051095 255 125 0
0.215068 -0.268441 0.108646 255 125 0
0.164853 -0.371399 0.109011 255 125 0
0.165808 -0.202908 -0.093095 255 125 0
0.212378 -0.380418 0.108936 255 125 0
0.209675 -0.298854 0.109381 255 125 0
0.055754 -0.275705 0.109137 255 125 0
0.145683 -0.195937 0.104905 255 125 0
0.161775 -0.201124 -0.102094 255 125 0
0.039711 -0.284402 0.108753 255 125 0
0.148085 -0.377988 0.143906 255 125 0
0.076919 -0.401676 0.108718 255 125 0
0.147324 -0.421855 0.109018 255 125 0
0.183981 -0.310874 0.143906 255 125 0
0.018337 -0.348873 0.101906 255 125 0
0.117421 -0.371867 0.109095 255 125 0
0.049928 -0.309438 0.098906 255 125 0
0.081359 -0.322423 0.098906 255 125 0
0.048179 -0.373498 0.109210 255 125 0
0.213583 -0.310199 0.109254 255 125 0
0.201166 -0.301784 0.108975 255 125 0
0.162390 -0.410320 0.109267 255 125 0
0.149765 -0.346012 -0.120094 255 125 0
0.070778 -0.356199 0.108452 255 125 0
0.187679 -0.281045 0.108831 255 125 0
0.079728 -0.359463 0.146905 255 125 0
0.177268 -0.310013 0.161905 255 125 0
0.032926 -0.366059 0.109041 255 125 0
0.218694 -0.251328 0.109246 255 125 0
0.162192 -0.197808 -0.123918 255 125 0
0.092681 -0.364521 0.108920 255 125 0
0.153038 -0.327874 0.190953 255 125 0
0.122194 -0.306766 -0.054094 255 125 0
0.104401 -0.398560 0.109067 255 125 0
0.166525 -0.348613 0.108951 255 125 0
0.132165 -0.423901 0.108775 255 125 0
0.103746 -0.332154 0.178420 255 125 0
0.044553 -0.390611 0.108870 255 125 0
0.178889 -0.255515 0.100676 255 125 0
0.193862 -0.234496 0.100634 255 125 0
0.162712 -0.346753 0.157473 255 125 0
0.216929 -0.264627 0.100593 255 125 0
0.186983 -0.306667 0.100644 255 125 0
0.165922 -0.383722 0.108849 255 125 0
0.123509 -0.315831 0.184492 255 125 0
0.081167 -0.317720 0.167906 255 125 0
0.194932 -0.246819 0.100610 255 125 0
0.125472 -0.367604 0.143906 255 125 0
0.122907 -0.350940 -0.113977 255 125 0
0.129655 -0.306036 -0.012094 255 125 0
0.145692 -0.352613 0.169412 255 125 0
0.092950 -0.199440 0.100669 255 125 0
0.109420 -0.330201 -0.113690 255 125 0
0.172759 -0.403578 0.108857 255 125 0
0.216793 -0.347169 0.109320 255 125 0
0.184375 -0.234589 0.100596 255 125 0
0.132393 -0.350847 -0.113704 255 125 0
0.175315 -0.374142 0.109293 255 125 0
0.127509 -0.336664 -0.113608 255 125 0
0.176801 -0.332383 0.108597 255 125 0
0.196605 -0.224033 0.100595 255 125 0
0.150804 -0.293742 0.181559 255 125 0
0.149173 -0.224500 0.100430 255 125 0
0.174661 -0.307737 0.100588 255 125 0
0.113929 -0.306439 -0.113846 255 125 0
0.229906 -0.329962 0.109366 255 125 0
0.152744 -0.166159 -0.093095 255 125 0
0.107414 -0.223015 0.100674 255 125 0
0.164980 -0.334913 0.167906 255 125 0
0.177849 -0.197206 -0.084095 255 125 0
0.169829 -0.395068 0.109129 255 125 0
0.179357 -0.302947 0.108191 255 125 0
0.219069 -0.289273 0.109290 255 125 0
0.216419 -0.309223 0.100621 255 125 0
0.106116 -0.283746 0.181595 255 125 0
0.197727 -0.337869 0.100670 255 125 0
0.150898 -0.303228 0.181477 255 125 0
0.157267 -0.275652 -0.124402 255 125 0
0.033529 -0.330950 0.109108 255 125 0
0.176479 -0.395952 0.097480 255 125 0
0.195400 -0.294251 0.100641 255 125 0
0.084077 -0.357964 0.108818 255 125 0
0.157495 -0.202598 0.108399 255 125 0
0.104589 -0.417532 0.109086 255 125 0
0.104630 -0.325505 0.181559 255 125 0
0.065239 -0.275611 0.100578 255 125 0
0.133732 -0.198089 0.100478 255 125 0
0.073708 -0.364708 0.108768 255 125 0
0.172613 -0.292577 -0.124436 255 125 0
0.054963 -0.291840 0.108897 255 125 0
0.055899 -0.386704 0.109216 255 125 0
0.154202 -0.349683 0.163417 255 125 0
0.082768 -0.225155 0.100521 255 125 0
0.078861 -0.213809 0.100552 255 125 0
0.228555 -0.289180 0.108963 255 125 0
0.201031 -0.384325 0.109115 255 125 0
0.122981 -0.305083 -0.036094 255 125 0
0.130065 -0.307228 -0.124541 255 125 0
0.226280 -0.347075 0.108680 255 125 0
0.166151 -0.310668 0.178407 255 125 0
0.040781 -0.296724 0.109039 255 125 0
0.123655 -0.426832 0.108795 255 125 0
0.147085 -0.301368 -0.124394 255 125 0
0.173123 -0.247982 0.100581 255 125 0
0.177846 -0.293949 0.146905 255 125 0
0.150295 -0.338337 -0.124408 255 125 0
0.136528 -0.289139 -0.124474 255 125 0
0.156758 -0.320248 0.178442 255 125 0
0.233024 -0.357444 0.097457 255 125 0
0.148248 -0.323177 -0.114059 255 125 0
0.069240 -0.296444 0.109216 255 125 0
0.058642 -0.376241 0.097454 255 125 0
0.148851 -0.288068 -0.124477 255 125 0
0.198798 -0.350192 0.109098 255 125 0
0.072451 -0.333412 0.109158 255 125 0
0.027160 -0.358526 0.109462 255 125 0
0.158337 -0.287975 -0.124448 255 125 0
0.163449 -0.229103 0.100558 255 125 0
0.101647 -0.215482 0.100512 255 125 0
0.103559 -0.313182 0.181460 255 125 0
0.158524 -0.306948 -0.124430 255 125 0
0.088078 -0.378797 0.109031 255 125 0
0.140488 -0.401998 0.109020 255 125 0
0.186756 -0.379722 0.109327 255 125 0
0.066123 -0.268961 0.109070 255 125 0
0.060543 -0.280400 0.108804 255 125 0
0.090125 -0.393956 0.109095 255 125 0
0.239112 -0.301409 0.100675 255 125 0
0.065386 -0.386611 0.109103 255 125 0
0.133089 -0.325224 -0.124466 255 125 0
0.119550 -0.202972 0.100585 255 125 0
0.096494 -0.366380 0.100563 255 125 0
0.083569 -0.402560 0.097422 255 125 0
0.167958 -0.205341 0.100623 255 125 0
0.205582 -0.268534 0.100604 255 125 0
0.127416 -0.327178 0.181432 255 125 0
0.204418 -0.246724 0.100607 255 125 0
0.183076 -0.295320 0.100586 255 125 0
0.176012 -0.348519 0.108977 255 125 0
0.182287 -0.311457 0.100590 255 125 0
0.086862 -0.255474 0.109167 255 125 0
0.096857 -0.210785 0.108972 255 125 0
0.173397 -0.317691 0.164905 255 125 0
0.098489 -0.280027 -0.124432 255 125 0
0.162244 -0.299321 0.178539 255 125 0
0.023855 -0.312071 0.108707 255 125 0
0.040407 -0.258778 0.109219 255 125 0
0.183760 -0.315735 0.122905 255 125 0
0.050589 -0.233063 0.100526 255 125 0
0.123696 -0.334804 -0.124491 255 125 0
0.182609 -0.247889 0.100556 255 125 0
0.109098 -0.393770 0.097419 255 125 0
0.177082 -0.360843 0.100583 255 125 0
0.225209 -0.334752 0.108990 255 125 0
0.147646 -0.358286 0.097430 255 125 0
0.125421 -0.413532 0.108985 255 125 0
0.136486 -0.381165 0.109127 255 125 0
0.215162 -0.277927 0.108852 255 125 0
0.080025 -0.235619 0.108535 255 125 0
0.150939 -0.211200 0.100519 255 125 0
0.201634 -0.349215 0.100556 255 125 0
0.092120 -0.307603 -0.124443 255 125 0
0.113139 -0.322575 -0.124433 255 125 0
0.048729 -0.236876 0.108944 255 125 0
0.033716 -0.349922 0.108856 255 125 0
0.066310 -0.287934 0.100558 255 125 0
0.186515 -0.259235 0.100551 255 125 0
0.209582 -0.289367 0.100510 255 125 0
0.197540 -0.318896 0.100522 255 125 0
0.086259 -0.290583 -0.124385 255 125 0
0.187357 -0.344613 0.100577 255 125 0
0.153226 -0.346846 0.100660 255 125 0
0.168052 -0.214826 0.100616 255 125 0
0.141615 -0.368416 0.125906 255 125 0
0.060075 -0.232969 0.109257 255 125 0
0.171356 -0.261282 0.100542 255 125 0
0.163355 -0.219617 0.100506 255 125 0
0.237626 -0.343168 0.108883 255 125 0
0.192709 -0.406228 0.109156 255 125 0
0.213864 -0.338659 0.108841 255 125 0
0.207349 -0.255235 0.100649 255 125 0
0.127375 -0.419205 0.097408 255 125 0
0.173830 -0.415900 0.109022 255 125 0
0.090488 -0.238362 0.100512 255 125 0
0.181913 -0.273511 0.109838 255 125 0
0.195306 -0.284764 0.100584 255 125 0
0.110906 -0.288443 -0.124457 255 125 0
0.095985 -0.410976 0.100658 255 125 0
0.066725 -0.233852 0.100649 255 125 0
0.149786 -0.382932 0.109074 255 125 0
0.042133 -0.337506 0.097470 255 125 0
0.114906 -0.309275 -0.124500 255 125 0
0.051057 -0.280495 0.109140 255 125 0
0.061011 -0.327832 0.109142 255 125 0
0.185176 -0.411994 0.108993 255 125 0
0.136809 -0.317598 -0.124467 255 125 0
0.230789 -0.323312 0.100612 255 125 0
0.127831 -0.273096 -0.124529 255 125 0
0.060959 -0.226319 0.100575 255 125 0
0.194382 -0.383441 0.097410 255 125 0
0.190381 -0.362608 0.108883 255 125 0
0.182381 -0.320943 0.100647 255 125 0
0.216326 -0.299736 0.100577 255 125 0
0.156687 -0.356900 0.149906 255 125 0
0.077376 -0.255567 0.100556 255 125 0
0.059848 -0.306024 0.109167 255 125 0
0.230602 -0.304339 0.100553 255 125 0
0.130491 -0.317681 0.011905 255 125 0
0.167917 -0.297368 -0.124543 255 125 0
0.092120 -0.307603 -0.113312 255 125 0
0.159407 -0.300298 -0.113803 255 125 0
0.100682 -0.406186 0.108716 255 125 0
0.151647 -0.379119 0.097439 255 125 0
0.107373 -0.315042 -0.124430 255 125 0
0.052689 -0.349735 0.100572 255 125 0
0.144154 -0.292858 -0.124525 255 125 0
0.101284 -0.371077 0.097421 255 125 0
0.098074 -0.334108 -0.114250 255 125 0
0.222092 -0.307269 0.109216 255 125 0
0.087142 -0.283934 -0.124484 255 125 0
0.104442 -0.306532 0.181471 255 125 0
0.076264 -0.335272 0.097440 255 125 0
0.143365 -0.308994 -0.124434 255 125 0
0.092161 -0.215575 0.100573 255 125 0
0.200096 -0.289460 0.108842 255 125 0
0.118491 -0.384190 0.097456 255 125 0
0.077601 -0.334812 0.137905 255 125 0
0.139499 -0.205622 0.100462 255 125 0
0.081709 -0.406373 0.109227 255 125 0
0.115789 -0.302625 -0.124487 255 125 0
0.042267 -0.254966 0.100582 255 125 0
0.169040 -0.411204 0.097439 255 125 0
0.152904 -0.410415 0.109109 255 125 0
0.158431 -0.297461 -0.124439 255 125 0
0.130908 -0.392606 0.097425 255 125 0
0.130440 -0.345174 -0.124462 255 125 0
0.054963 -0.291840 0.100577 255 125 0
0.106448 -0.413719 0.097436 255 125 0
0.101512 -0.298023 -0.124456 255 125 0
0.085336 -0.389260 0.097422 255 125 0
0.216512 -0.318709 0.100542 255 125 0
0.101606 -0.307508 -0.124504 255 125 0
0.207161 -0.236262 0.100592 255 125 0
0.226602 -0.283507 0.100582 255 125 0
0.103278 -0.284723 -0.124479 255 125 0
0.227298 -0.257885 0.100570 255 125 0
0.040272 -0.341319 0.108929 255 125 0
0.023160 -0.337693 0.097423 255 125 0
0.130720 -0.373632 0.108770 255 125 0
0.207027 -0.318803 0.100576 255 125 0
0.243019 -0.312755 0.100640 255 125 0
0.083797 -0.329506 0.097427 255 125 0
0.221209 -0.313919 0.100586 255 125 0
0.070029 -0.280308 0.109558 255 125 0
0.099840 -0.320809 -0.124476 255 125 0
0.112912 -0.395629 0.109085 255 125 0
0.114210 -0.334897 0.181523 255 125 0
0.044916 -0.235016 0.097408 255 125 0
0.096068 -0.226921 0.100601 255 125 0
0.148758 -0.278582 -0.124516 255 125 0
0.091974 -0.348899 0.152906 255 125 0
0.030693 -0.331926 0.097410 255 125 0
0.131790 -0.385956 0.097419 255 125 0
0.141516 -0.358913 0.161905 255 125 0
0.053613 -0.251059 0.100601 255 125 0
0.116317 -0.216777 0.173905 255 125 0
0.103543 -0.359207 0.146905 255 125 0
0.116704 -0.240782 0.161905 255 125 0
0.099633 -0.347853 0.164905 255 125 0
0.071520 -0.295659 0.161905 255 125 0
0.165248 -0.174545 -0.066095 255 125 0
0.137793 -0.366529 0.149906 255 125 0
0.178158 -0.299463 0.182906 255 125 0
0.154876 -0.176561 -0.111095 255 125 0
0.128070 -0.285706 -0.114095 255 125 0
0.095143 -0.325599 0.189528 255 125 0
0.032437 -0.267869 0.098906 255 125 0
0.179072 -0.315737 0.152906 255 125 0
0.234294 -0.342708 0.098906 255 125 0
0.175520 -0.332824 0.149906 255 125 0
0.157897 -0.194548 0.101906 255 125 0
0.152546 -0.163055 -0.060095 255 125 0
0.173589 -0.341484 0.140906 255 125 0
0.121076 -0.308766 0.005906 255 125 0
0.088218 -0.347020 0.146905 255 125 0
0.169079 -0.195436 -0.087094 255 125 0
0.110624 -0.370558 0.170905 255 125 0
0.080560 -0.311583 0.188905 255 125 0
0.132882 -0.357024 0.170905 255 125 0
0.127655 -0.300227 -0.006095 255 125 0
0.112631 -0.367170 0.108177 255 125 0
0.182585 -0.285971 0.149906 255 125 0
0.167021 -0.350053 0.122905 255 125 0
0.151076 -0.174742 -0.117094 255 125 0
0.126106 -0.194368 0.105805 255 125 0
0.170802 -0.342606 0.116906 255 125 0
0.175263 -0.272628 0.133284 255 125 0
0.099368 -0.359045 0.182906 255 125 0
0.131445 -0.306753 -0.045094 255 125 0
0.156249 -0.364842 0.118803 255 125 0
0.082722 -0.298741 0.176906 255 125 0
0.171918 -0.318200 0.183081 255 125 0
0.073940 -0.300879 0.173905 255 125 0
0.103092 -0.238107 0.104905 255 125 0
0.114064 -0.223898 0.108426 255 125 0
0.088587 -0.334202 0.185014 255 125 0
0.154109 -0.340196 0.189116 255 125 0
0.087517 -0.321878 -0.113320 255 125 0
0.076866 -0.300163 0.100596 255 125 0
0.075449 -0.335553 0.116906 255 125 0
0.187096 -0.332011 0.125906 255 125 0
0.159782 -0.338243 0.106342 255 125 0
0.026224 -0.263663 0.108658 255 125 0
0.086540 -0.319043 0.186999 255 125 0
0.122217 -0.316276 0.008905 255 125 0
0.142254 -0.379486 0.137905 255 125 0
0.144493 -0.391101 0.137905 255 125 0
0.168824 -0.336334 0.181661 255 125 0
0.171152 -0.299426 0.179905 255 125 0
0.090675 -0.257334 0.100577 255 125 0
0.108953 -0.245916 0.143906 255 125 0
0.080369 -0.286265 0.170905 255 125 0
0.079161 -0.324756 0.176906 255 125 0
0.084696 -0.326024 -0.120094 255 125 0
0.122061 -0.306811 0.200906 255 125 0
0.078945 -0.269340 0.137905 255 125 0
0.130347 -0.317261 -0.081094 255 125 0
0.186487 -0.203864 -0.090095 255 125 0
0.016042 -0.289378 0.101492 255 125 0
0.120513 -0.310517 -0.060095 255 125 0
0.154910 -0.278022 0.179905 255 125 0
0.146155 -0.372384 0.122905 255 125 0
0.090362 -0.284067 0.179905 255 125 0
0.238402 -0.284489 0.105509 255 125 0
0.110677 -0.361497 0.187880 255 125 0
0.182011 -0.172433 -0.042095 255 125 0
0.116632 -0.378791 0.149906 255 125 0
0.020674 -0.351240 0.107906 255 125 0
0.182194 -0.301971 0.167545 255 125 0
0.141190 -0.413253 0.170905 255 125 0
0.179730 -0.207633 0.101906 255 125 0
0.134388 -0.264493 -0.116352 255 125 0
0.020094 -0.272118 0.101906 255 125 0
0.214787 -0.239982 0.108419 255 125 0
0.074427 -0.285139 0.158906 255 125 0
0.126800 -0.306962 -0.060095 255 125 0
0.175039 -0.307607 0.170905 255 125 0
0.144154 -0.292858 0.190307 255 125 0
0.159168 -0.179812 -0.103538 255 125 0
0.109648 -0.257147 0.173253 255 125 0
0.133210 -0.312491 -0.096094 255 125 0
0.143540 -0.226571 0.107906 255 125 0
0.162192 -0.197808 -0.089885 255 125 0
0.107181 -0.235786 0.140906 255 125 0
0.081746 -0.314347 -0.114095 255 125 0
0.159613 -0.186004 -0.117094 255 125 0
0.106172 -0.293124 -0.114095 255 125 0
0.183280 -0.311115 0.164905 255 125 0
0.101190 -0.361590 0.118090 255 125 0
0.112633 -0.376392 0.155905 255 125 0
0.129894 -0.247003 0.152906 255 125 0
0.134639 -0.403442 0.161905 255 125 0
0.075280 -0.354649 0.146905 255 125 0
0.141037 -0.265376 0.178708 255 125 0
0.147000 -0.402929 0.170905 255 125 0
0.148155 -0.313691 0.184729 255 125 0
0.148622 -0.361123 0.115038 255 125 0
0.066374 -0.310122 0.125906 255 125 0
0.122293 -0.316250 -0.030094 255 125 0
0.203254 -0.224916 0.105961 255 125 0
0.126023 -0.378423 0.100659 255 125 0
0.172572 -0.384605 0.100610 255 125 0
0.163910 -0.304159 0.188905 255 125 0
0.129649 -0.361310 0.166519 255 125 0
0.206933 -0.309317 0.100658 255 125 0
0.138253 -0.367866 0.109244 255 125 0
0.076679 -0.281191 0.100653 255 125 0
0.068878 -0.315605 0.164905 255 125 0
0.141411 -0.303321 0.184601 255 125 0
0.207213 -0.337776 0.100632 255 125 0
0.086012 -0.335088 0.107906 255 125 0
0.130067 -0.353307 0.176906 255 125 0
0.132621 -0.277792 -0.113714 255 125 0
0.226373 -0.356561 0.100605 255 125 0
0.028365 -0.288308 0.100632 255 125 0
0.136809 -0.317598 -0.113750 255 125 0
0.079013 -0.278754 0.143906 255 125 0
0.238415 -0.327032 0.100599 255 125 0
0.148114 -0.405718 0.100651 255 125 0
0.161923 -0.362889 0.100581 255 125 0
0.176895 -0.341869 0.100589 255 125 0
0.025622 -0.298771 0.100605 255 125 0
0.187053 -0.332026 0.155905 255 125 0
0.042038 -0.328020 0.100605 255 125 0
0.095875 -0.360248 0.134906 255 125 0
0.213957 -0.348145 0.100566 255 125 0
0.147072 -0.168113 -0.120094 255 125 0
0.158132 -0.361097 0.173905 255 125 0
0.127831 -0.273096 0.181473 255 125 0
0.129744 -0.370796 0.118090 255 125 0
0.142669 -0.334616 0.181504 255 125 0
0.179725 -0.290129 0.137905 255 125 0
0.137277 -0.365030 0.100581 255 125 0
0.082243 -0.330040 0.161905 255 125 0
0.120485 -0.297836 0.184562 255 125 0
0.029060 -0.262685 0.100580 255 125 0
0.118302 -0.241476 0.149906 255 125 0
0.158056 -0.259516 0.148460 255 125 0
0.133832 -0.312277 -0.006095 255 125 0
0.163354 -0.267210 0.155905 255 125 0
0.220295 -0.384982 0.104905 255 125 0
0.133885 -0.312260 0.005906 255 125 0
0.180183 -0.332989 0.137905 255 125 0
0.160852 -0.350567 0.115242 255 125 0
0.075794 -0.333908 0.125906 255 125 0
0.078530 -0.328147 0.149906 255 125 0
0.173857 -0.288976 0.173905 255 125 0
0.177845 -0.197196 -0.108095 255 125 0
0.205575 -0.222442 -0.099095 255 125 0
0.115508 -0.274166 0.181526 255 125 0
0.070778 -0.356199 0.097417 255 125 0
0.116300 -0.318314 0.206905 255 125 0
0.041170 -0.288638 0.098906 255 125 0
0.081253 -0.312902 0.098906 255 125 0
0.099611 -0.393863 0.097422 255 125 0
0.133118 -0.380598 0.146905 255 125 0
0.103354 -0.344982 0.176906 255 125 0
0.042431 -0.319944 0.098906 255 125 0
0.046807 -0.281958 0.098906 255 125 0
0.043576 -0.244996 0.098906 255 125 0
0.045752 -0.269630 0.098906 255 125 0
0.087124 -0.366812 0.146905 255 125 0
0.122065 -0.265563 0.186805 255 125 0
0.111066 -0.353412 0.098906 255 125 0
0.058455 -0.357268 0.097421 255 125 0
0.158834 -0.386162 0.098906 255 125 0
0.090157 -0.347976 0.098906 255 125 0
0.215911 -0.353818 0.097443 255 125 0
0.091236 -0.314253 0.178531 255 125 0
0.089393 -0.470357 -0.048095 255 125 0
0.089751 -0.356011 0.097464 255 125 0
0.087102 -0.375960 0.097482 255 125 0
0.067178 -0.327311 0.098906 255 125 0
0.116298 -0.258031 -0.124551 255 125 0
0.117742 -0.359065 0.098906 255 125 0
0.124953 -0.366099 0.097469 255 125 0
0.152424 -0.169442 -0.100530 255 125 0
0.102770 -0.278552 0.179905 255 125 0
0.121964 -0.302130 -0.066095 255 125 0
0.187578 -0.216246 -0.099095 255 125 0
0.073391 -0.285495 0.131906 255 125 0
0.131457 -0.255983 0.175305 255 125 0
0.179211 -0.191947 -0.073494 255 125 0
0.184790 -0.180508 -0.058461 255 125 0
0.131603 -0.366983 0.142406 255 125 0
0.144635 -0.391052 0.098906 255 125 0
0.110169 -0.406092 0.097458 255 125 0
0.178526 -0.411111 0.097471 255 125 0
0.068896 -0.328291 0.161905 255 125 0
0.137692 -0.310948 0.184523 255 125 0
0.106418 -0.362964 0.140906 255 125 0
0.175289 -0.278965 0.158906 255 125 0
0.192709 -0.406228 0.102820 255 125 0
0.169591 -0.188914 -0.063094 255 125 0
0.089564 -0.337038 0.166448 255 125 0
0.034444 -0.278323 0.098906 255 125 0
0.211661 -0.221689 -0.093095 255 125 0
0.117420 -0.311583 -0.048095 255 125 0
0.184870 -0.217597 -0.117094 255 125 0
0.142523 -0.223617 0.100467 255 125 0
0.168613 -0.271745 0.103233 255 125 0
0.142175 -0.182490 -0.108095 255 125 0
0.121503 -0.208645 0.175703 255 125 0
0.168987 -0.309690 0.184485 255 125 0
0.144061 -0.283372 0.181581 255 125 0
0.157121 -0.164652 -0.064494 255 125 0
0.014276 -0.302678 0.101336 255 125 0
0.107884 -0.215166 0.176906 255 125 0
0.178309 -0.336763 0.128905 255 125 0
0.160197 -0.284161 0.182506 255 125 0
0.234135 -0.277740 0.107077 255 125 0
0.120682 -0.367570 0.137905 255 125 0
0.170847 -0.305878 -0.124386 255 125 0
0.070489 -0.296013 0.137905 255 125 0
0.169834 -0.344301 0.146905 255 125 0
0.198558 -0.229706 0.109964 255 125 0
0.092366 -0.358284 0.116906 255 125 0
0.138066 -0.348893 -0.124360 255 125 0
0.067119 -0.332076 0.128905 255 125 0
0.122162 -0.306777 -0.027094 255 125 0
0.090540 -0.339875 0.105928 255 125 0
0.103702 -0.239879 0.152906 255 125 0
0.146308 -0.372830 0.164905 255 125 0
0.128766 -0.367960 0.180381 255 125 0
0.165911 -0.190181 -0.085555 255 125 0
0.126948 -0.279746 0.189280 255 125 0
0.168373 -0.151259 -0.049485 255 125 0
0.124003 -0.308051 -0.000095 255 125 0
0.070259 -0.286574 0.146905 255 125 0
0.179971 -0.212585 -0.096094 255 125 0
0.140248 -0.281512 0.188561 255 125 0
0.114172 -0.284145 -0.114095 255 125 0
0.121690 -0.227618 0.148488 255 125 0
0.101004 -0.342618 0.189465 255 125 0
0.083990 -0.307229 0.173905 255 125 0
0.134183 -0.365259 0.185906 255 125 0
0.099226 -0.349576 0.185906 255 125 0
0.165642 -0.355263 0.115557 255 125 0
0.204939 -0.395671 0.100713 255 125 0
0.224367 -0.249374 0.105939 255 125 0
0.092305 -0.351959 0.110905 255 125 0
0.156155 -0.355356 0.110986 255 125 0
0.153392 -0.188146 -0.087094 255 125 0
0.166772 -0.364392 0.125906 255 125 0
0.127578 -0.318437 -0.051095 255 125 0
0.151501 -0.268119 -0.119036 255 125 0
0.186039 -0.341894 0.149906 255 125 0
0.160197 -0.284161 0.189112 255 125 0
0.106373 -0.223373 0.170905 255 125 0
0.167150 -0.295140 0.185906 255 125 0
0.180902 -0.311935 0.176906 255 125 0
0.128611 -0.303005 -0.075095 255 125 0
0.127272 -0.225696 0.161905 255 125 0
0.117032 -0.368828 0.116906 255 125 0
0.167408 -0.341963 0.187980 255 125 0
0.182702 -0.298623 0.143906 255 125 0
0.198251 -0.219600 -0.093095 255 125 0
0.013267 -0.318889 0.107906 255 125 0
0.204394 -0.219011 -0.087094 255 125 0
0.154707 -0.171829 -0.075095 255 125 0
0.137131 -0.254029 0.158087 255 125 0
0.182068 -0.317877 0.170905 255 125 0
0.162981 -0.181671 -0.073424 255 125 0
0.126439 -0.324341 0.202130 255 125 0
0.091333 -0.277674 0.170905 255 125 0
0.172988 -0.330524 0.177652 255 125 0
0.191578 -0.317776 0.140906 255 125 0
0.129619 -0.379648 0.152906 255 125 0
0.102654 -0.243690 0.146905 255 125 0
0.123861 -0.220524 0.167906 255 125 0
0.134030 -0.392461 0.134906 255 125 0
0.123610 -0.214764 0.107906 255 125 0
0.178527 -0.325443 0.161905 255 125 0
0.036501 -0.247433 0.108626 255 125 0
0.152892 -0.216874 0.108448 255 125 0
0.174473 -0.288765 0.105969 255 125 0
0.093096 -0.310439 0.189731 255 125 0
0.148731 -0.232433 0.101906 255 125 0
0.230280 -0.367908 0.109112 255 125 0
0.102624 -0.218318 0.109544 255 125 0
0.114131 -0.380741 0.137905 255 125 0
0.181941 -0.324268 0.125906 255 125 0
0.229884 -0.368044 0.101906 255 125 0
0.081300 -0.322253 0.182906 255 125 0
0.197862 -0.255328 0.108404 255 125 0
0.085938 -0.354151 0.117305 255 125 0
0.125182 -0.293046 0.191374 255 125 0
0.034287 -0.381454 0.107906 255 125 0
0.120766 -0.326294 0.194246 255 125 0
0.189757 -0.296193 0.137905 255 125 0
0.085637 -0.279561 0.161905 255 125 0
0.195523 -0.220892 -0.108095 255 125 0
0.074072 -0.209113 0.100621 255 125 0
0.192103 -0.327115 0.137905 255 125 0
0.172105 -0.337173 0.109176 255 125 0
0.152758 -0.299414 0.190480 255 125 0
0.194651 -0.218360 0.105932 255 125 0
0.137650 -0.402975 0.178710 255 125 0
0.177684 -0.325734 0.109678 255 125 0
0.190831 -0.219675 -0.117094 255 125 0
0.175316 -0.297993 -0.117094 255 125 0
0.123187 -0.379400 0.151724 255 125 0
0.184229 -0.304442 0.161905 255 125 0
0.135603 -0.314097 -0.060095 255 125 0
0.182189 -0.292743 0.158906 255 125 0
0.126719 -0.352801 0.189612 255 125 0
0.083142 -0.263101 0.108713 255 125 0
0.123140 -0.305543 0.206905 255 125 0
0.035856 -0.374568 0.108925 255 125 0
0.156146 -0.198680 -0.111095 255 125 0
0.132387 -0.323186 0.194906 255 125 0
0.184334 -0.326617 0.109876 255 125 0
0.217074 -0.375628 0.098163 255 125 0
0.121836 -0.338618 0.191593 255 125 0
0.103654 -0.322668 -0.113729 255 125 0
0.129463 -0.342337 0.191585 255 125 0
0.079588 -0.356338 0.125906 255 125 0
0.164478 -0.333453 0.187878 255 125 0
0.117742 -0.308299 0.193204 255 125 0
0.046160 -0.396403 0.107906 255 125 0
0.103840 -0.341641 -0.114446 255 125 0
