ply
format ascii 1.0
element vertex 1215
property float x
property float y
property float z
property uchar red
property uchar green
property uchar blue
end_header
0.187682 0.366516 -0.043907 55 53 38
-0.010898 0.354879 0.388908 255 255 255
-0.002731 0.367479 0.389309 241 242 238
0.007930 0.367127 0.386233 255 254 254
0.005471 0.374275 0.398728 254 254 253
0.312016 0.390812 0.326366 255 253 255
0.302311 0.399166 0.315158 255 254 255
0.299507 0.392474 0.335112 255 254 255
0.292177 0.393794 0.323952 255 254 255
0.309714 0.393850 0.317306 255 254 255
-0.025161 0.140224 -0.032221 252 253 221
-0.056218 0.136310 -0.036861 251 231 186
-0.052371 0.137742 -0.031862 251 231 186
-0.042455 0.145601 -0.029507 250 246 237
0.123110 0.385423 0.316018 255 254 255
0.152005 0.389044 0.305759 255 254 255
-0.135796 0.134777 -0.055845 172 137 115
-0.137130 0.179886 -0.051512 173 136 113
-0.123060 0.355324 0.098481 252 254 212
-0.124052 0.357142 0.078302 252 254 212
-0.143325 0.350367 0.083255 254 255 214
-0.138390 0.351562 0.111785 253 255 215
-0.091015 0.341696 0.265968 255 255 255
-0.104880 0.346780 0.243985 179 192 152
-0.081976 0.364109 0.246685 240 241 234
-0.111995 0.362480 0.251212 134 151 99
-0.081341 0.345630 0.258883 255 255 253
-0.100272 0.362490 0.254904 228 236 217
-0.100002 0.338501 0.275502 253 253 252
0.280198 -0.013980 -0.067741 255 255 253
0.065502 0.418350 0.375030 255 255 255
0.032890 0.417489 0.380214 255 255 255
0.378523 0.372385 0.083608 255 255 251
0.373770 0.373629 0.060195 255 255 254
0.236842 0.133354 -0.056159 95 83 66
0.259052 0.153488 -0.057381 139 127 98
0.177569 0.161934 0.085481 214 136 119
0.180929 0.158413 0.117067 144 119 83
0.180840 0.159902 0.101519 185 124 105
0.171266 0.167339 0.101076 213 137 117
0.191028 0.172536 0.098158 229 197 140
0.179161 0.164802 0.095604 173 122 104
-0.092589 0.300258 -0.067635 161 155 130
-0.108589 0.274565 -0.045112 222 155 135
-0.111807 0.291783 -0.055640 235 158 137
-0.120870 0.290358 -0.057067 156 126 104
0.246386 0.004380 0.159987 246 255 245
0.350458 -0.027642 -0.047337 255 255 255
0.338635 -0.017377 -0.043535 255 255 255
0.361447 0.005019 -0.050537 255 254 252
0.382266 0.008053 -0.051334 255 254 252
0.048793 0.065152 -0.070440 170 129 107
0.030771 0.058700 -0.071053 146 112 91
-0.118449 0.374953 0.159483 142 140 109
0.025083 0.327103 -0.004495 91 64 52
0.030038 0.335098 -0.004247 74 46 34
0.035362 0.301713 0.007392 92 64 48
0.184928 0.395363 0.155803 142 141 111
0.228664 0.070754 0.234293 123 90 60
0.236142 0.040116 0.206097 254 255 242
0.230157 0.060984 0.212909 105 99 56
0.243318 0.052737 0.217455 249 251 230
0.273427 0.355756 0.344312 255 255 255
0.251462 0.379698 0.357536 255 255 254
0.281744 0.362366 0.360687 255 255 255
0.274206 0.374960 0.347202 255 255 255
0.247541 0.380031 0.351873 255 255 255
0.267865 0.383803 0.351117 255 255 255
0.151832 -0.038812 0.278062 243 243 193
0.144718 -0.024254 0.305635 176 180 137
0.147865 -0.002490 0.280318 216 220 178
0.153693 -0.029062 0.286954 244 244 197
0.155086 -0.049998 0.291786 233 238 195
-0.145200 0.357453 -0.005551 235 230 191
-0.162701 0.354233 0.004276 246 241 194
0.228406 -0.056086 -0.068435 245 203 163
0.240845 -0.029810 -0.070947 230 191 143
0.253381 -0.042711 -0.079528 236 193 156
0.238155 -0.060865 -0.073780 255 215 177
0.215443 0.044762 0.162167 72 102 39
0.470075 0.317794 0.086470 255 255 253
0.476341 0.317576 0.081059 255 255 252
0.481563 0.320304 0.102409 219 221 209
0.228617 0.045654 0.375384 222 227 188
0.233328 0.046863 0.396529 212 214 177
0.234480 0.044334 0.374787 167 174 119
0.229897 0.045962 0.398895 255 255 250
0.029143 0.445194 0.383417 255 255 255
0.023367 0.448598 0.387443 255 255 255
0.024559 0.457519 0.400884 255 255 255
-0.005812 0.380138 0.254556 242 244 234
0.011948 0.366803 0.274294 155 172 105
-0.014777 0.377131 0.268312 154 159 120
-0.001682 0.376924 0.243294 231 243 200
0.020137 0.376793 0.245763 242 242 236
0.167100 -0.031327 -0.006482 72 119 62
0.167463 0.377983 0.310818 255 255 255
0.196280 0.383280 0.316226 255 255 255
0.431979 0.330291 0.290293 255 255 255
0.430644 0.329245 0.298962 255 255 255
0.421123 0.349449 0.286518 255 255 254
0.234359 -0.048714 0.187430 142 166 139
0.240870 -0.047527 0.203632 177 208 117
0.358390 0.224468 -0.050235 127 113 98
0.325610 0.237970 -0.050325 195 197 165
0.341216 0.235598 -0.046024 118 112 90
0.481458 0.315202 0.200248 254 254 241
0.488864 0.322453 0.180571 255 255 248
0.255888 0.359732 0.062406 255 255 219
0.261892 0.384861 0.057739 255 255 229
0.255856 0.379898 0.064516 254 255 226
0.245587 0.405958 0.356228 253 253 250
0.224268 0.404335 0.364320 255 255 254
0.234604 0.419595 0.362693 229 229 223
-0.011228 -0.005270 0.311126 255 252 255
-0.019779 -0.005674 0.320234 223 225 210
-0.252766 0.168582 -0.051217 181 146 114
-0.263076 0.154583 -0.045857 173 141 113
0.027057 0.100059 -0.036239 255 254 240
-0.058231 0.352784 0.295126 255 255 255
-0.064251 0.353091 0.313803 255 255 255
0.320644 0.355196 -0.021570 189 177 134
0.317009 0.359848 0.003032 214 202 151
0.319082 0.357889 0.028857 218 209 157
0.335820 0.356881 0.001858 210 195 146
-0.015422 0.360554 0.423342 252 253 251
-0.024411 0.346988 0.428766 252 252 251
-0.031809 0.358174 0.409978 148 149 123
-0.168331 0.347456 0.096475 255 255 212
0.041365 0.406454 0.376883 249 252 247
0.049159 0.389000 0.370629 255 255 255
-0.005625 0.372707 0.442119 255 255 255
-0.077758 0.360071 0.091028 254 255 223
0.044503 0.224772 -0.012223 118 100 73
0.031882 0.214921 -0.040243 104 85 69
0.044279 0.208205 -0.035259 97 77 63
0.094022 0.223363 0.148405 136 122 92
0.092732 0.234207 0.146717 100 94 64
0.094314 0.214741 0.178853 87 80 52
0.096566 0.205422 0.150104 124 110 79
0.093328 0.220930 0.162874 103 95 66
0.284007 0.257870 -0.061226 150 131 99
0.261712 0.244394 -0.066075 247 234 164
-0.136855 0.364685 0.389577 255 255 253
-0.117710 0.349237 0.407717 255 255 254
-0.121831 0.366409 0.394456 255 255 255
0.184305 0.234690 0.113510 255 249 192
0.177142 0.237798 0.107366 94 82 57
0.461441 0.314271 0.243274 255 255 255
-0.174841 0.352945 -0.014635 235 232 189
-0.166256 0.355401 -0.034531 221 216 176
-0.155252 0.358020 -0.038747 219 211 173
0.049606 0.384347 0.132454 85 88 54
-0.001482 0.155545 0.066231 213 114 96
0.068254 0.385753 0.322255 254 254 250
0.054305 0.383438 0.325061 255 255 254
0.075952 0.370731 0.334425 255 255 253
0.082980 0.390188 0.315116 235 238 221
0.131237 0.230112 0.191516 254 254 254
0.123565 0.243207 0.194587 255 255 254
0.136318 0.241460 0.196286 254 254 254
0.148336 0.255979 0.194446 213 200 188
0.140712 0.228978 0.192309 169 143 119
0.158638 0.249068 0.193252 164 143 113
0.503603 0.056166 0.329030 132 135 131
0.487536 0.081921 0.322776 136 137 132
0.134715 -0.034677 0.179741 151 175 85
0.144872 -0.007269 0.178243 167 189 99
0.147091 -0.014885 0.202699 220 122 112
0.147298 -0.021450 0.207439 244 166 139
0.151388 -0.013093 0.199246 249 224 174
0.155239 -0.041443 0.201956 216 220 149
0.143078 -0.027626 0.205696 235 213 161
0.149804 -0.040545 0.186068 141 128 99
0.167524 -0.031909 0.186690 217 223 165
0.203133 0.173020 0.196709 107 117 72
0.214403 0.205789 0.186438 181 186 146
0.198518 0.200175 0.201445 197 207 152
0.177994 0.208190 0.194412 133 144 97
0.212532 0.191966 0.201151 122 136 92
0.189908 0.185392 0.195952 124 135 82
0.269183 0.385779 0.294309 254 254 254
0.262479 0.389596 0.276975 254 255 238
0.271833 0.368000 0.294997 255 255 255
0.274011 0.371841 0.302621 255 255 255
0.284748 0.386929 0.289256 255 255 255
0.281962 0.360870 0.305583 255 255 255
-0.021966 0.194080 0.008843 255 251 200
0.230023 0.000296 -0.055341 214 214 176
0.228680 -0.028183 -0.055815 254 237 170
0.227727 -0.017961 -0.058805 225 219 177
0.232421 -0.021059 -0.064164 239 219 144
0.237596 0.003587 -0.071395 245 225 160
0.208606 0.229942 0.187747 115 118 80
0.209777 0.213585 0.197488 143 150 105
0.207781 0.231431 0.179960 239 237 213
0.418725 0.178513 -0.065255 130 112 100
0.408712 0.196154 -0.055243 129 111 98
0.117365 0.155436 0.154063 220 202 122
0.109763 0.144960 0.175607 255 254 255
0.115475 0.152574 0.180756 252 254 253
0.125818 0.156802 0.161340 255 255 254
0.127313 0.159472 0.149434 253 249 215
0.223405 -0.002479 0.269850 255 255 249
0.223526 -0.004309 0.247874 255 255 245
0.216424 -0.016984 0.256387 252 255 228
0.212049 -0.014988 0.276526 147 165 91
0.169193 0.002966 -0.004961 57 82 38
0.174431 -0.005639 0.012864 68 122 52
0.133120 0.171018 0.187095 189 221 121
0.137905 0.173769 0.194839 219 224 148
0.121826 0.152989 0.191652 231 211 142
0.127604 0.168451 0.202577 170 185 96
0.114764 0.153043 0.210876 252 211 144
0.113601 0.172580 0.210567 250 218 187
0.121549 0.182596 0.200539 223 194 140
-0.100961 0.159879 -0.054989 126 97 88
-0.104659 0.133149 -0.056695 131 105 90
-0.167340 0.354880 -0.057572 205 200 160
-0.140845 0.355234 -0.075700 191 186 155
-0.159379 0.354290 -0.067131 253 252 225
0.031024 0.384898 0.369719 231 235 221
-0.007716 0.335778 0.368855 255 255 255
-0.008699 0.334549 0.385785 255 255 254
0.022761 0.338240 0.380858 255 255 255
0.277923 0.370282 0.214059 253 255 231
0.183818 0.011861 0.097891 48 72 37
0.188467 0.028294 0.157944 235 243 229
0.190303 0.045285 0.147912 200 200 184
0.207452 0.040315 0.151648 115 142 84
0.208437 0.023433 0.164446 178 189 147
0.195814 0.019904 0.158582 207 220 189
0.183617 0.392772 0.216175 197 198 168
0.170298 0.388335 0.212377 156 171 128
0.158545 0.395450 0.222589 142 157 118
0.170214 0.401981 0.235480 194 197 167
0.187303 0.234101 0.135498 255 255 224
0.224941 -0.007029 -0.026869 128 159 120
0.231038 -0.007672 -0.041461 173 177 131
-0.198586 0.361466 0.239012 126 143 84
-0.207292 0.358671 0.234921 139 151 103
-0.194631 0.362862 0.227301 242 242 233
0.335392 0.350971 -0.048518 60 59 47
0.042070 0.382710 0.123452 120 118 83
0.033531 0.380197 0.085802 123 114 84
0.029085 0.385179 0.100635 124 120 89
0.043261 0.379104 0.106458 116 116 83
-0.122214 0.386680 0.423406 215 225 216
-0.125493 0.399802 0.401837 218 220 213
0.370276 0.310658 -0.060072 162 152 123
0.388556 0.328242 -0.056425 126 120 94
0.387090 0.314063 -0.052188 202 191 156
0.388138 0.296993 -0.051876 189 176 145
0.032962 0.130379 0.072885 239 198 133
0.014988 0.143296 0.079718 236 190 135
0.009775 0.138867 0.060514 204 140 103
-0.193436 0.343495 0.189381 255 255 232
-0.207296 0.345922 0.191044 254 255 233
-0.010809 0.191621 0.094454 249 206 135
-0.008231 0.194354 0.113952 244 144 130
0.016639 0.202473 0.097350 233 121 119
-0.010897 0.268300 -0.030675 244 211 164
-0.019012 0.250801 -0.023958 255 230 178
-0.021017 0.266497 -0.024873 247 216 171
-0.028560 0.284363 -0.025436 253 221 175
0.190754 0.395532 0.161345 209 214 178
0.223945 0.398839 0.150279 204 200 164
0.188658 0.383605 0.158170 213 210 187
0.201153 0.387148 0.161034 147 160 117
0.219609 0.388797 0.179058 216 221 173
0.207343 0.390833 0.159991 220 225 198
0.214872 0.377360 0.156186 231 230 194
0.203611 0.382785 0.146565 161 163 130
0.196016 0.372738 0.160102 159 169 120
0.216576 0.380995 0.165483 218 209 183
0.192190 0.392504 0.155197 204 209 172
0.199411 0.376697 0.169270 126 143 92
0.208212 0.371563 0.153037 236 238 200
-0.095801 0.358995 0.121986 255 255 227
-0.116724 0.353585 0.147131 255 255 228
-0.095724 0.362212 0.139749 255 255 225
-0.007698 0.365738 0.014702 254 241 196
-0.042146 0.367809 0.015953 253 247 199
-0.058738 0.367925 -0.006086 229 214 177
-0.023197 0.367799 -0.006481 235 216 178
0.172569 0.256887 0.192728 212 199 162
0.174276 0.229287 0.193408 126 132 87
0.186943 0.245368 0.198602 140 147 105
-0.034843 0.413439 0.450719 237 237 226
-0.058237 0.411330 0.449665 255 255 255
0.109292 0.239613 0.209175 255 252 248
0.095313 0.247226 0.208524 255 254 253
0.122053 0.234781 0.188210 254 255 254
0.103097 0.244029 0.188557 255 253 254
0.115456 0.233777 0.181624 252 255 253
0.097083 0.241535 0.176242 255 253 252
-0.089176 0.416113 0.452018 255 255 255
-0.080609 0.430623 0.446054 255 255 253
-0.096067 0.405293 0.453876 255 255 254
-0.132780 0.014059 -0.058317 255 248 247
0.269816 0.365577 0.231352 255 255 255
0.272107 0.381011 0.237914 255 255 254
0.267264 0.388427 0.242506 225 232 200
0.280793 0.373694 0.235668 254 254 255
0.261246 0.390793 0.235098 255 255 251
0.038266 0.286763 0.012553 94 64 53
0.152683 0.048272 -0.064705 149 175 137
0.154630 0.041631 -0.058140 56 109 45
0.304466 0.382960 0.085030 124 118 91
0.292285 0.397357 0.067805 164 160 114
0.223542 0.054186 0.153775 118 127 99
0.132535 0.393327 0.250452 251 251 250
0.144766 0.394751 0.247839 243 243 237
0.144427 0.391577 0.229972 227 226 213
0.394982 0.371080 0.105477 255 255 255
0.402873 0.372090 0.083805 255 255 253
0.227727 0.375991 -0.038531 149 134 108
0.225268 0.389027 -0.031223 134 128 103
0.237500 0.391073 -0.034640 121 113 89
0.064409 0.482441 0.398147 255 255 255
0.064829 0.470198 0.385337 255 255 255
0.033274 0.140318 0.112107 196 125 98
0.049500 0.476784 0.392229 255 255 255
0.193083 0.300962 0.198062 251 252 239
0.171469 0.317850 0.206177 223 229 185
0.174391 0.293800 0.200573 223 229 185
0.194553 0.288467 0.187245 223 230 199
0.190407 0.295061 0.177816 246 247 219
0.186297 0.278027 0.198118 230 236 188
0.192544 0.284121 0.196039 247 252 212
-0.185054 0.362202 0.210299 254 255 241
-0.186188 0.345618 0.199186 254 255 241
0.452810 0.123247 0.361650 111 112 116
0.450924 0.098467 0.340011 117 133 148
0.441177 0.114401 0.356288 123 136 153
0.434756 0.115385 0.351087 125 136 157
0.451401 0.096041 0.350358 119 134 148
0.438278 0.115709 0.338724 117 130 149
0.426625 0.126312 0.337015 116 127 142
0.199486 0.387869 0.002773 103 107 81
0.205596 0.387317 0.013396 103 110 80
0.198628 0.390873 0.024516 103 112 85
0.195151 0.390327 0.008073 107 116 91
0.190511 0.378734 -0.005379 83 95 72
-0.229344 0.277542 -0.053206 184 151 124
-0.247129 0.278101 -0.053000 177 146 113
-0.241666 0.264277 -0.050415 178 145 117
0.160349 0.325985 0.213263 251 254 223
0.163261 0.230339 0.140081 251 251 216
0.168907 0.231572 0.131044 255 255 215
0.183904 0.240820 0.134254 255 255 248
0.178851 0.242735 0.144571 254 255 215
0.183810 0.244638 0.155504 255 255 251
0.272316 -0.021112 -0.075397 206 172 154
0.370429 0.381703 0.215066 255 253 254
0.444779 0.340267 0.206221 227 232 198
0.444208 0.341463 0.227256 251 255 231
0.452915 0.324194 0.228244 138 144 106
0.443490 0.333518 0.239267 222 227 194
-0.037441 0.380287 0.220541 255 254 254
-0.040262 0.358718 0.244523 255 255 255
-0.017164 0.358582 0.229569 255 255 254
-0.029743 0.360927 0.231524 255 255 254
0.409891 0.358348 -0.049705 204 194 166
0.440939 0.335926 -0.061399 192 190 166
0.409399 0.342527 -0.053259 186 172 134
0.219551 0.305410 -0.045240 177 112 94
0.205976 0.286936 -0.051313 213 187 151
0.430286 0.343457 -0.054065 198 188 158
0.440429 0.029335 -0.080456 242 234 216
0.423341 0.003020 -0.060212 253 255 254
0.416451 0.026057 -0.056846 254 254 253
-0.155808 0.321982 0.435175 234 231 204
0.446749 0.376295 0.161545 252 252 246
0.441751 0.381632 0.174479 244 243 235
0.443792 0.367912 0.171853 254 255 243
0.436202 0.365227 0.152865 200 205 169
0.432608 0.362323 0.173077 255 255 255
0.418098 0.371390 0.146675 255 255 255
0.440305 0.361365 0.163351 183 190 146
0.418205 0.366343 0.172768 255 255 255
0.485272 0.068849 0.350977 113 128 149
0.464898 0.081922 0.343802 116 129 148
0.470078 0.082870 0.353275 118 130 148
0.415116 0.075526 -0.058503 255 250 231
0.298581 0.392389 0.094870 224 222 209
0.137515 0.018100 -0.069519 94 152 92
0.153549 0.009067 -0.058777 66 109 55
-0.172637 0.326918 0.299805 255 255 255
-0.172844 0.350288 0.270382 130 151 79
-0.148815 0.337091 0.276715 108 132 74
-0.170836 0.345865 0.283493 190 198 172
-0.165666 0.332169 0.297461 253 255 251
-0.156242 0.343318 0.288115 255 255 254
-0.147666 0.337659 0.303304 255 255 253
0.248574 0.389976 0.278237 255 255 254
0.227380 0.376890 0.293152 255 253 254
0.251801 0.392693 0.293250 239 243 215
0.243382 0.391044 0.300419 255 255 251
0.226680 0.376972 0.304474 255 255 255
-0.241916 0.088616 -0.047761 162 140 119
0.431038 0.347079 0.067700 255 255 254
0.425592 0.376796 0.054505 205 207 186
0.435775 0.368097 0.080599 158 164 122
0.423819 0.374990 0.073710 172 180 132
-0.217574 0.316396 -0.067345 182 147 112
-0.201617 0.311050 -0.064218 189 157 121
0.444819 0.355712 0.195267 155 163 110
0.442219 0.355403 0.216271 225 231 193
0.442979 0.339775 0.187204 211 215 186
0.448957 0.333172 0.209243 253 253 247
0.318684 0.350166 0.405649 255 255 255
0.257721 0.402781 0.128440 244 244 235
0.226746 0.412740 0.119072 226 225 189
0.229762 0.408218 0.135800 207 200 173
0.242655 0.404968 0.132202 244 243 236
-0.136742 0.327846 0.274867 148 164 130
-0.122906 0.335090 0.257185 128 148 94
0.215484 0.236155 -0.057777 246 144 127
0.213686 0.266634 -0.046955 251 152 135
0.208382 0.254629 -0.044940 248 149 130
0.225489 0.265116 -0.057740 249 148 129
0.053433 0.359913 0.104788 120 117 83
0.051947 0.359677 0.090725 130 115 88
0.044852 0.364780 0.084408 124 116 86
0.131560 -0.049389 0.356778 152 173 125
-0.096919 0.360964 0.055415 254 253 208
-0.108307 0.357992 0.027220 252 247 202
0.157962 0.402323 0.289221 244 245 239
0.184908 0.384106 0.299204 255 255 254
0.172852 0.382599 0.287382 255 254 254
0.156524 0.402631 0.277770 210 216 196
0.162691 0.381395 0.296187 255 254 253
0.479667 0.071004 0.340372 126 131 141
0.459001 0.351362 0.236435 161 168 125
0.446842 0.329394 0.256403 255 255 255
0.448663 0.324303 0.248425 185 191 146
0.455470 0.321299 0.264078 253 253 249
0.364262 0.268918 -0.046015 135 139 114
0.377998 0.268957 -0.050349 126 135 114
0.404237 0.296880 -0.051313 94 89 80
0.376120 0.300760 -0.049185 177 164 134
0.128649 -0.006197 0.269178 171 173 126
0.136628 0.003790 0.262901 177 197 111
0.117982 0.144939 0.130550 253 224 201
0.134697 0.149031 0.112846 246 212 152
0.134868 0.160643 0.123072 237 183 143
-0.063386 0.187976 -0.057217 233 172 146
-0.066457 0.185707 -0.052977 243 204 166
-0.061014 0.184981 -0.049047 242 241 238
0.029203 0.244667 0.248044 255 255 254
0.033494 0.259374 0.248676 255 255 254
0.054999 0.265175 0.243354 255 255 255
-0.013505 -0.009743 0.302731 103 143 46
0.302175 0.014834 -0.048376 254 255 254
0.306499 0.038322 -0.059988 255 255 255
0.294048 0.005420 -0.083544 254 249 230
0.287992 0.016682 -0.067064 247 238 212
0.285793 0.030554 -0.053267 254 254 253
0.291615 0.022881 -0.070231 253 246 231
0.282927 0.011357 -0.043939 255 254 254
0.283085 0.028400 -0.060529 232 225 200
-0.124889 0.335129 0.358107 255 255 254
-0.108767 0.348045 0.357587 255 255 253
-0.123942 0.339074 0.346089 255 255 255
-0.108509 0.358221 0.350145 255 255 255
-0.116372 0.351895 0.351389 255 255 255
0.197501 0.253936 -0.042890 251 150 136
0.071714 0.354880 0.377745 255 255 255
0.077411 0.346879 0.373574 255 255 255
0.057631 0.365554 0.377781 255 255 255
0.204714 0.197705 0.167255 251 255 207
0.201061 0.169779 0.179353 254 255 224
0.211702 0.178353 0.186385 172 138 98
0.204929 0.188878 0.170408 254 255 229
0.441306 0.342599 0.019492 255 253 222
0.433501 0.352600 0.015423 255 253 217
0.427129 0.357818 0.004136 254 251 201
-0.182571 0.425215 0.419043 255 255 255
0.206499 0.008407 0.255267 222 244 140
0.201952 -0.010479 0.259569 242 254 167
0.204664 -0.011738 0.270250 253 255 219
0.208752 0.010031 0.269172 247 255 190
-0.105735 0.234551 -0.025602 252 246 208
-0.025941 -0.013255 0.302707 97 131 47
0.308386 0.008348 -0.054394 255 255 255
0.307541 -0.024683 -0.073554 255 254 248
0.306264 0.018680 -0.068509 255 255 255
0.309043 -0.010701 -0.047199 255 255 255
0.023449 0.370034 0.256683 160 171 110
0.043340 0.366680 0.259656 160 171 131
0.029293 0.365015 0.267649 163 194 88
0.056982 0.387464 0.264241 170 173 143
0.082479 0.393045 0.282562 196 200 170
0.069639 0.393246 0.257606 172 174 145
0.072305 0.389830 0.245076 177 177 148
0.109823 -0.031590 0.246010 159 177 104
0.111957 -0.023200 0.254622 198 224 118
-0.146946 0.358323 -0.026285 234 225 190
-0.123122 0.360251 -0.029564 237 228 189
0.155841 0.354741 0.371651 255 255 251
0.177623 0.369074 0.351574 255 255 255
0.182502 0.363843 0.367046 255 255 255
0.060945 0.253186 0.085912 106 66 52
0.199506 -0.019980 0.181452 178 199 95
0.182921 -0.031718 0.200393 200 203 118
0.198096 -0.035440 0.199490 136 160 86
0.188366 -0.040001 0.187039 164 190 92
0.180879 -0.037382 0.187405 164 190 92
0.166570 -0.026743 0.212066 185 217 113
0.174853 -0.029402 0.202166 183 217 113
0.191982 -0.016770 0.200714 197 216 119
-0.241056 0.108768 -0.046927 90 75 65
-0.224084 0.106988 -0.049583 106 89 74
-0.251343 0.138241 -0.049836 185 150 122
-0.225428 0.136023 -0.050813 184 149 125
-0.184370 0.345632 0.105252 253 255 209
-0.201873 0.341104 0.104303 255 255 208
0.246682 0.306212 -0.039444 254 255 242
0.255689 0.331213 -0.050140 255 254 251
0.471969 0.313277 0.215114 255 255 255
0.223413 -0.001389 -0.008516 149 168 127
0.227204 -0.013369 -0.006338 171 167 155
0.219092 -0.006937 0.006021 122 160 107
0.024716 0.158348 0.136516 251 211 135
-0.072230 0.342112 0.431928 125 130 103
-0.080768 0.349073 0.421879 119 137 108
-0.057700 0.342501 0.424039 124 122 93
-0.084904 0.348174 0.432178 142 154 132
-0.045190 0.355200 0.412385 112 114 83
0.037522 0.367506 0.221072 254 255 250
0.036811 0.363970 0.214450 255 254 255
-0.101687 0.376572 0.159848 143 142 111
-0.106173 0.376918 0.171730 144 144 110
-0.082230 0.379984 0.177231 144 143 112
-0.152262 0.341260 0.412206 253 253 231
0.078467 0.468458 0.380042 255 255 255
0.096693 0.459487 0.374467 255 255 254
0.090364 0.474745 0.380146 255 255 255
0.145317 0.398210 0.365351 255 255 255
0.229654 0.392250 0.171445 231 227 202
0.333083 0.367017 0.378221 255 255 254
0.309643 0.347606 0.372298 255 255 255
0.322836 0.359698 0.383898 255 254 250
-0.015103 0.436034 0.446530 254 255 255
-0.022358 0.432899 0.443276 255 255 255
0.162037 -0.050851 -0.013668 156 196 86
0.160949 -0.036538 -0.025611 67 114 62
0.096066 0.078330 -0.068467 148 111 88
0.113890 0.080440 -0.064110 154 117 97
0.104203 0.072144 -0.070362 158 126 95
0.116995 0.073193 -0.046284 147 110 88
0.102134 0.075389 -0.046230 119 88 80
0.278175 0.343143 0.300474 255 255 254
-0.140212 0.326182 0.401835 255 255 253
-0.148426 0.320065 0.387900 255 255 255
-0.128914 0.320936 0.384094 255 255 250
-0.124252 0.328504 0.401487 255 255 254
0.106275 0.152591 -0.048665 129 85 82
0.081071 0.143174 -0.048678 118 76 73
0.085780 0.133140 -0.048568 198 161 126
0.068735 0.142843 -0.045170 121 79 78
0.017802 0.357212 0.382931 255 255 255
0.033187 0.371543 0.376854 255 255 255
0.038543 0.346925 0.380425 255 255 255
0.056731 0.349546 0.379642 255 255 255
-0.021632 0.350627 0.417403 188 194 177
-0.043026 0.343332 0.427500 236 237 234
0.291773 0.065680 -0.082956 249 248 242
0.300677 0.048331 -0.073913 253 253 250
0.302256 0.083076 -0.070448 251 251 248
0.307174 0.085107 -0.046130 255 255 251
0.306572 0.050501 -0.047936 255 255 254
0.308231 0.058945 -0.052550 228 220 207
0.309136 0.072821 -0.041311 161 147 125
0.469544 0.349643 0.215746 255 255 255
-0.125395 0.372476 0.192712 147 147 113
-0.132699 0.367226 0.205727 144 145 110
-0.212697 0.211487 -0.049439 183 148 121
0.475564 0.331333 -0.039109 190 203 193
0.485457 0.338053 -0.001063 164 179 171
0.005479 0.356115 0.298710 159 181 99
-0.005201 0.366828 0.293132 161 163 127
0.013874 0.362503 0.293464 174 179 143
0.004601 0.365069 0.287880 155 161 117
0.123465 0.129686 0.032457 252 250 173
0.131227 0.133649 0.051377 222 116 100
0.227781 0.051086 0.197911 139 155 107
0.235814 0.069812 0.202846 120 137 90
0.242177 0.063323 0.202397 253 255 217
0.224072 0.039116 0.181960 138 158 106
0.232404 0.040746 0.169596 189 188 145
0.245868 0.064657 0.213034 135 144 107
0.236153 0.041544 0.187544 255 254 207
0.235336 0.058959 0.193345 130 138 99
0.216094 0.056562 0.191301 98 118 55
0.232396 0.045613 0.188265 164 174 101
0.045507 0.139900 0.123800 239 195 136
0.036104 0.130606 0.089467 195 121 103
0.073285 0.123598 0.076843 247 205 146
0.050592 0.125007 0.078660 192 115 82
0.053172 0.132003 0.103783 250 205 132
0.064310 0.134203 0.112300 207 111 101
-0.011582 0.198838 -0.043829 146 84 78
-0.001015 0.178334 -0.044328 222 160 130
0.004432 0.187905 -0.022772 238 185 131
-0.006317 0.190957 -0.037253 198 109 97
0.007310 0.201007 -0.035241 250 211 161
0.002268 0.185861 -0.012387 252 232 170
0.183745 0.284214 0.171879 123 99 77
0.164299 -0.044764 0.055977 214 192 120
0.165970 -0.037878 0.068833 210 180 111
0.166415 -0.017003 0.058693 57 78 46
0.221235 0.407328 0.128258 144 130 109
0.200681 0.404848 0.130284 116 103 86
0.191404 0.411522 0.145603 111 116 81
0.195608 0.406645 0.146105 111 116 81
-0.015220 0.211034 -0.033932 194 128 96
-0.020982 0.235559 -0.036849 200 118 103
-0.017962 0.216504 -0.015345 250 214 164
-0.021625 0.224006 -0.040692 204 129 116
-0.030248 0.255465 -0.040742 212 146 116
-0.030917 0.227966 -0.042735 220 133 117
-0.017997 0.235264 -0.021259 252 230 176
-0.070014 0.356958 0.248363 248 248 245
-0.059831 0.354942 0.245904 255 255 255
-0.080005 0.352126 0.272943 255 255 255
-0.134632 0.358696 0.283719 252 255 235
-0.119946 0.356877 0.285769 254 255 250
-0.134613 0.348923 0.293529 255 255 250
-0.121111 0.341374 0.298714 253 255 237
0.364103 -0.038543 -0.048557 255 252 249
0.371732 -0.042763 -0.046572 247 245 245
0.388050 -0.028470 -0.050568 253 251 252
0.435607 0.341734 0.091550 255 255 255
-0.055279 0.304706 -0.048837 255 254 240
-0.083228 0.297527 -0.066251 84 69 57
-0.069156 0.307275 -0.062295 122 104 75
0.104710 0.124407 0.067393 228 131 110
0.137714 0.314216 0.215403 255 255 250
0.196050 0.174027 -0.055405 252 205 152
0.195276 0.155057 -0.047338 241 163 134
0.185275 0.173959 -0.055307 239 179 138
0.207961 0.141677 -0.054830 251 243 185
0.033310 0.374245 0.327666 252 252 249
0.018819 0.174426 0.048912 242 157 131
0.028896 0.182325 0.082087 254 190 146
0.479249 0.121765 0.328613 116 128 146
0.490145 0.108552 0.331417 113 127 144
0.452952 0.107787 0.328323 130 130 128
0.467739 0.094048 0.326410 131 131 130
0.488533 0.122010 0.307853 143 143 136
0.477610 0.099433 0.318521 145 145 138
-0.075754 0.365948 -0.056320 252 250 241
0.124043 -0.036994 0.379390 164 183 130
0.120652 -0.023781 0.376045 155 183 114
0.173475 0.210381 -0.047455 247 147 126
-0.134295 0.361026 0.221377 122 153 69
-0.122042 0.356904 0.232596 135 140 100
-0.118299 0.362172 0.213110 138 154 93
-0.116964 0.345896 0.242449 130 162 72
-0.149259 0.354966 0.240821 119 140 80
0.350951 0.364677 0.144618 251 252 247
-0.207791 0.348095 -0.000215 236 236 182
-0.186986 0.347478 0.010373 244 244 190
0.154568 0.402786 0.264137 170 184 145
0.155415 0.398002 0.249025 234 238 222
-0.104834 0.367688 0.448897 255 255 254
-0.124471 0.392972 0.444159 255 255 254
-0.114321 0.384885 0.454458 255 255 255
-0.064863 0.253089 -0.057300 79 69 57
-0.062369 0.239555 -0.052727 209 206 203
-0.065728 0.245316 -0.048495 240 213 157
-0.063194 0.264315 -0.047851 248 249 215
0.259961 0.384769 -0.044353 174 141 110
0.031757 0.277662 0.238411 255 255 253
0.483036 0.330493 0.018729 206 214 200
0.492962 0.346733 0.011461 187 198 185
0.476026 0.318609 0.045159 175 187 175
0.471294 0.319042 0.032159 241 245 232
0.330412 0.200556 -0.047287 144 127 109
0.364181 0.187395 -0.051401 135 121 103
0.315314 0.199613 -0.047357 149 130 114
0.320278 0.206756 -0.044600 142 125 109
0.072417 0.330861 0.197486 206 207 158
0.073962 0.328057 0.185649 208 210 172
-0.005088 0.383480 0.188264 145 146 116
0.012465 0.381594 0.196864 178 183 162
0.096741 0.120044 0.015947 250 246 188
0.090026 0.124353 -0.006421 249 244 164
0.155487 0.179244 0.190207 224 216 169
0.169568 0.185101 0.187855 244 254 211
0.172061 0.187668 0.192013 118 100 74
0.158744 0.195338 0.193367 191 167 125
-0.210500 0.087469 -0.050304 187 150 121
-0.208493 0.116505 -0.049944 186 147 121
0.354390 0.368016 -0.016161 193 181 135
0.362913 0.370485 -0.037367 66 66 55
0.341484 0.360120 -0.018052 157 143 116
0.315777 0.358359 0.321745 255 255 255
0.323439 0.362453 0.327038 255 255 254
0.337735 0.365937 0.334608 255 255 245
-0.174325 0.345162 0.170929 255 255 230
0.167183 -0.012027 0.102425 106 128 75
0.267450 -0.025783 0.246589 180 191 137
0.272645 -0.015024 0.269994 250 254 240
0.002857 0.148172 0.001036 255 247 180
0.019383 0.357241 0.352599 255 255 254
0.020730 0.361678 0.339610 255 254 251
0.008388 0.353928 0.341758 255 254 255
0.007005 0.347987 0.357101 255 254 255
0.000485 0.353435 0.349862 255 253 253
0.273086 0.117540 -0.075620 45 43 36
0.290882 0.109492 -0.075999 210 209 199
0.266406 0.097525 -0.080813 69 65 50
0.122173 0.145654 0.109172 241 149 130
0.133077 0.143654 0.087134 242 144 125
0.105685 0.130861 0.087483 245 128 114
0.359106 0.317405 -0.060687 74 73 60
0.345210 0.315084 -0.056506 89 83 64
-0.086214 0.028660 -0.060799 206 169 147
-0.085227 0.060520 -0.061327 191 155 130
0.310960 0.030493 -0.034169 254 255 255
0.290453 0.052188 -0.023167 253 252 245
0.292258 0.051487 -0.039863 254 254 251
0.455288 0.364342 0.151065 232 234 212
0.452308 0.367530 0.169756 200 206 160
0.460200 0.383248 0.141127 157 155 115
0.470782 0.352668 0.173631 254 254 255
0.446439 0.384426 0.168861 210 206 183
0.453272 0.380777 0.156628 169 159 121
0.466424 0.378805 0.174123 171 161 120
0.468722 0.376958 0.150185 173 164 122
0.182046 0.137311 -0.043856 209 250 148
-0.097025 0.192921 -0.047454 100 81 76
-0.121193 0.208428 -0.052741 123 95 86
-0.098473 0.188080 -0.053217 107 87 81
0.090467 0.180303 0.106245 221 148 110
0.081150 0.177153 0.092062 186 158 128
0.085540 0.199351 0.111300 88 79 47
-0.061919 0.231159 -0.026651 251 214 162
-0.053892 0.262687 -0.026317 232 167 124
-0.048120 0.245690 -0.035778 253 218 166
0.175901 0.109784 -0.080317 79 61 43
0.037768 0.370420 0.336484 255 255 252
0.038574 0.343678 0.375053 255 255 255
0.154929 -0.040419 -0.043800 70 115 62
0.159511 -0.023311 -0.037295 68 120 63
-0.139278 0.418357 0.437430 255 255 255
0.143074 -0.036592 0.192899 161 185 103
0.128865 0.295495 0.216223 254 255 247
0.112155 0.296195 0.224444 255 254 254
0.047247 -0.003305 -0.072258 226 192 162
0.051336 0.017183 -0.072543 212 176 147
0.481538 0.323475 0.056064 250 252 241
0.487475 0.332772 0.049535 209 214 201
0.492706 0.334351 0.098430 218 219 208
0.134458 0.073557 -0.046613 237 156 125
0.146092 0.069336 -0.042687 239 239 173
0.139480 0.081881 -0.039036 252 255 225
0.150000 0.080344 -0.036181 253 255 234
0.223129 -0.040592 -0.016346 205 181 136
0.213554 -0.059474 0.001635 224 202 148
0.223880 -0.037698 0.001181 234 211 159
0.357653 0.247734 -0.045191 114 107 93
0.338411 0.254555 -0.051829 210 211 186
0.121101 0.391295 0.234348 186 187 160
-0.066983 0.221599 -0.024390 228 188 138
0.100855 0.143907 -0.035757 130 84 76
0.076733 0.336184 0.217440 255 255 253
0.083112 0.350176 0.218617 255 255 254
0.094126 0.350210 0.227351 255 255 237
0.120694 0.337250 0.222669 249 246 211
0.091829 0.366511 0.229401 248 249 213
0.074979 0.142299 -0.040217 121 79 72
0.102266 0.149789 -0.043759 117 78 72
0.098656 0.323691 0.227839 253 255 234
0.466159 0.318444 0.145651 255 255 255
0.476283 0.317890 0.122785 255 255 255
0.480361 0.319897 0.129637 255 255 251
0.487109 0.326211 0.104583 240 241 226
0.345683 0.171097 -0.052638 142 126 107
0.333536 0.138841 -0.052159 143 127 108
0.149557 0.162123 0.151329 184 180 128
0.166759 0.178533 0.162034 253 249 195
0.153425 0.181773 0.175826 255 255 203
0.167777 0.175909 0.151121 221 218 177
0.157849 0.184681 0.146227 247 244 192
-0.181366 0.349512 0.045381 254 250 201
-0.171918 0.347429 0.076432 255 254 206
0.309615 -0.021860 -0.065486 255 255 255
0.315854 -0.020629 -0.044370 255 255 255
0.325687 -0.042218 -0.045310 255 255 255
-0.104966 0.364950 0.215163 148 148 115
0.245029 0.011312 0.137320 153 172 152
-0.250068 0.230539 -0.049805 181 146 119
-0.252060 0.248211 -0.049379 194 163 124
-0.224180 0.232169 -0.047918 186 152 118
0.328818 0.105678 -0.052484 163 147 123
0.356602 0.114401 -0.055350 167 150 129
0.347825 0.093853 -0.056866 188 171 152
0.319047 0.097851 -0.051028 162 144 125
0.319169 0.389942 0.360476 255 255 255
0.301091 0.392842 0.346039 255 254 255
0.301277 0.402352 0.358206 255 254 255
0.317684 0.390745 0.347260 255 254 255
0.289790 0.388181 0.348572 191 190 183
0.025989 0.094968 -0.059300 104 78 76
0.060643 0.087044 -0.062421 113 83 74
0.047167 0.086673 -0.044256 189 121 112
0.046484 0.093662 -0.063025 106 82 76
0.045015 0.088069 -0.069264 155 112 94
0.029563 0.091833 -0.066614 105 83 76
0.091443 0.118274 0.032776 255 255 230
0.089606 0.120125 0.056603 251 229 186
0.389634 0.267024 -0.051573 126 143 114
0.305623 0.396358 0.251694 255 255 255
0.290939 0.397562 0.247392 255 255 255
0.300716 0.400686 0.246507 255 255 255
0.153853 -0.037987 0.241554 243 255 171
0.141426 -0.043449 0.247447 255 254 228
0.159737 -0.020992 0.251123 237 203 149
0.145337 -0.022357 0.257294 253 255 226
0.154030 -0.032213 0.264963 192 221 119
0.139398 -0.048724 0.269698 255 254 228
0.166819 0.011570 0.216729 177 177 125
0.152185 -0.005005 0.238411 243 247 222
0.160327 0.006735 0.236075 129 108 81
0.153295 -0.003349 0.249740 242 243 202
0.158861 -0.007379 0.250982 185 134 108
0.342300 0.356324 0.112026 236 239 212
0.313892 0.365398 0.107846 223 221 211
0.335649 0.351090 0.098431 155 168 111
0.318516 0.361567 0.086159 122 122 96
0.327743 0.353495 0.087610 124 118 94
0.344432 0.355541 0.087259 189 187 168
0.284310 0.105747 -0.077420 190 184 161
0.271687 0.100605 -0.075791 89 87 77
0.274245 0.095662 -0.057516 167 157 129
0.284324 0.115365 -0.061031 187 180 141
0.279373 0.119118 -0.067006 167 159 123
0.276127 0.125401 -0.060649 29 33 35
0.287294 0.116173 -0.056343 129 130 106
0.285719 0.115421 -0.073999 133 132 130
0.166216 0.047640 -0.030881 133 175 91
0.160682 0.023450 -0.044609 64 111 52
0.165331 0.014641 -0.030180 66 116 52
0.162391 0.037220 -0.041613 74 124 58
0.168054 0.033335 -0.017119 63 112 49
-0.092822 0.364820 0.210423 149 147 118
-0.091971 0.375703 0.189280 148 146 118
-0.082583 0.369360 0.206823 147 147 117
-0.061027 0.378888 0.205303 146 147 117
0.352130 0.380685 0.319606 241 244 213
0.365423 0.381239 0.308304 255 255 250
0.169716 -0.050663 0.047452 150 168 84
0.170671 -0.026913 0.035703 69 108 55
0.173347 -0.052883 0.029804 69 110 54
0.136773 0.334777 0.217623 255 255 234
0.282232 0.323060 0.439305 255 255 255
-0.227522 0.355095 0.167150 252 255 220
-0.240783 0.360138 0.151332 254 254 217
-0.235690 0.356732 0.154893 252 255 220
0.350708 0.361386 0.098359 252 253 244
0.360530 0.372236 0.108206 255 255 254
-0.224772 0.050594 -0.052419 170 144 123
-0.156621 0.039749 -0.057808 254 247 226
-0.166423 0.065540 -0.054940 210 181 153
0.438674 0.330031 0.273679 255 255 255
0.359264 0.376079 0.274854 255 254 253
0.352369 0.377355 0.289634 253 252 234
0.373366 0.378179 0.287641 255 253 253
-0.057449 0.319485 -0.052707 221 217 202
-0.067576 0.337534 -0.059853 167 156 119
-0.061031 0.359871 -0.046375 252 251 251
-0.082284 0.358425 -0.065287 151 138 99
-0.065036 0.360513 -0.053562 152 138 100
-0.069761 0.131408 -0.058079 150 116 95
-0.069443 0.102056 -0.060197 135 103 87
-0.090339 0.124883 -0.057165 141 108 92
-0.138695 0.350075 0.147577 255 255 228
-0.136396 0.351215 0.162427 255 255 232
-0.118875 0.371955 0.156140 255 255 240
0.084067 0.290071 0.158679 165 160 145
-0.111717 0.356478 0.150845 255 255 229
-0.138046 0.373824 0.166545 141 140 110
0.078128 0.280765 0.170408 255 254 255
0.081591 0.297814 0.174724 233 229 228
0.076688 0.266933 0.175292 249 239 234
-0.109048 0.185265 -0.054338 166 132 109
0.426695 0.057469 -0.065598 255 255 246
0.436173 0.051723 -0.080362 255 253 249
0.416508 0.042912 -0.056281 255 255 252
0.430973 0.047626 -0.072425 254 255 251
0.438473 0.081297 -0.084227 255 255 251
0.388832 -0.086500 -0.033535 255 255 254
0.395534 -0.088590 -0.037378 255 255 254
0.421542 -0.070319 -0.068538 254 254 254
0.220030 0.386046 0.267464 255 255 255
0.204438 0.387213 0.256573 255 254 251
0.209213 0.385946 0.279337 255 255 255
0.192986 0.382595 0.264050 255 255 254
0.194766 0.398947 0.247418 255 255 255
-0.020679 0.385155 0.091096 140 131 107
0.055213 0.382462 0.240277 134 141 106
0.053506 0.372342 0.215613 255 255 255
0.028548 0.379998 0.228373 227 229 216
0.042535 0.377148 0.236570 156 168 126
0.043869 0.382209 0.223771 156 168 126
-0.079864 0.380262 0.159533 145 143 114
-0.048657 0.380445 0.179587 145 142 115
-0.053229 0.382002 0.153547 144 139 112
0.264324 -0.030454 0.281131 247 250 247
-0.185181 0.180185 -0.052506 182 144 120
-0.189626 0.218670 -0.047968 181 148 117
0.421543 0.126930 -0.062967 229 212 180
0.401555 0.086273 -0.060012 177 162 147
0.409774 0.099652 -0.055567 180 163 147
0.416092 0.107046 -0.057326 159 139 122
0.408402 0.129175 -0.057263 150 132 113
0.196975 0.388903 0.091749 134 132 104
0.199584 0.388326 0.113011 134 133 104
0.029804 0.404679 0.448451 254 255 255
0.033315 0.414244 0.441856 254 255 255
-0.107796 0.373519 0.192979 146 146 113
-0.115644 0.373029 0.182332 143 146 113
0.012278 0.336360 0.368082 255 255 246
-0.010937 0.345325 0.358163 255 255 254
0.154666 -0.045805 0.147226 133 162 79
0.164250 -0.049838 0.131831 128 160 85
0.066313 0.108113 -0.040028 255 253 223
0.083449 0.076178 -0.046848 240 190 150
0.161733 0.176972 0.177922 246 244 238
0.137988 0.180613 0.199213 219 218 153
0.233047 0.392496 0.063806 252 250 246
0.244594 0.390883 0.063225 255 255 214
0.248951 0.388156 0.077057 255 255 241
0.236074 0.391952 0.083369 254 255 248
0.068464 0.345508 0.155588 81 73 45
0.064804 0.360986 0.141730 86 84 53
0.065752 0.355607 0.173128 83 79 47
0.071953 0.339206 0.170093 86 75 48
0.022706 0.129793 0.049531 214 181 117
-0.209175 0.354383 -0.053854 207 201 158
-0.205231 0.334601 -0.070658 171 150 123
0.148351 -0.021836 0.149406 137 166 83
0.147985 -0.009979 0.163711 153 177 91
0.144044 -0.029962 0.154426 141 173 86
-0.182284 0.347902 -0.068878 198 192 164
0.161042 -0.043512 0.163606 207 236 151
0.141848 -0.023715 0.171597 140 168 79
0.163449 -0.037004 0.173507 239 255 195
0.059633 0.156323 0.016234 213 113 96
0.070215 0.157232 0.028567 218 184 121
0.073837 0.160541 0.034082 254 223 152
0.050039 0.161198 0.044744 250 224 145
0.428994 0.095270 -0.068279 253 248 229
0.424353 0.071287 -0.063622 255 255 246
0.296158 0.390841 0.040564 120 115 88
0.296720 0.357786 0.296398 255 255 254
0.287330 0.379623 0.274090 255 255 254
0.311322 0.355306 0.297985 255 255 255
0.292260 0.354422 0.315587 255 255 253
0.289505 0.382031 0.290441 255 255 255
0.298417 0.392026 0.294337 255 255 255
0.287614 0.396745 0.270753 255 255 255
0.283424 0.397218 0.252239 255 254 254
0.256129 0.029133 -0.078894 246 227 165
0.267018 0.031219 -0.074602 252 237 174
0.247118 0.019214 -0.077954 244 224 160
0.211775 -0.000010 0.173942 162 183 111
-0.082272 0.219049 -0.056615 153 127 99
-0.084407 0.220929 -0.047284 255 251 213
-0.094558 0.232952 -0.050281 254 231 175
-0.082323 0.206860 -0.053505 159 153 121
-0.215986 0.343163 0.316593 254 254 248
-0.211871 0.340425 0.333796 250 251 245
-0.232146 0.351143 0.325733 134 159 74
-0.223081 0.356301 0.315121 137 146 98
-0.079139 0.364183 0.000977 233 217 178
-0.060798 0.367690 -0.019312 222 206 168
0.235897 0.255594 -0.061124 246 180 135
0.245459 0.245981 -0.062229 255 226 169
-0.095543 0.315045 -0.036417 255 255 252
-0.162710 0.350381 0.051088 252 246 197
0.445179 0.339476 -0.013611 253 244 203
0.437416 0.341408 -0.041208 245 237 195
0.468338 0.324386 -0.023087 232 240 220
0.453790 0.332646 -0.030786 250 250 213
0.464825 0.324700 -0.035686 224 232 207
-0.190711 0.115851 -0.053094 184 147 118
-0.184077 0.355757 -0.032490 233 231 186
0.402617 0.383913 -0.022082 208 204 161
0.394257 0.380111 -0.039015 86 84 65
0.406516 0.366719 -0.024525 178 166 128
0.400579 0.363109 -0.039273 197 191 151
0.381304 0.380296 -0.032629 222 219 164
0.349719 0.364633 0.172889 255 254 254
-0.060700 0.336194 0.365633 255 255 255
-0.077695 0.330977 0.379728 255 255 255
-0.059945 0.333500 0.381298 255 255 255
-0.071661 0.334595 0.387970 255 255 255
-0.056378 0.343215 0.387381 255 255 255
0.166617 0.015491 0.171345 221 207 156
0.161059 0.006352 0.172288 168 160 116
0.166687 0.013035 0.154965 78 105 54
0.148672 -0.002034 0.172370 168 180 108
0.152319 -0.000620 0.159663 139 138 102
0.006957 0.364499 0.043900 255 254 210
0.006951 0.367224 0.060765 255 255 218
0.155494 0.145997 0.028092 236 235 205
0.161962 0.166925 0.032442 247 243 219
0.168430 0.185426 0.020596 239 172 147
0.168604 0.175235 0.043288 255 252 237
0.011287 0.160009 -0.044027 251 243 206
-0.000515 0.123556 -0.034436 242 240 204
0.040475 0.132131 -0.016521 182 98 81
0.482027 0.360239 0.043804 136 132 101
0.478500 0.360475 0.026163 131 125 98
0.469089 0.363257 0.029636 224 223 216
0.468810 0.372696 0.024854 252 251 251
0.458777 0.374649 0.031421 248 247 244
0.462003 0.373307 0.040738 240 239 235
0.473157 0.356260 0.040445 255 255 255
0.485194 0.354084 0.056887 255 255 255
0.203045 0.377022 0.343582 255 255 255
0.188768 0.369100 0.371677 255 255 255
0.205587 0.383579 0.369423 255 255 255
-0.199274 0.249853 -0.048370 189 152 122
-0.204511 0.217681 -0.049688 182 145 121
-0.179209 0.237919 -0.048853 187 154 121
-0.169850 0.257105 -0.048350 195 159 122
0.196060 0.215653 0.104879 255 253 204
0.186456 0.188666 0.120449 250 250 205
0.233287 0.021469 -0.074453 254 236 172
-0.048232 0.406171 0.452940 254 255 252
-0.180656 0.372781 0.351766 220 227 215
-0.190977 0.363983 0.366401 194 199 184
-0.180478 0.371818 0.342319 255 255 252
-0.205310 0.364612 0.358065 223 234 222
-0.201382 0.357847 0.353128 255 255 255
-0.192441 0.370753 0.349854 232 246 237
-0.203287 0.360804 0.343188 255 255 255
-0.109232 0.369080 0.428810 224 232 224
-0.077817 0.356840 0.411507 119 137 107
-0.101920 0.364137 0.416179 172 186 169
-0.091782 0.355530 0.417809 158 170 152
0.345006 0.364038 0.008991 244 233 187
0.356561 0.369091 -0.001581 244 241 191
-0.089280 0.272698 -0.018182 255 254 255
-0.092836 0.264656 -0.041091 255 254 249
-0.090069 0.288379 -0.040159 255 254 254
-0.066882 0.279863 -0.043634 255 254 251
0.216080 0.394357 -0.022488 112 105 86
0.231630 0.398970 -0.021792 112 104 87
0.213543 0.387827 -0.035115 124 114 92
0.194582 0.380678 -0.016421 84 96 71
0.204524 0.382879 -0.025649 104 102 80
0.187397 0.379474 -0.036660 100 94 72
0.210278 0.387231 -0.012619 87 96 72
0.064877 0.291208 0.213824 255 255 255
0.053181 0.276875 0.196367 254 254 254
0.066318 0.281821 0.185847 255 255 255
0.429032 0.369494 0.054039 255 255 242
0.422552 0.365038 0.024407 255 253 219
0.421832 0.377859 0.028076 255 255 223
-0.181389 0.413141 0.401703 255 255 255
-0.181470 0.392876 0.425750 255 255 255
-0.178218 0.376422 0.404140 254 255 255
0.073925 0.178492 0.118940 220 122 109
0.069736 0.176645 0.096415 240 221 151
0.073367 0.192573 0.096819 129 109 94
0.077245 0.172908 0.084744 240 187 123
0.050627 0.182571 0.106646 217 116 106
0.071307 0.348774 0.217705 255 255 255
0.060046 0.184429 -0.002884 116 100 71
0.064924 0.173168 0.005787 114 97 70
0.326345 0.367592 0.195207 254 254 254
0.311274 0.361551 0.189633 255 255 255
0.321896 0.367901 0.208277 255 255 255
0.338199 0.363883 0.197988 255 254 254
0.342034 0.368175 0.208155 241 245 217
0.050856 0.143979 -0.038836 146 124 98
0.076860 0.161297 -0.028001 85 68 49
0.051729 0.159058 -0.023524 254 254 197
0.040922 0.168074 -0.034074 250 207 131
0.157634 0.153835 0.049121 207 135 96
0.170348 0.170418 0.064737 253 225 171
0.167595 0.177345 0.082462 216 118 104
0.166050 0.169794 0.071157 250 210 154
0.149755 0.146945 0.081428 225 123 101
0.158287 0.170109 0.081198 245 164 138
0.151708 0.277346 0.201753 255 254 255
0.137778 0.258464 0.208672 255 254 255
-0.177203 0.415810 0.395236 255 255 255
-0.041937 0.161012 -0.057917 57 52 48
-0.022181 0.155744 -0.058056 49 46 41
-0.042551 0.175318 -0.057348 53 50 46
-0.035710 0.173548 -0.052589 249 248 230
-0.051090 0.190168 -0.049669 197 196 181
0.218181 0.182054 0.187156 194 196 166
-0.212794 0.360179 0.258303 187 191 174
-0.221698 0.356427 0.246621 139 142 110
-0.226115 0.358096 0.264250 219 227 214
0.070295 0.286165 0.103402 108 93 64
0.066167 0.278069 0.096502 116 86 67
0.065284 0.295587 0.087869 116 86 67
0.077118 0.256763 0.114531 107 93 64
0.090471 0.250713 0.142503 131 117 88
-0.174831 0.208682 -0.050021 180 145 116
0.470037 0.360502 0.084563 253 253 253
0.451497 0.381106 0.086594 202 195 168
0.468139 0.361191 0.057333 240 239 235
0.460358 0.367172 0.046443 240 239 236
0.478049 0.364588 0.060846 141 134 103
0.469656 0.374145 0.077368 144 135 103
0.455798 0.375240 0.065716 241 240 236
0.463910 0.375152 0.049957 141 136 106
0.447400 0.376677 0.085602 255 254 254
0.457486 0.380151 0.074355 146 137 104
-0.182991 0.355129 -0.055664 213 205 166
0.009774 0.184769 0.144272 227 176 122
0.007388 0.211520 0.135193 222 142 126
-0.002175 0.213516 0.121912 226 167 121
0.000029 0.187261 0.119587 255 232 177
0.006672 0.189711 0.137140 252 235 176
-0.004909 0.199113 0.123087 248 174 136
0.008623 0.200100 0.142309 112 76 66
0.425959 0.200123 -0.078269 132 113 98
0.421657 0.218844 -0.068536 144 127 96
-0.065570 0.357158 0.260316 255 255 255
0.129816 0.102303 -0.039954 240 220 169
-0.196253 0.352847 0.335053 255 255 252
0.089647 0.179037 0.125473 249 249 198
0.097245 0.184322 0.149156 252 250 208
0.098113 0.184008 0.121659 82 69 41
0.100752 0.189175 0.142262 143 158 79
0.070971 0.377459 0.374357 255 254 254
0.276100 0.401611 0.221922 252 253 238
0.260697 0.401885 0.210042 241 243 216
0.287888 0.398038 0.232516 255 255 252
0.272788 0.394985 0.238764 205 213 169
0.305017 0.373237 0.002817 104 101 77
0.292217 0.390615 -0.003584 99 93 71
0.451104 0.154413 0.316151 132 132 131
0.457871 0.127247 0.317533 148 146 137
0.441294 0.127114 0.326730 138 138 140
0.443948 0.144995 0.318862 146 146 145
0.459763 0.146678 0.319865 128 126 132
0.431504 0.156347 0.336394 108 112 123
0.453941 0.144384 0.330603 115 128 147
0.440912 0.153330 0.332708 105 112 126
0.197843 0.284165 -0.042333 171 153 120
0.197156 0.297320 -0.033029 89 95 69
0.192618 0.308390 -0.039327 90 85 63
0.253022 -0.012309 0.234632 255 255 246
0.243080 -0.007219 0.215227 255 254 215
0.251945 -0.007338 0.216540 183 194 128
0.247432 -0.018320 0.235490 170 177 148
0.259928 -0.025844 0.223224 151 159 109
0.145608 0.161987 0.104284 251 219 159
0.158210 0.174884 0.099004 243 224 173
0.161105 0.185700 0.107833 226 207 157
0.166711 0.156627 0.116073 208 150 120
0.164815 0.164954 0.116285 200 159 123
0.167179 0.177660 0.091542 213 164 130
0.168148 0.184948 0.098572 213 164 130
0.180692 0.100322 -0.073502 143 122 83
0.163874 0.090613 -0.065707 151 166 101
0.171947 0.106108 -0.071775 139 155 96
0.187744 0.089078 -0.049231 171 196 97
0.167218 0.083882 -0.045743 162 168 99
0.174820 0.094862 -0.053086 132 97 72
0.188741 0.096441 -0.067937 203 190 119
0.256061 0.395547 -0.035670 107 106 82
0.248198 0.401107 -0.021398 102 107 84
0.273113 0.345014 0.328689 255 255 255
-0.054014 0.362516 0.106414 255 255 224
-0.041605 0.384411 0.103067 187 187 143
0.145218 0.174234 -0.034629 213 137 118
0.123891 0.159024 -0.040708 190 131 112
-0.003398 0.364045 -0.020671 104 85 68
-0.006513 0.349863 -0.027522 119 100 80
-0.013176 0.361001 -0.012574 252 206 163
0.010872 0.356731 -0.010528 106 86 69
-0.207141 0.344608 0.211262 254 255 228
-0.230011 0.355702 0.193595 253 255 225
-0.237459 0.359822 0.207497 253 255 229
0.065907 0.080975 -0.049804 118 87 77
0.089422 0.080969 -0.063511 122 94 82
0.072380 0.083752 -0.066732 202 153 131
0.083598 0.073929 -0.071521 200 152 119
0.037844 0.264579 0.211039 255 255 255
0.038280 0.247442 0.248345 255 255 255
0.045820 0.245631 0.230385 255 255 255
0.036498 0.246920 0.233041 255 255 255
0.057338 0.250298 0.217606 255 255 255
0.037452 0.266512 0.222543 255 255 255
-0.176409 0.323890 -0.068828 184 152 123
-0.158708 0.316621 -0.068280 186 150 121
-0.176933 0.342441 -0.071805 237 236 212
-0.154915 0.336355 -0.074284 173 150 119
0.047541 0.263806 0.050083 111 67 58
0.052210 0.239356 0.062514 113 69 60
0.050600 0.275636 0.063525 112 69 58
0.055469 0.252946 0.074749 113 75 60
0.031456 0.163122 0.023797 254 164 145
0.032481 0.164071 0.042123 218 107 98
0.034229 0.168355 0.057344 217 117 99
0.232530 0.036081 0.192072 248 246 194
0.237521 0.029548 0.179318 237 226 177
0.216545 0.035392 0.182778 99 120 57
0.243592 0.022292 0.185309 253 245 198
0.217196 0.021798 0.199695 144 171 90
0.219175 0.002848 0.191490 136 160 82
