ply
format ascii 1.0
element vertex 1227
property float x
property float y
property float z
property uchar red
property uchar green
property uchar blue
end_header
-0.369087 0.242962 -0.024702 255 0 255
-0.365893 0.260206 -0.251787 255 0 255
-0.356554 0.266916 -0.224787 255 0 255
-0.370892 0.275361 -0.069663 255 0 255
-0.393691 0.266213 -0.074787 255 0 255
-0.325699 0.298887 -0.170787 255 0 255
-0.375749 0.232959 -0.176787 255 0 255
-0.383073 0.254683 -0.088810 255 0 255
-0.341230 0.264852 -0.215787 255 0 255
-0.316698 0.267811 -0.146787 255 0 255
-0.351302 0.246413 -0.269787 255 0 255
-0.320960 0.289201 -0.149787 255 0 255
-0.346232 0.252207 -0.200787 255 0 255
-0.372018 0.216834 -0.281787 255 0 255
-0.338351 0.259675 -0.120669 255 0 255
-0.346714 0.254156 -0.020787 255 0 255
-0.349521 0.282090 -0.218787 255 0 255
-0.341327 0.292764 -0.182787 255 0 255
-0.323444 0.261339 -0.280255 255 0 255
-0.387972 0.252278 -0.185787 255 0 255
-0.329914 0.274000 -0.176787 255 0 255
-0.394015 0.271574 -0.088411 255 0 255
-0.353794 0.286181 -0.227787 255 0 255
-0.364138 0.251364 -0.206787 255 0 255
-0.358889 0.254364 -0.116385 255 0 255
-0.365723 0.272317 -0.061052 255 0 255
-0.359148 0.268443 -0.095787 255 0 255
-0.363627 0.243228 -0.185787 255 0 255
-0.344782 0.284224 -0.236787 255 0 255
-0.427933 0.274144 -0.272787 255 0 255
-0.307155 0.283081 -0.281844 255 0 255
-0.369979 0.235538 -0.185787 255 0 255
-0.344623 0.278582 -0.047787 255 0 255
-0.370754 0.257866 -0.068787 255 0 255
-0.358570 0.278549 -0.115019 255 0 255
-0.339734 0.277899 -0.191787 255 0 255
-0.339751 0.277909 -0.137787 255 0 255
-0.366215 0.247839 -0.122787 255 0 255
-0.360159 0.255112 -0.020787 255 0 255
-0.352480 0.288888 -0.115309 255 0 255
-0.360836 0.304256 -0.263566 255 0 255
-0.369951 0.235584 -0.143787 255 0 255
-0.411020 0.257218 -0.104787 255 0 255
-0.370574 0.299546 -0.190243 255 0 255
-0.385393 0.269976 -0.089787 255 0 255
-0.327852 0.260454 -0.191787 255 0 255
-0.366325 0.283117 -0.136155 255 0 255
-0.357017 0.275274 -0.035787 255 0 255
-0.364201 0.274901 0.013137 255 0 255
-0.368130 0.315516 -0.274254 255 0 255
-0.336630 0.262144 -0.200787 255 0 255
-0.356404 0.299958 -0.176787 255 0 255
-0.352511 0.268016 -0.128787 255 0 255
-0.329353 0.271784 -0.152787 255 0 255
-0.366325 0.283117 -0.202341 255 0 255
-0.403605 0.278936 -0.098787 255 0 255
-0.427753 0.249664 -0.230787 255 0 255
-0.333030 0.310086 -0.284787 255 0 255
-0.332708 0.275165 -0.059787 255 0 255
-0.374727 0.268853 -0.026787 255 0 255
-0.346782 0.275087 -0.098787 255 0 255
-0.393413 0.260773 -0.082093 255 0 255
-0.422463 0.267440 -0.098787 255 0 255
-0.370352 0.234903 -0.041787 255 0 255
-0.353719 0.251319 -0.013348 255 0 255
-0.347083 0.298050 -0.179787 255 0 255
-0.366963 0.282034 -0.119787 255 0 255
-0.373020 0.262688 -0.098787 255 0 255
-0.358559 0.309878 -0.149787 255 0 255
-0.365744 0.293220 -0.260787 255 0 255
-0.375297 0.246621 -0.113787 255 0 255
-0.374575 0.251377 -0.002787 255 0 255
-0.368591 0.308824 -0.148727 255 0 255
-0.428284 0.246497 -0.239787 255 0 255
-0.334634 0.283719 -0.146787 255 0 255
-0.378474 0.292046 -0.263787 255 0 255
-0.357225 0.239457 -0.166342 255 0 255
-0.345448 0.283093 -0.194787 255 0 255
-0.359793 0.279269 -0.005787 255 0 255
-0.376521 0.303049 -0.266787 255 0 255
-0.356865 0.228246 -0.179787 255 0 255
-0.356588 0.252361 -0.224787 255 0 255
-0.347657 0.273432 -0.002787 255 0 255
-0.350200 0.269115 -0.062787 255 0 255
-0.345948 0.281559 -0.086787 255 0 255
-0.362889 0.271218 0.003213 255 0 255
-0.388101 0.240236 -0.274138 255 0 255
-0.346948 0.247330 -0.251787 255 0 255
-0.324223 0.230463 -0.275692 255 0 255
-0.322850 0.285992 -0.182787 255 0 255
-0.382880 0.243190 -0.140787 255 0 255
-0.324789 0.300431 -0.283076 255 0 255
-0.366644 0.258932 -0.109895 255 0 255
-0.348810 0.265836 -0.014787 255 0 255
-0.397812 0.265126 -0.050787 255 0 255
-0.391430 0.270051 -0.043693 255 0 255
-0.373346 0.229820 0.003213 255 0 255
-0.351275 0.267289 -0.052261 255 0 255
-0.345964 0.246751 -0.113406 255 0 255
-0.310661 0.271219 -0.282953 255 0 255
-0.345964 0.246751 -0.025840 255 0 255
-0.440718 0.236412 -0.263787 255 0 255
-0.440699 0.236400 -0.206787 255 0 255
-0.367727 0.251182 -0.089787 255 0 255
-0.405708 0.261052 -0.095787 255 0 255
-0.363019 0.288728 -0.125787 255 0 255
-0.345835 0.258792 -0.260787 255 0 255
-0.341692 0.319025 -0.284787 255 0 255
-0.385800 0.273698 -0.114953 255 0 255
-0.377267 0.300007 -0.150954 255 0 255
-0.360270 0.234287 -0.262552 255 0 255
-0.347912 0.267088 -0.080787 255 0 255
-0.326284 0.290867 -0.140787 255 0 255
-0.361934 0.249195 -0.247841 255 0 255
-0.383105 0.233810 -0.269787 255 0 255
-0.371761 0.234093 -0.023787 255 0 255
-0.427768 0.249738 -0.251787 255 0 255
-0.378340 0.234485 -0.164787 255 0 255
-0.332661 0.233871 -0.269787 255 0 255
-0.348946 0.265333 -0.092787 255 0 255
-0.341050 0.243273 -0.005787 255 0 255
-0.395841 0.250741 -0.266787 255 0 255
-0.335718 0.270057 -0.098787 255 0 255
-0.332056 0.276858 -0.068787 255 0 255
-0.322386 0.292053 -0.266787 255 0 255
-0.380736 0.267233 -0.017787 255 0 255
-0.348408 0.230781 -0.263822 255 0 255
-0.363326 0.229099 -0.158787 255 0 255
-0.367104 0.252240 -0.193681 255 0 255
-0.386260 0.267005 -0.120823 255 0 255
-0.334611 0.283758 -0.065787 255 0 255
-0.377512 0.270036 0.000213 255 0 255
-0.428397 0.266403 -0.206787 255 0 255
-0.389748 0.261086 -0.068787 255 0 255
-0.427336 0.256382 -0.117313 255 0 255
-0.355384 0.266226 -0.007223 255 0 255
-0.376781 0.241721 -0.146787 255 0 255
-0.328877 0.240167 -0.176787 255 0 255
-0.351099 0.308965 -0.143977 255 0 255
-0.338893 0.264667 -0.092787 255 0 255
-0.335678 0.270125 -0.047787 255 0 255
-0.346959 0.239152 -0.044787 255 0 255
-0.351133 0.249795 -0.122787 255 0 255
-0.348292 0.310794 -0.269787 255 0 255
-0.316805 0.292247 -0.272787 255 0 255
-0.353961 0.244998 -0.005787 255 0 255
-0.426925 0.256141 -0.266787 255 0 255
-0.345725 0.312176 -0.158787 255 0 255
-0.383038 0.313852 -0.280777 255 0 255
-0.358287 0.243565 -0.048818 255 0 255
-0.351880 0.274608 -0.026787 255 0 255
-0.360694 0.286764 -0.207195 255 0 255
-0.336375 0.233476 -0.161787 255 0 255
-0.351526 0.253509 -0.209787 255 0 255
-0.329270 0.261289 -0.068787 255 0 255
-0.427548 0.235618 -0.242787 255 0 255
-0.350497 0.298165 -0.192799 255 0 255
-0.366644 0.258932 -0.052060 255 0 255
-0.326710 0.270227 -0.077787 255 0 255
-0.341078 0.278690 -0.121872 255 0 255
-0.322306 0.269183 -0.260787 255 0 255
-0.320321 0.262982 -0.140787 255 0 255
-0.361916 0.255136 -0.008787 255 0 255
-0.322842 0.250540 -0.182216 255 0 255
-0.371722 0.273953 -0.113787 255 0 255
-0.344737 0.290212 -0.191787 255 0 255
-0.439863 0.235114 -0.113787 255 0 255
-0.348410 0.262118 -0.119787 255 0 255
-0.344759 0.263450 -0.137787 255 0 255
-0.359491 0.265164 -0.217332 255 0 255
-0.330137 0.261800 -0.166319 255 0 255
-0.346850 0.292535 -0.142176 255 0 255
-0.361985 0.231376 0.009213 255 0 255
-0.387854 0.276121 -0.095787 255 0 255
-0.351930 0.248447 -0.188787 255 0 255
-0.379157 0.243599 -0.176787 255 0 255
-0.355681 0.271631 -0.212787 255 0 255
-0.359031 0.271857 -0.019561 255 0 255
-0.366716 0.238084 -0.272787 255 0 255
-0.348833 0.283258 -0.136017 255 0 255
-0.341680 0.289490 -0.133883 255 0 255
-0.318416 0.275786 -0.144923 255 0 255
-0.366536 0.253204 -0.104787 255 0 255
-0.351689 0.290231 -0.263787 255 0 255
-0.351888 0.298985 -0.152787 255 0 255
-0.369864 0.259376 -0.026787 255 0 255
-0.372198 0.284966 -0.197787 255 0 255
-0.354923 0.272919 -0.238285 255 0 255
-0.336994 0.273801 -0.245787 255 0 255
-0.363457 0.246609 -0.040034 255 0 255
-0.322523 0.274725 -0.280254 255 0 255
-0.362996 0.253302 0.001708 255 0 255
-0.353400 0.275504 -0.130285 255 0 255
-0.332863 0.280815 -0.181343 255 0 255
-0.385058 0.274957 -0.083787 255 0 255
-0.408335 0.270907 -0.095787 255 0 255
-0.366536 0.279759 -0.239787 255 0 255
-0.373057 0.262709 -0.212787 255 0 255
-0.361382 0.294132 -0.113787 255 0 255
-0.439171 0.238982 -0.233787 255 0 255
-0.337779 0.304602 -0.173787 255 0 255
-0.334993 0.259465 -0.149787 255 0 255
-0.353400 0.275504 -0.247263 255 0 255
-0.429319 0.247105 -0.117728 255 0 255
-0.402671 0.250966 -0.272787 255 0 255
-0.369222 0.239560 -0.152787 255 0 255
-0.375555 0.246773 -0.026787 255 0 255
-0.439172 0.238982 -0.224787 255 0 255
-0.350049 0.227994 -0.167787 255 0 255
-0.349324 0.255693 -0.194787 255 0 255
-0.339591 0.222106 -0.274638 255 0 255
-0.426816 0.233620 -0.206787 255 0 255
-0.345504 0.253443 -0.238583 255 0 255
-0.318361 0.261828 -0.179787 255 0 255
-0.382932 0.237191 -0.148425 255 0 255
-0.367671 0.251277 -0.242787 255 0 255
-0.339042 0.240771 -0.017787 255 0 255
-0.342786 0.272733 -0.068787 255 0 255
-0.362341 0.263361 -0.011787 255 0 255
-0.396317 0.238112 -0.283271 255 0 255
-0.355707 0.231599 -0.143787 255 0 255
-0.332178 0.221221 -0.278787 255 0 255
-0.372984 0.313189 -0.281787 255 0 255
-0.340016 0.274583 -0.085243 255 0 255
-0.384044 0.272663 -0.104787 255 0 255
-0.384224 0.224025 -0.281787 255 0 255
-0.373104 0.262738 -0.248787 255 0 255
-0.364880 0.282265 -0.215787 255 0 255
-0.359916 0.317641 -0.286084 255 0 255
-0.359530 0.310451 -0.170787 255 0 255
-0.362063 0.245789 -0.131787 255 0 255
-0.440239 0.234476 -0.281787 255 0 255
-0.433399 0.240178 -0.281787 255 0 255
-0.339882 0.286631 -0.074787 255 0 255
-0.319896 0.291006 -0.164787 255 0 255
-0.315087 0.245971 -0.282637 255 0 255
-0.361421 0.309174 -0.269787 255 0 255
-0.357444 0.295294 -0.140787 255 0 255
-0.430060 0.251758 -0.272787 255 0 255
-0.431302 0.237828 -0.200489 255 0 255
-0.369200 0.260502 -0.035787 255 0 255
-0.330278 0.279293 -0.254726 255 0 255
-0.379265 0.267059 -0.041787 255 0 255
-0.392930 0.243861 -0.269787 255 0 255
-0.356886 0.310963 -0.278787 255 0 255
-0.356269 0.312011 -0.156933 255 0 255
-0.354279 0.268102 -0.110787 255 0 255
-0.431902 0.238182 -0.098787 255 0 255
-0.328304 0.294466 -0.176787 255 0 255
-0.341227 0.233515 -0.179787 255 0 255
-0.350163 0.292821 -0.254787 255 0 255
-0.380253 0.247650 -0.266787 255 0 255
-0.349551 0.282038 -0.257787 255 0 255
-0.362536 0.259994 -0.029101 255 0 255
-0.334094 0.278725 -0.089787 255 0 255
-0.352740 0.217516 -0.278787 255 0 255
-0.378364 0.244945 -0.187706 255 0 255
-0.327066 0.246064 -0.281787 255 0 255
-0.384686 0.248669 -0.008787 255 0 255
-0.353238 0.254517 -0.101787 255 0 255
-0.361725 0.279104 -0.224787 255 0 255
-0.344882 0.219035 -0.278787 255 0 255
-0.344107 0.252620 -0.266787 255 0 255
-0.359951 0.258472 -0.083137 255 0 255
-0.428322 0.242886 -0.254787 255 0 255
-0.341181 0.278515 -0.233787 255 0 255
-0.374717 0.239315 0.007596 255 0 255
-0.440729 0.236417 -0.248787 255 0 255
-0.341078 0.278690 -0.262263 255 0 255
-0.416792 0.271063 -0.101787 255 0 255
-0.345964 0.246751 -0.154284 255 0 255
-0.315751 0.274401 -0.161787 255 0 255
-0.379352 0.262936 -0.242787 255 0 255
-0.371371 0.247789 -0.011787 255 0 255
-0.360148 0.240405 -0.254787 255 0 255
-0.359898 0.288117 -0.134787 255 0 255
-0.355996 0.256142 -0.257787 255 0 255
-0.357108 0.257388 -0.107787 255 0 255
-0.354888 0.302532 -0.164787 255 0 255
-0.429319 0.247105 -0.097899 255 0 255
-0.428110 0.263803 -0.101787 255 0 255
-0.396398 0.269495 -0.080787 255 0 255
-0.333117 0.286294 -0.158787 255 0 255
-0.353607 0.272144 -0.074787 255 0 255
-0.356162 0.235349 -0.022307 255 0 255
-0.439631 0.232290 -0.221787 255 0 255
-0.340476 0.267890 -0.196765 255 0 255
-0.365696 0.301916 -0.161787 255 0 255
-0.329953 0.273934 -0.269787 255 0 255
-0.387021 0.265716 -0.005787 255 0 255
-0.319656 0.238217 -0.276100 255 0 255
-0.335448 0.282337 -0.132232 255 0 255
-0.366467 0.300609 -0.259386 255 0 255
-0.378223 0.227453 -0.271919 255 0 255
-0.342353 0.246970 -0.014787 255 0 255
-0.335589 0.299830 -0.182880 255 0 255
-0.374859 0.256807 -0.136075 255 0 255
-0.371595 0.307112 -0.275787 255 0 255
-0.360330 0.281473 -0.131787 255 0 255
-0.369215 0.266389 -0.116787 255 0 255
-0.355384 0.266226 -0.040948 255 0 255
-0.350355 0.280673 -0.199601 255 0 255
-0.372015 0.293431 -0.254787 255 0 255
-0.357161 0.251388 0.006213 255 0 255
-0.372415 0.272777 -0.044081 255 0 255
-0.356754 0.253106 -0.092787 255 0 255
-0.377278 0.264521 -0.116787 255 0 255
-0.324127 0.248360 -0.146787 255 0 255
-0.337062 0.273685 -0.200787 255 0 255
-0.314865 0.284140 -0.281787 255 0 255
-0.349611 0.252381 -0.001179 255 0 255
-0.327092 0.266970 -0.134045 255 0 255
-0.356765 0.246149 -0.142041 255 0 255
-0.354194 0.282934 -0.014787 255 0 255
-0.428612 0.267580 -0.269787 255 0 255
-0.427425 0.235545 -0.251787 255 0 255
-0.390938 0.273242 -0.053787 255 0 255
-0.358251 0.302734 -0.271049 255 0 255
-0.384474 0.241581 -0.185787 255 0 255
-0.343863 0.301221 -0.137787 255 0 255
-0.359349 0.247672 -0.265144 255 0 255
-0.373938 0.270193 -0.060085 255 0 255
-0.428034 0.231553 -0.236787 255 0 255
-0.372154 0.243666 -0.254787 255 0 255
-0.350282 0.245813 -0.089787 255 0 255
-0.380824 0.242912 -0.020787 255 0 255
-0.347043 0.280386 -0.074787 255 0 255
-0.368944 0.231384 -0.152787 255 0 255
-0.353740 0.272222 -0.116787 255 0 255
-0.426647 0.231604 -0.263787 255 0 255
-0.331436 0.238193 -0.146787 255 0 255
-0.314384 0.253078 -0.272787 255 0 255
-0.326644 0.252779 -0.278787 255 0 255
-0.352657 0.247212 -0.195884 255 0 255
-0.328012 0.253585 -0.189749 255 0 255
-0.370760 0.303138 -0.152787 255 0 255
-0.367784 0.318795 -0.284787 255 0 255
-0.367197 0.305280 -0.185787 255 0 255
-0.314770 0.264245 -0.161787 255 0 255
-0.377317 0.258256 -0.050787 255 0 255
-0.335306 0.264845 -0.086599 255 0 255
-0.348274 0.284208 -0.125787 255 0 255
-0.348264 0.265514 -0.005787 255 0 255
-0.362599 0.263514 -0.068787 255 0 255
-0.369629 0.247954 0.003213 255 0 255
-0.369308 0.288355 -0.116787 255 0 255
-0.320411 0.273480 -0.182787 255 0 255
-0.339928 0.298376 -0.260787 255 0 255
-0.329973 0.272150 -0.053787 255 0 255
-0.327092 0.266970 -0.256018 255 0 255
-0.405276 0.264279 -0.117181 255 0 255
-0.370138 0.235266 -0.014787 255 0 255
-0.359172 0.289348 -0.197534 255 0 255
-0.340334 0.250398 -0.005125 255 0 255
-0.321950 0.293429 -0.155787 255 0 255
-0.332922 0.259959 -0.179787 255 0 255
-0.342913 0.275574 -0.092787 255 0 255
-0.353935 0.250952 -0.236787 255 0 255
-0.363707 0.252095 -0.026787 255 0 255
-0.345044 0.260136 -0.049824 255 0 255
-0.361169 0.300971 -0.182787 255 0 255
-0.350992 0.232304 -0.185009 255 0 255
-0.337431 0.273060 -0.112861 255 0 255
-0.308835 0.259698 -0.275787 255 0 255
-0.335164 0.247353 -0.192034 255 0 255
-0.316288 0.257125 -0.161787 255 0 255
-0.350072 0.245689 -0.178295 255 0 255
-0.372153 0.243668 -0.038787 255 0 255
-0.362253 0.225010 -0.270997 255 0 255
-0.349420 0.321904 -0.281787 255 0 255
-0.338493 0.277167 -0.128216 255 0 255
-0.346850 0.292535 -0.113318 255 0 255
-0.361294 0.268014 -0.002787 255 0 255
-0.376728 0.261390 -0.065787 255 0 255
-0.317359 0.265759 -0.266787 255 0 255
-0.348665 0.227451 -0.155787 255 0 255
-0.359951 0.258472 -0.136202 255 0 255
-0.421930 0.246235 -0.107787 255 0 255
-0.353826 0.280692 -0.038787 255 0 255
-0.342459 0.258613 -0.115147 255 0 255
-0.368626 0.249655 -0.139274 255 0 255
-0.429559 0.264656 -0.221787 255 0 255
-0.346892 0.256999 -0.224787 255 0 255
-0.386077 0.255494 -0.074787 255 0 255
-0.360977 0.321748 -0.277580 255 0 255
-0.338048 0.262979 -0.191787 255 0 255
-0.423388 0.261020 -0.113787 255 0 255
-0.336828 0.279994 -0.044787 255 0 255
-0.366400 0.262271 -0.206787 255 0 255
-0.339236 0.305460 -0.283177 255 0 255
-0.355687 0.262923 -0.017787 255 0 255
-0.377472 0.317537 -0.278787 255 0 255
-0.330692 0.296323 -0.140787 255 0 255
-0.381633 0.268950 -0.083787 255 0 255
-0.326348 0.238677 -0.158360 255 0 255
-0.427784 0.253166 -0.245787 255 0 255
-0.384284 0.282183 -0.116787 255 0 255
-0.333347 0.235838 -0.173787 255 0 255
-0.427300 0.238953 -0.278787 255 0 255
-0.374514 0.267050 -0.014787 255 0 255
-0.338414 0.283214 -0.116787 255 0 255
-0.347686 0.308848 -0.281787 255 0 255
-0.382619 0.237721 -0.173787 255 0 255
-0.387173 0.259545 -0.059787 255 0 255
-0.327410 0.242785 -0.265342 255 0 255
-0.368025 0.238855 -0.134482 255 0 255
-0.386932 0.259954 -0.116787 255 0 255
-0.350319 0.239358 -0.038787 255 0 255
-0.327682 0.270800 -0.062787 255 0 255
-0.347948 0.237474 -0.018906 255 0 255
-0.364047 0.263339 0.003213 255 0 255
-0.390461 0.230319 -0.278787 255 0 255
-0.368769 0.246257 -0.032787 255 0 255
-0.383078 0.279058 -0.077787 255 0 255
-0.366927 0.293917 -0.133085 255 0 255
-0.344301 0.308684 -0.149787 255 0 255
-0.357627 0.243176 -0.041787 255 0 255
-0.376579 0.277530 -0.050787 255 0 255
-0.351528 0.237306 -0.008787 255 0 255
-0.354782 0.255426 -0.199509 255 0 255
-0.369113 0.263868 -0.086787 255 0 255
-0.389907 0.272635 -0.061041 255 0 255
-0.366500 0.255365 -0.083787 255 0 255
-0.340653 0.226213 -0.282776 255 0 255
-0.384201 0.262311 -0.086787 255 0 255
-0.363917 0.239917 -0.028171 255 0 255
-0.370267 0.235048 -0.263787 255 0 255
-0.375283 0.309285 -0.269279 255 0 255
-0.363443 0.252543 -0.062787 255 0 255
-0.374770 0.239226 -0.008787 255 0 255
-0.336687 0.244768 -0.255956 255 0 255
-0.369653 0.259735 -0.221787 255 0 255
-0.381631 0.263042 -0.032787 255 0 255
-0.384454 0.234606 -0.280068 255 0 255
-0.364456 0.254161 -0.218787 255 0 255
-0.347721 0.279121 -0.062787 255 0 255
-0.352423 0.288984 -0.242787 255 0 255
-0.328436 0.306061 -0.272380 255 0 255
-0.355836 0.238638 -0.173787 255 0 255
-0.353612 0.281054 -0.251787 255 0 255
-0.363289 0.229160 -0.173787 255 0 255
-0.387447 0.267704 0.003213 255 0 255
-0.366821 0.217255 -0.286119 255 0 255
-0.414942 0.252565 -0.110787 255 0 255
-0.342317 0.241121 0.002716 255 0 255
-0.390829 0.259251 -0.095987 255 0 255
-0.356071 0.228331 -0.149787 255 0 255
-0.388704 0.251036 -0.136752 255 0 255
-0.354678 0.276256 -0.206787 255 0 255
-0.356360 0.300032 -0.146787 255 0 255
-0.371530 0.226992 -0.268972 255 0 255
-0.362869 0.265340 -0.236787 255 0 255
-0.343013 0.227603 -0.269787 255 0 255
-0.316144 0.264002 -0.173787 255 0 255
-0.315371 0.280956 -0.270386 255 0 255
-0.363311 0.235035 -0.182787 255 0 255
-0.366785 0.276424 0.005109 255 0 255
-0.369689 0.253762 -0.202887 255 0 255
-0.428639 0.239742 -0.107787 255 0 255
-0.349884 0.266469 -0.200787 255 0 255
-0.338953 0.270476 -0.078317 255 0 255
-0.389781 0.244707 -0.146787 255 0 255
-0.316205 0.236185 -0.284787 255 0 255
-0.360549 0.257456 -0.098787 255 0 255
-0.375779 0.243423 -0.133619 255 0 255
-0.349019 0.247476 -0.131787 255 0 255
-0.395220 0.263617 -0.065787 255 0 255
-0.358171 0.264387 -0.245787 255 0 255
-0.345482 0.306679 -0.173787 255 0 255
-0.329534 0.251000 -0.135505 255 0 255
-0.348394 0.284002 -0.206787 255 0 255
-0.374894 0.239015 -0.188787 255 0 255
-0.359409 0.253481 -0.230787 255 0 255
-0.415013 0.259570 -0.094944 255 0 255
-0.367134 0.252189 -0.128787 255 0 255
-0.357190 0.298626 -0.193160 255 0 255
-0.371097 0.306818 -0.161787 255 0 255
-0.339535 0.310863 -0.272787 255 0 255
-0.351595 0.243104 -0.024906 255 0 255
-0.341493 0.307541 -0.161787 255 0 255
-0.340488 0.253970 -0.197787 255 0 255
-0.436011 0.247566 -0.118033 255 0 255
-0.366360 0.223947 -0.282828 255 0 255
-0.386622 0.281145 -0.071787 255 0 255
-0.349918 0.242116 -0.257787 255 0 255
-0.365581 0.254825 -0.135919 255 0 255
-0.357083 0.221964 -0.282856 255 0 255
-0.334249 0.290283 -0.257787 255 0 255
-0.357357 0.246498 -0.119787 255 0 255
-0.344301 0.231844 -0.286267 255 0 255
-0.375044 0.268315 -0.005787 255 0 255
-0.351275 0.267289 -0.136274 255 0 255
-0.386071 0.261417 -0.257787 255 0 255
-0.347922 0.240941 -0.191787 255 0 255
-0.404400 0.256799 -0.275787 255 0 255
-0.357598 0.262468 -0.089787 255 0 255
-0.329934 0.282572 -0.164787 255 0 255
-0.339523 0.287240 -0.194787 255 0 255
-0.368978 0.254970 -0.257787 255 0 255
-0.356815 0.284479 -0.023787 255 0 255
-0.368768 0.267147 0.010022 255 0 255
-0.366244 0.271433 -0.110787 255 0 255
-0.361037 0.241703 -0.179787 255 0 255
-0.414553 0.266262 -0.109961 255 0 255
-0.360414 0.281330 0.009213 255 0 255
-0.339308 0.293517 -0.167787 255 0 255
-0.379139 0.243630 -0.155787 255 0 255
-0.329752 0.265055 -0.074787 255 0 255
-0.352721 0.276657 0.000213 255 0 255
-0.339413 0.242892 -0.278787 255 0 255
-0.318876 0.269095 -0.280223 255 0 255
-0.429211 0.257487 -0.209787 255 0 255
-0.348757 0.244914 -0.164787 255 0 255
-0.336738 0.291967 -0.158787 255 0 255
-0.338929 0.249571 -0.167787 255 0 255
-0.344265 0.291013 -0.268210 255 0 255
-0.334527 0.295723 -0.280234 255 0 255
-0.326756 0.270254 -0.170787 255 0 255
-0.375319 0.250115 -0.253028 255 0 255
-0.344111 0.285363 -0.119787 255 0 255
-0.354038 0.227134 -0.286199 255 0 255
-0.336145 0.269333 -0.128787 255 0 255
-0.337499 0.252210 -0.161787 255 0 255
-0.354782 0.255426 -0.139285 255 0 255
-0.363457 0.246609 -0.142254 255 0 255
-0.383344 0.242402 -0.161787 255 0 255
-0.336188 0.281082 -0.266787 255 0 255
-0.356082 0.256192 -0.062787 255 0 255
-0.431801 0.238123 -0.113787 255 0 255
-0.343435 0.245260 -0.047787 255 0 255
-0.364606 0.297855 -0.143787 255 0 255
-0.344245 0.259665 -0.230787 255 0 255
-0.352480 0.288888 -0.135905 255 0 255
-0.341919 0.237405 -0.137787 255 0 255
-0.343061 0.269413 -0.088162 255 0 255
-0.353118 0.240519 0.009415 255 0 255
-0.380479 0.277527 -0.113787 255 0 255
-0.304346 0.267500 -0.278787 255 0 255
-0.327494 0.267208 -0.191787 255 0 255
-0.334244 0.260738 -0.271280 255 0 255
-0.333091 0.309983 -0.275787 255 0 255
-0.368486 0.232162 0.010367 255 0 255
-0.367387 0.287224 -0.250685 255 0 255
-0.383298 0.260212 -0.005787 255 0 255
-0.374250 0.275573 -0.008787 255 0 255
-0.360694 0.283282 -0.122787 255 0 255
-0.350530 0.309931 -0.170787 255 0 255
-0.377585 0.275823 0.010460 255 0 255
-0.321983 0.246551 -0.152787 255 0 255
-0.376498 0.301310 -0.173787 255 0 255
-0.362678 0.277487 -0.103613 255 0 255
-0.381203 0.302325 -0.275787 255 0 255
-0.394015 0.271574 -0.097516 255 0 255
-0.333614 0.263849 -0.047787 255 0 255
-0.353141 0.275350 -0.062787 255 0 255
-0.343904 0.232517 -0.143787 255 0 255
-0.370007 0.229578 -0.283259 255 0 255
-0.363338 0.234989 -0.002787 255 0 255
-0.427938 0.267183 -0.213397 255 0 255
-0.353579 0.237309 0.000213 255 0 255
-0.372049 0.255153 -0.092787 255 0 255
-0.376983 0.265023 -0.130227 255 0 255
-0.346136 0.236407 -0.260787 255 0 255
-0.357827 0.250256 -0.066366 255 0 255
-0.333178 0.281001 -0.056787 255 0 255
-0.316128 0.303315 -0.278787 255 0 255
-0.377443 0.258330 -0.001748 255 0 255
-0.358748 0.236872 0.007315 255 0 255
-0.360120 0.246364 -0.191787 255 0 255
-0.384738 0.269590 -0.044364 255 0 255
-0.359491 0.265164 -0.026474 255 0 255
-0.307616 0.276388 -0.285578 255 0 255
-0.384843 0.259207 -0.050787 255 0 255
-0.377777 0.258527 -0.074787 255 0 255
-0.337891 0.266368 -0.112275 255 0 255
-0.368157 0.263305 -0.017787 255 0 255
-0.326323 0.252591 -0.260787 255 0 255
-0.387181 0.253620 -0.259881 255 0 255
-0.362347 0.263364 -0.107787 255 0 255
-0.365572 0.303564 -0.140787 255 0 255
-0.320581 0.277062 -0.263787 255 0 255
-0.346389 0.299228 -0.274124 255 0 255
-0.325324 0.245038 -0.179787 255 0 255
-0.340787 0.267362 -0.221787 255 0 255
-0.361952 0.287504 -0.254787 255 0 255
-0.348175 0.272552 -0.047787 255 0 255
-0.360882 0.286445 -0.233787 255 0 255
-0.339557 0.249941 -0.113787 255 0 255
-0.360535 0.248370 -0.011787 255 0 255
-0.355826 0.259524 -0.002787 255 0 255
-0.342927 0.290225 -0.146787 255 0 255
-0.340617 0.285383 -0.247871 255 0 255
-0.332438 0.228338 -0.282564 255 0 255
-0.374013 0.240512 -0.272787 255 0 255
-0.362219 0.254622 -0.056787 255 0 255
-0.346885 0.233367 -0.014027 255 0 255
-0.369972 0.288747 -0.135476 255 0 255
-0.376983 0.265023 -0.205479 255 0 255
-0.332721 0.263322 -0.132711 255 0 255
-0.384851 0.281220 -0.092787 255 0 255
-0.365887 0.277948 -0.002787 255 0 255
-0.334183 0.222403 -0.284787 255 0 255
-0.342318 0.270674 -0.212787 255 0 255
-0.374717 0.268871 -0.227787 255 0 255
-0.325482 0.241649 -0.170787 255 0 255
-0.331769 0.255798 -0.161787 255 0 255
-0.329369 0.271793 -0.182787 255 0 255
-0.375001 0.274300 -0.074610 255 0 255
-0.380630 0.270653 -0.109829 255 0 255
-0.383498 0.307160 -0.280057 255 0 255
-0.326766 0.297077 -0.266787 255 0 255
-0.394212 0.259416 -0.266787 255 0 255
-0.359172 0.289348 -0.262286 255 0 255
-0.332260 0.270015 -0.083830 255 0 255
-0.346522 0.275358 -0.008787 255 0 255
-0.378506 0.262437 -0.012842 255 0 255
-0.344412 0.267120 -0.041787 255 0 255
-0.351453 0.225611 -0.269155 255 0 255
-0.333145 0.286246 -0.170787 255 0 255
-0.350864 0.250254 0.006213 255 0 255
-0.345646 0.270936 -0.253157 255 0 255
-0.393413 0.260773 -0.052402 255 0 255
-0.351993 0.250303 -0.113787 255 0 255
-0.384022 0.270805 -0.002787 255 0 255
-0.364458 0.280375 -0.245787 255 0 255
-0.334454 0.257380 -0.173787 255 0 255
-0.343981 0.256028 -0.142285 255 0 255
-0.366245 0.230055 -0.164787 255 0 255
-0.341587 0.251136 -0.155787 255 0 255
-0.392207 0.277472 -0.116787 255 0 255
-0.434488 0.250151 -0.200053 255 0 255
-0.361615 0.273379 -0.117712 255 0 255
-0.337010 0.258885 -0.185787 255 0 255
-0.335306 0.264845 -0.118521 255 0 255
-0.353445 0.287250 -0.122787 255 0 255
-0.325745 0.227877 -0.282328 255 0 255
-0.364508 0.262558 -0.062787 255 0 255
-0.351737 0.260596 -0.256209 255 0 255
-0.356906 0.263642 -0.056608 255 0 255
-0.360029 0.246518 -0.089787 255 0 255
-0.389913 0.243071 -0.170787 255 0 255
-0.328436 0.306061 -0.283025 255 0 255
-0.324648 0.282940 -0.261956 255 0 255
-0.355242 0.248734 -0.131546 255 0 255
-0.326485 0.285733 -0.188787 255 0 255
-0.394795 0.278995 -0.050787 255 0 255
-0.370892 0.275361 -0.107652 255 0 255
-0.365440 0.237332 -0.189846 255 0 255
-0.359305 0.277301 -0.023787 255 0 255
-0.371092 0.263202 -0.242787 255 0 255
-0.364519 0.250717 -0.099045 255 0 255
-0.331947 0.264637 -0.152787 255 0 255
-0.362239 0.254587 -0.212787 255 0 255
-0.359951 0.258472 -0.121431 255 0 255
-0.327533 0.301686 -0.161787 255 0 255
-0.355673 0.248002 -0.245787 255 0 255
-0.364979 0.244025 -0.268271 255 0 255
-0.369248 0.239575 -0.170787 255 0 255
-0.336430 0.255061 -0.116787 255 0 255
-0.347310 0.285843 -0.113315 255 0 255
-0.327276 0.263597 -0.272787 255 0 255
-0.428770 0.265771 -0.248787 255 0 255
-0.348226 0.290198 -0.119787 255 0 255
-0.349852 0.249041 -0.017787 255 0 255
-0.333251 0.253189 -0.254787 255 0 255
-0.370723 0.252007 -0.119787 255 0 255
-0.326514 0.294484 -0.281787 255 0 255
-0.387586 0.285196 -0.086787 255 0 255
-0.334386 0.278230 -0.195840 255 0 255
-0.338165 0.271814 -0.191787 255 0 255
-0.351144 0.253284 -0.221787 255 0 255
-0.353771 0.298516 -0.269787 255 0 255
-0.323928 0.251180 -0.140787 255 0 255
-0.375587 0.264200 -0.221787 255 0 255
-0.343880 0.259450 -0.071787 255 0 255
-0.335451 0.233594 -0.149787 255 0 255
-0.415679 0.249516 -0.098787 255 0 255
-0.435615 0.250815 -0.098787 255 0 255
-0.385659 0.256206 -0.138901 255 0 255
-0.352055 0.236411 -0.190497 255 0 255
-0.370303 0.243679 -0.185787 255 0 255
-0.377619 0.222567 -0.275787 255 0 255
-0.357391 0.268730 -0.089787 255 0 255
-0.364511 0.221176 -0.275787 255 0 255
-0.338708 0.259069 -0.056787 255 0 255
-0.334334 0.271236 -0.041787 255 0 255
-0.378933 0.234836 0.006213 255 0 255
-0.337254 0.314738 -0.285732 255 0 255
-0.375643 0.231832 -0.155787 255 0 255
-0.335003 0.268149 -0.263787 255 0 255
-0.330302 0.241007 -0.182787 255 0 255
-0.428858 0.253798 -0.097399 255 0 255
-0.366006 0.307302 -0.171379 255 0 255
-0.354306 0.268055 -0.029787 255 0 255
-0.384582 0.293499 -0.119787 255 0 255
-0.357594 0.250119 -0.098787 255 0 255
-0.397060 0.266404 -0.095632 255 0 255
-0.355257 0.276597 -0.011787 255 0 255
-0.379745 0.224868 -0.285988 255 0 255
-0.382097 0.256341 -0.095787 255 0 255
-0.317035 0.295864 -0.282856 255 0 255
-0.332114 0.266447 -0.062787 255 0 255
-0.362471 0.232102 -0.143787 255 0 255
-0.387590 0.246898 -0.263787 255 0 255
-0.326312 0.297847 -0.154401 255 0 255
-0.364436 0.243705 -0.251787 255 0 255
-0.348231 0.272459 0.003522 255 0 255
-0.377044 0.233723 -0.170787 255 0 255
-0.360554 0.269271 -0.034521 255 0 255
-0.319797 0.255710 -0.265404 255 0 255
-0.374502 0.263324 -0.029787 255 0 255
-0.380374 0.241534 -0.014787 255 0 255
-0.331055 0.236598 -0.161787 255 0 255
-0.373232 0.238440 -0.164787 255 0 255
-0.372814 0.260279 -0.122787 255 0 255
-0.427673 0.242654 -0.227787 255 0 255
-0.354003 0.286304 -0.219159 255 0 255
-0.376149 0.278459 -0.065787 255 0 255
-0.351741 0.264081 -0.035787 255 0 255
-0.351559 0.302274 -0.259693 255 0 255
-0.342459 0.258613 -0.193901 255 0 255
-0.318527 0.254962 -0.149787 255 0 255
-0.357597 0.268380 0.006213 255 0 255
-0.318056 0.261647 -0.146787 255 0 255
-0.341857 0.247814 -0.132751 255 0 255
-0.379349 0.259453 -0.089787 255 0 255
-0.341899 0.240875 -0.041787 255 0 255
-0.345974 0.278093 -0.221787 255 0 255
-0.372425 0.260940 -0.236787 255 0 255
-0.440266 0.236145 -0.104787 255 0 255
-0.360554 0.269271 -0.042130 255 0 255
-0.375319 0.250115 -0.134168 255 0 255
-0.344123 0.273520 -0.112303 255 0 255
-0.339874 0.257091 -0.128940 255 0 255
-0.328704 0.281965 -0.068787 255 0 255
-0.426592 0.228090 -0.248941 255 0 255
-0.342024 0.259351 -0.212787 255 0 255
-0.320851 0.245885 -0.167787 255 0 255
-0.334987 0.289030 -0.190471 255 0 255
-0.355755 0.228145 -0.173787 255 0 255
-0.363598 0.264102 -0.117461 255 0 255
-0.368829 0.246292 -0.017787 255 0 255
-0.340795 0.243705 -0.190467 255 0 255
-0.331395 0.265575 -0.251787 255 0 255
-0.428816 0.267700 -0.200787 255 0 255
-0.428413 0.270945 -0.233787 255 0 255
-0.374116 0.240336 -0.044787 255 0 255
-0.345608 0.306465 -0.185787 255 0 255
-0.339826 0.280816 -0.050787 255 0 255
-0.382562 0.273285 -0.098787 255 0 255
-0.356519 0.276119 -0.041787 255 0 255
-0.366502 0.241439 -0.038751 255 0 255
-0.344350 0.320422 -0.278787 255 0 255
-0.427034 0.228351 -0.218787 255 0 255
-0.392339 0.244864 -0.179787 255 0 255
-0.428596 0.260153 -0.251787 255 0 255
-0.381147 0.243103 -0.170787 255 0 255
-0.435869 0.230074 -0.200164 255 0 255
-0.342919 0.251921 -0.026674 255 0 255
-0.352714 0.318045 -0.275787 255 0 255
-0.324315 0.272298 -0.134787 255 0 255
-0.319018 0.286587 -0.168830 255 0 255
-0.377140 0.237261 -0.023787 255 0 255
-0.322701 0.233047 -0.286238 255 0 255
-0.426476 0.228288 -0.275787 255 0 255
-0.422626 0.246645 -0.114104 255 0 255
-0.375925 0.236545 -0.143787 255 0 255
-0.340638 0.264505 -0.209787 255 0 255
-0.355525 0.283718 -0.114361 255 0 255
-0.331517 0.241723 -0.141394 255 0 255
-0.361934 0.249195 -0.115829 255 0 255
-0.427007 0.235299 -0.227787 255 0 255
-0.359796 0.306023 -0.164787 255 0 255
-0.332580 0.245831 -0.134990 255 0 255
-0.371346 0.247775 -0.191787 255 0 255
-0.331106 0.301531 -0.170787 255 0 255
-0.350355 0.280673 -0.113889 255 0 255
-0.360412 0.286598 -0.215787 255 0 255
-0.341582 0.265060 -0.230787 255 0 255
-0.311263 0.282019 -0.286112 255 0 255
-0.429078 0.265246 -0.242787 255 0 255
-0.427205 0.227051 -0.206787 255 0 255
-0.421578 0.246027 -0.101787 255 0 255
-0.350961 0.273733 -0.020787 255 0 255
-0.373478 0.276885 -0.121129 255 0 255
-0.342561 0.264351 -0.080787 255 0 255
-0.383073 0.254683 -0.254162 255 0 255
-0.432824 0.235243 -0.285637 255 0 255
-0.363740 0.281594 -0.114708 255 0 255
-0.319905 0.248810 -0.161787 255 0 255
-0.366175 0.262137 -0.212787 255 0 255
-0.437994 0.238288 -0.199087 255 0 255
-0.427597 0.249574 -0.257787 255 0 255
-0.351877 0.278089 -0.136268 255 0 255
-0.363801 0.253776 -0.119787 255 0 255
-0.350883 0.262045 -0.056787 255 0 255
-0.334562 0.236553 -0.286232 255 0 255
-0.333181 0.256631 -0.133022 255 0 255
-0.347345 0.226674 -0.286102 255 0 255
-0.418058 0.254400 -0.095334 255 0 255
-0.346096 0.278165 -0.215787 255 0 255
-0.410434 0.256872 -0.110787 255 0 255
-0.381133 0.257977 -0.062787 255 0 255
-0.338660 0.306439 -0.167787 255 0 255
-0.344547 0.296445 -0.167787 255 0 255
-0.344430 0.270219 -0.014787 255 0 255
-0.342012 0.282722 -0.062787 255 0 255
-0.427968 0.243488 -0.209787 255 0 255
-0.408923 0.269909 -0.106346 255 0 255
-0.361530 0.303078 -0.176787 255 0 255
-0.439668 0.232312 -0.236787 255 0 255
-0.359268 0.277364 -0.236787 255 0 255
-0.374617 0.251306 0.003213 255 0 255
-0.360089 0.255071 -0.014787 255 0 255
-0.329423 0.271825 -0.158787 255 0 255
-0.351275 0.267289 -0.121329 255 0 255
-0.365656 0.301985 -0.155787 255 0 255
-0.334656 0.283680 -0.152787 255 0 255
-0.319463 0.258995 -0.284787 255 0 255
-0.337455 0.252184 -0.173787 255 0 255
-0.356647 0.266971 -0.239787 255 0 255
-0.369627 0.259777 -0.227787 255 0 255
-0.329791 0.265078 -0.179787 255 0 255
-0.354876 0.302553 -0.170787 255 0 255
-0.367279 0.240122 -0.158787 255 0 255
-0.384822 0.281268 -0.047787 255 0 255
-0.389439 0.275841 -0.068787 255 0 255
-0.432633 0.256022 -0.107787 255 0 255
-0.339696 0.298767 -0.280255 255 0 255
-0.354082 0.265460 -0.251787 255 0 255
-0.330952 0.269244 -0.164787 255 0 255
-0.348394 0.284003 -0.212787 255 0 255
-0.354006 0.265415 -0.206787 255 0 255
-0.365150 0.231915 -0.278787 255 0 255
-0.346294 0.278281 -0.053787 255 0 255
-0.370149 0.247070 -0.085614 255 0 255
-0.364661 0.268209 -0.024692 255 0 255
-0.391147 0.235066 -0.275234 255 0 255
-0.353538 0.272102 -0.068787 255 0 255
-0.353719 0.251319 -0.087971 255 0 255
-0.369863 0.259377 -0.062787 255 0 255
-0.394203 0.241700 -0.278787 255 0 255
-0.344549 0.252881 -0.245787 255 0 255
-0.399185 0.274619 -0.099951 255 0 255
-0.310059 0.260419 -0.285717 255 0 255
-0.388111 0.269776 0.009213 255 0 255
-0.362749 0.306920 -0.146787 255 0 255
-0.353683 0.247816 -0.047787 255 0 255
-0.395892 0.283124 -0.101787 255 0 255
-0.335198 0.288672 -0.071787 255 0 255
-0.343292 0.276513 -0.227787 255 0 255
-0.427424 0.244411 -0.215787 255 0 255
-0.373654 0.235208 -0.000840 255 0 255
-0.367192 0.266219 -0.035787 255 0 255
-0.349894 0.287366 -0.130806 255 0 255
-0.324615 0.288907 -0.176787 255 0 255
-0.361757 0.290871 -0.246476 255 0 255
-0.306554 0.272281 -0.276123 255 0 255
-0.379887 0.242360 -0.270944 255 0 255
-0.364777 0.271760 -0.008787 255 0 255
-0.366184 0.265624 -0.111740 255 0 255
-0.356269 0.312011 -0.269698 255 0 255
-0.385800 0.273698 -0.120835 255 0 255
-0.377443 0.258330 -0.196756 255 0 255
-0.372900 0.304399 -0.179787 255 0 255
-0.375285 0.261993 0.003213 255 0 255
-0.336445 0.292467 -0.134787 255 0 255
-0.365481 0.265211 -0.005787 255 0 255
-0.370751 0.257870 -0.006549 255 0 255
-0.360093 0.252320 -0.197787 255 0 255
-0.348691 0.265766 -0.086604 255 0 255
-0.360308 0.272609 0.009213 255 0 255
-0.329387 0.274895 -0.074787 255 0 255
-0.353539 0.281180 -0.224787 255 0 255
-0.321504 0.308942 -0.284787 255 0 255
-0.400106 0.261234 -0.094040 255 0 255
-0.428256 0.242998 -0.265363 255 0 255
-0.374254 0.269656 -0.116787 255 0 255
-0.385057 0.245406 -0.271259 255 0 255
-0.338064 0.228170 -0.272787 255 0 255
-0.427657 0.255837 -0.227787 255 0 255
-0.419475 0.272643 -0.107787 255 0 255
-0.389511 0.249666 -0.149787 255 0 255
-0.388007 0.287685 -0.119787 255 0 255
-0.353387 0.254605 0.003213 255 0 255
-0.337501 0.252211 -0.272787 255 0 255
-0.337416 0.302641 -0.263787 255 0 255
-0.359577 0.286105 -0.227787 255 0 255
-0.362050 0.263190 -0.095787 255 0 255
-0.343061 0.269413 -0.136049 255 0 255
-0.394263 0.277063 -0.095787 255 0 255
-0.359809 0.240979 -0.032518 255 0 255
-0.341219 0.296183 -0.134121 255 0 255
-0.346531 0.316721 -0.282694 255 0 255
-0.330350 0.293262 -0.260787 255 0 255
-0.369512 0.295439 -0.265159 255 0 255
-0.380377 0.270503 -0.050787 255 0 255
-0.363881 0.299086 -0.268165 255 0 255
-0.357650 0.291934 -0.117566 255 0 255
-0.402230 0.269448 -0.099704 255 0 255
-0.364085 0.245543 0.009213 255 0 255
-0.345755 0.267518 -0.119787 255 0 255
-0.388248 0.245900 -0.185787 255 0 255
-0.368166 0.256347 -0.100025 255 0 255
-0.350366 0.310209 -0.161787 255 0 255
-0.360789 0.257048 -0.254787 255 0 255
-0.375286 0.297458 -0.266787 255 0 255
-0.365223 0.272022 -0.014787 255 0 255
-0.335306 0.264845 -0.142170 255 0 255
-0.355852 0.308283 -0.182787 255 0 255
-0.356968 0.242787 -0.155787 255 0 255
-0.402194 0.257687 -0.098787 255 0 255
-0.379188 0.252394 -0.263787 255 0 255
-0.346049 0.293893 -0.185787 255 0 255
-0.331800 0.276707 -0.151270 255 0 255
-0.347991 0.275799 -0.116787 255 0 255
-0.345532 0.229753 -0.170787 255 0 255
-0.344902 0.242644 -0.274193 255 0 255
-0.355069 0.269523 -0.218787 255 0 255
-0.316040 0.274387 -0.170787 255 0 255
-0.428203 0.260821 -0.233787 255 0 255
-0.369557 0.265807 -0.230787 255 0 255
-0.337208 0.285261 -0.182787 255 0 255
-0.393252 0.272869 -0.071787 255 0 255
-0.372835 0.260243 -0.128787 255 0 255
-0.365771 0.251455 -0.020787 255 0 255
-0.368590 0.279272 -0.233787 255 0 255
-0.356162 0.235349 -0.138824 255 0 255
-0.305897 0.255664 -0.281787 255 0 255
-0.316798 0.272622 -0.149787 255 0 255
-0.374950 0.303939 -0.164787 255 0 255
-0.379766 0.278030 -0.056787 255 0 255
-0.359288 0.277330 -0.215787 255 0 255
-0.375461 0.267607 0.012565 255 0 255
-0.338153 0.265923 -0.101787 255 0 255
-0.358455 0.274999 0.000213 255 0 255
-0.364845 0.264837 -0.221787 255 0 255
-0.338175 0.301352 -0.143448 255 0 255
-0.347027 0.250859 -0.187333 255 0 255
-0.361180 0.238305 0.012213 255 0 255
-0.393874 0.254081 -0.262673 255 0 255
-0.428619 0.260621 -0.269787 255 0 255
-0.371672 0.244485 -0.048925 255 0 255
-0.332902 0.259947 -0.155787 255 0 255
-0.392223 0.277481 -0.062787 255 0 255
-0.379930 0.263277 -0.053787 255 0 255
-0.364180 0.245382 -0.026787 255 0 255
-0.353719 0.251319 -0.007323 255 0 255
-0.354931 0.276406 -0.005787 255 0 255
-0.333144 0.286249 -0.275787 255 0 255
-0.364607 0.250769 -0.200787 255 0 255
-0.350072 0.245689 -0.117118 255 0 255
-0.361912 0.278786 -0.032787 255 0 255
-0.380235 0.247679 -0.023787 255 0 255
-0.340345 0.238559 -0.002787 255 0 255
-0.376371 0.233327 -0.278787 255 0 255
-0.353542 0.292997 -0.190293 255 0 255
-0.366821 0.217255 -0.279102 255 0 255
-0.347150 0.297937 -0.173787 255 0 255
-0.320682 0.301494 -0.275659 255 0 255
-0.365397 0.282570 -0.125787 255 0 255
-0.376382 0.254223 -0.259276 255 0 255
-0.326631 0.273662 -0.189913 255 0 255
-0.355917 0.238686 -0.275787 255 0 255
-0.345203 0.248043 -0.176787 255 0 255
-0.376382 0.254223 -0.118358 255 0 255
-0.368548 0.279342 -0.227787 255 0 255
-0.322821 0.280130 -0.281787 255 0 255
-0.369390 0.257067 -0.197787 255 0 255
-0.386021 0.270346 -0.008787 255 0 255
-0.341461 0.292843 -0.155787 255 0 255
-0.336790 0.232771 -0.155787 255 0 255
-0.338254 0.280509 -0.143787 255 0 255
-0.376382 0.254223 -0.248316 255 0 255
-0.332863 0.280815 -0.271283 255 0 255
-0.392492 0.274158 -0.079150 255 0 255
-0.341152 0.275252 -0.209787 255 0 255
-0.355676 0.271640 -0.227787 255 0 255
-0.335092 0.259298 -0.194787 255 0 255
-0.355985 0.277026 -0.121305 255 0 255
-0.383298 0.260213 -0.044787 255 0 255
-0.369439 0.302359 -0.263787 255 0 255
-0.428694 0.254077 -0.215787 255 0 255
-0.385707 0.259716 -0.092787 255 0 255
-0.367290 0.248867 -0.263787 255 0 255
-0.335051 0.268177 -0.188787 255 0 255
-0.328505 0.285212 -0.278787 255 0 255
-0.348857 0.253662 -0.014787 255 0 255
-0.360558 0.248384 -0.005787 255 0 255
-0.325865 0.274963 -0.275787 255 0 255
-0.338074 0.254235 -0.149787 255 0 255
-0.431439 0.244873 -0.278787 255 0 255
-0.353629 0.272156 -0.122787 255 0 255
-0.366582 0.288590 -0.257787 255 0 255
-0.390257 0.262396 -0.077787 255 0 255
-0.379597 0.236943 -0.266787 255 0 255
-0.361332 0.238395 -0.274213 255 0 255
-0.348231 0.272459 -0.082257 255 0 255
-0.356375 0.231993 -0.281787 255 0 255
-0.347912 0.296643 -0.148176 255 0 255
-0.389157 0.273908 -0.101787 255 0 255
-0.352241 0.292230 -0.140787 255 0 255
-0.384025 0.279616 0.006213 255 0 255
-0.345186 0.277629 -0.256162 255 0 255
-0.334527 0.295723 -0.186493 255 0 255
-0.353082 0.299688 -0.181318 255 0 255
-0.336970 0.279753 -0.187318 255 0 255
-0.356304 0.252842 -0.262264 255 0 255
-0.350072 0.245689 -0.184319 255 0 255
-0.339000 0.239167 -0.260787 255 0 255
-0.350815 0.273980 -0.202370 255 0 255
-0.342459 0.258613 -0.265211 255 0 255
-0.377904 0.251637 0.007693 255 0 255
-0.336687 0.244768 -0.021306 255 0 255
-0.391199 0.273396 -0.137787 255 0 255
-0.350214 0.263182 -0.064137 255 0 255
-0.362126 0.254780 -0.107787 255 0 255
-0.381090 0.263960 -0.078494 255 0 255
-0.366325 0.283117 -0.207901 255 0 255
-0.360234 0.293457 -0.133280 255 0 255
-0.388385 0.275221 -0.046753 255 0 255
-0.374790 0.305512 -0.149787 255 0 255
-0.360915 0.259039 -0.203787 255 0 255
-0.356765 0.246149 -0.187298 255 0 255
-0.370459 0.278589 -0.116787 255 0 255
-0.377579 0.246279 0.000213 255 0 255
-0.344584 0.266829 -0.259243 255 0 255
-0.441039 0.233118 -0.211251 255 0 255
-0.344951 0.295758 -0.191787 255 0 255
-0.359938 0.310690 -0.161787 255 0 255
-0.336420 0.239312 -0.281787 255 0 255
-0.353012 0.261348 -0.116787 255 0 255
-0.428009 0.246335 -0.269787 255 0 255
-0.364477 0.288992 -0.131787 255 0 255
-0.335548 0.305812 -0.158787 255 0 255
-0.360836 0.304256 -0.154260 255 0 255
-0.346885 0.233367 -0.181443 255 0 255
-0.347948 0.237474 -0.280222 255 0 255
-0.392351 0.256666 -0.091329 255 0 255
-0.372310 0.302510 -0.272787 255 0 255
-0.388537 0.263142 -0.032787 255 0 255
-0.365328 0.261165 -0.083787 255 0 255
-0.367859 0.301429 -0.146787 255 0 255
-0.343122 0.259003 -0.218787 255 0 255
-0.359343 0.259505 -0.059787 255 0 255
-0.366803 0.305949 -0.176787 255 0 255
-0.347168 0.268350 -0.196345 255 0 255
-0.373158 0.301069 -0.184540 255 0 255
-0.327410 0.242785 -0.286226 255 0 255
-0.316538 0.278976 -0.158787 255 0 255
-0.380304 0.247563 -0.014787 255 0 255
-0.366412 0.262278 -0.128787 255 0 255
-0.344265 0.291013 -0.251125 255 0 255
-0.371813 0.261977 -0.091215 255 0 255
-0.393176 0.264116 -0.056787 255 0 255
-0.349009 0.241581 -0.033909 255 0 255
-0.353398 0.278984 -0.029787 255 0 255
-0.390509 0.283435 -0.061177 255 0 255
-0.362536 0.239103 -0.167787 255 0 255
-0.320579 0.263134 -0.185787 255 0 255
-0.363132 0.270791 -0.092787 255 0 255
-0.382777 0.249276 -0.146787 255 0 255
-0.378506 0.262437 -0.250269 255 0 255
-0.363138 0.270794 -0.056431 255 0 255
-0.358731 0.272365 -0.110787 255 0 255
-0.350909 0.262000 -0.050787 255 0 255
-0.374098 0.252188 -0.113787 255 0 255
-0.375718 0.299095 -0.140787 255 0 255
-0.428856 0.267724 -0.260787 255 0 255
-0.392158 0.268815 -0.092787 255 0 255
-0.386770 0.266141 -0.095787 255 0 255
-0.371159 0.280819 -0.131787 255 0 255
-0.381801 0.262754 -0.020787 255 0 255
-0.368775 0.237582 -0.026787 255 0 255
-0.310870 0.292233 -0.278787 255 0 255
-0.354669 0.237884 -0.035787 255 0 255
-0.393112 0.264078 -0.047787 255 0 255
-0.369122 0.266546 -0.059787 255 0 255
-0.376842 0.247530 -0.043369 255 0 255
-0.371194 0.233475 -0.179787 255 0 255
-0.355398 0.227935 -0.164787 255 0 255
-0.382324 0.264687 -0.008787 255 0 255
-0.340589 0.279520 -0.089787 255 0 255
-0.339272 0.246291 -0.010314 255 0 255
-0.367529 0.304716 -0.271191 255 0 255
-0.355652 0.253949 -0.017787 255 0 255
-0.393413 0.260773 -0.073340 255 0 255
-0.355667 0.301211 -0.186874 255 0 255
-0.360282 0.272594 -0.005787 255 0 255
-0.380319 0.256542 -0.137787 255 0 255
-0.419819 0.257321 -0.116787 255 0 255
-0.380170 0.277345 -0.084278 255 0 255
-0.428341 0.239566 -0.218787 255 0 255
-0.376664 0.289207 -0.135950 255 0 255
-0.369110 0.231101 -0.146787 255 0 255
-0.333784 0.267430 -0.052139 255 0 255
-0.358680 0.248808 -0.023787 255 0 255
-0.377904 0.251637 -0.139286 255 0 255
-0.359084 0.285815 -0.239787 255 0 255
-0.370098 0.285339 -0.122787 255 0 255
-0.354003 0.286304 -0.199781 255 0 255
-0.347054 0.254357 -0.206787 255 0 255
-0.352886 0.271719 -0.035787 255 0 255
-0.337060 0.238024 -0.011787 255 0 255
-0.336572 0.274518 -0.095787 255 0 255
-0.359760 0.261842 0.006213 255 0 255
-0.314486 0.235172 -0.279728 255 0 255
-0.428431 0.272255 -0.251787 255 0 255
-0.403981 0.263516 -0.104787 255 0 255
-0.321018 0.245983 -0.269787 255 0 255
-0.368153 0.235448 -0.008787 255 0 255
-0.372415 0.272777 -0.065139 255 0 255
-0.388468 0.263258 -0.038787 255 0 255
-0.321780 0.246432 -0.282955 255 0 255
-0.370521 0.302997 -0.167787 255 0 255
-0.371117 0.280893 -0.125787 255 0 255
-0.342600 0.276106 -0.196719 255 0 255
-0.362678 0.277487 -0.121083 255 0 255
-0.367721 0.310300 -0.278787 255 0 255
-0.369410 0.271968 0.003213 255 0 255
-0.335565 0.268479 -0.200787 255 0 255
-0.392811 0.249973 -0.145506 255 0 255
-0.384178 0.264630 -0.041787 255 0 255
-0.357650 0.291934 -0.253065 255 0 255
-0.327650 0.248287 -0.263787 255 0 255
-0.355808 0.318703 -0.282727 255 0 255
-0.362426 0.280820 0.000213 255 0 255
-0.373300 0.318562 -0.282746 255 0 255
-0.335767 0.258153 -0.250440 255 0 255
-0.318200 0.287977 -0.269787 255 0 255
-0.352034 0.313288 -0.272787 255 0 255
-0.379108 0.273238 0.005168 255 0 255
-0.341862 0.271447 -0.098787 255 0 255
-0.336861 0.304060 -0.179787 255 0 255
-0.377302 0.240838 -0.040466 255 0 255
-0.381740 0.245127 -0.182787 255 0 255
-0.313706 0.266049 -0.270844 255 0 255
-0.309784 0.246330 -0.278787 255 0 255
-0.366486 0.259199 -0.071787 255 0 255
-0.332863 0.280815 -0.078399 255 0 255
-0.362536 0.259994 -0.055480 255 0 255
-0.427372 0.244500 -0.233787 255 0 255
-0.360513 0.233875 0.003213 255 0 255
-0.324979 0.311933 -0.281787 255 0 255
-0.339236 0.305460 -0.267985 255 0 255
-0.374800 0.270699 -0.020787 255 0 255
-0.380914 0.305637 -0.271566 255 0 255
-0.350160 0.286916 -0.233787 255 0 255
-0.387171 0.241817 -0.152787 255 0 255
-0.326080 0.286420 -0.137787 255 0 255
-0.366184 0.265624 -0.104789 255 0 255
-0.341428 0.260363 -0.062787 255 0 255
-0.355100 0.231241 -0.263525 255 0 255
-0.427718 0.260090 -0.239787 255 0 255
-0.343380 0.283527 -0.077787 255 0 255
-0.368705 0.243613 0.006213 255 0 255
-0.377416 0.246555 -0.257787 255 0 255
-0.356707 0.252158 -0.209787 255 0 255
-0.320023 0.278969 -0.182787 255 0 255
-0.354104 0.272436 0.006213 255 0 255
-0.389766 0.255143 -0.142158 255 0 255
-0.372815 0.254365 -0.131787 255 0 255
-0.321563 0.288175 -0.143787 255 0 255
-0.360234 0.293457 -0.259044 255 0 255
-0.370745 0.251969 -0.248787 255 0 255
-0.364979 0.244025 -0.193347 255 0 255
-0.347229 0.256425 -0.233787 255 0 255
-0.425368 0.262187 -0.107787 255 0 255
-0.368625 0.255568 -0.239787 255 0 255
-0.347948 0.237474 -0.025925 255 0 255
-0.362960 0.312471 -0.276714 255 0 255
-0.369322 0.263992 0.003213 255 0 255
-0.380170 0.277345 -0.089631 255 0 255
-0.386270 0.255168 -0.056787 255 0 255
-0.373938 0.270193 -0.077831 255 0 255
-0.382472 0.243883 -0.262478 255 0 255
-0.389365 0.273557 -0.086787 255 0 255
-0.373610 0.247105 -0.005787 255 0 255
-0.392949 0.255650 -0.080787 255 0 255
-0.319478 0.279895 -0.148104 255 0 255
-0.367329 0.245409 -0.089787 255 0 255
-0.352019 0.295581 -0.265021 255 0 255
-0.380398 0.235583 -0.152787 255 0 255
-0.370149 0.247070 -0.114942 255 0 255
-0.377040 0.259013 -0.131787 255 0 255
-0.373661 0.270029 -0.071787 255 0 255
-0.368536 0.263528 -0.023787 255 0 255
-0.347628 0.261658 -0.114574 255 0 255
-0.341255 0.237014 -0.183970 255 0 255
-0.343061 0.269413 -0.082240 255 0 255
-0.310487 0.265603 -0.284787 255 0 255
-0.399444 0.253881 -0.275787 255 0 255
-0.327870 0.236093 -0.269847 255 0 255
-0.326348 0.238677 -0.163639 255 0 255
-0.369337 0.309264 -0.167787 255 0 255
-0.428212 0.232527 -0.215787 255 0 255
-0.334386 0.278230 -0.249770 255 0 255
-0.427239 0.266772 -0.230787 255 0 255
-0.338310 0.289299 -0.170787 255 0 255
-0.358806 0.284060 -0.197787 255 0 255
-0.378148 0.239401 -0.161787 255 0 255
-0.378895 0.267688 -0.023787 255 0 255
-0.382945 0.248991 -0.140787 255 0 255
-0.355636 0.214148 -0.281787 255 0 255
-0.350143 0.269212 -0.026787 255 0 255
-0.334244 0.260738 -0.076053 255 0 255
-0.333855 0.261399 -0.056787 255 0 255
-0.349478 0.273193 -0.104787 255 0 255
-0.362035 0.272666 -0.023787 255 0 255
-0.350935 0.249679 -0.200787 255 0 255
-0.426132 0.234783 -0.273891 255 0 255
-0.330274 0.258400 -0.170787 255 0 255
-0.378876 0.267719 -0.029787 255 0 255
-0.359770 0.279256 -0.011787 255 0 255
-0.339804 0.286762 -0.266787 255 0 255
-0.412428 0.258047 -0.099229 255 0 255
-0.376098 0.219238 -0.279524 255 0 255
-0.328752 0.257503 -0.257787 255 0 255
-0.351138 0.253280 -0.215787 255 0 255
-0.336868 0.283174 -0.059787 255 0 255
-0.338059 0.266082 -0.122787 255 0 255
-0.368166 0.256347 -0.089124 255 0 255
-0.376392 0.266024 -0.245787 255 0 255
-0.330420 0.296784 -0.182231 255 0 255
-0.368305 0.285666 -0.245787 255 0 255
-0.374155 0.266838 -0.215787 255 0 255
-0.375779 0.243423 0.004365 255 0 255
