ply
format ascii 1.0
element vertex 1230
property float x
property float y
property float z
property uchar red
property uchar green
property uchar blue
end_header
0.054507 0.048217 0.066665 255 0 0
0.043266 0.019829 -0.005335 255 0 0
0.104144 0.031614 0.125612 255 0 0
0.117787 0.074636 0.136665 255 0 0
0.128804 0.056270 -0.027335 255 0 0
0.130358 0.040297 -0.011335 255 0 0
0.042593 0.006545 0.004665 255 0 0
0.118279 0.032075 0.149296 255 0 0
0.097250 0.013126 -0.025335 255 0 0
0.040363 0.052861 0.126665 255 0 0
0.042902 0.026907 0.032665 255 0 0
0.029681 0.036761 0.040665 255 0 0
0.113935 0.022156 -0.017335 255 0 0
0.041681 0.022630 0.014665 255 0 0
0.021715 0.041449 0.008665 255 0 0
0.129042 0.046158 -0.005335 255 0 0
0.084511 0.004753 0.000665 255 0 0
0.070025 0.006284 -0.011335 255 0 0
0.030030 0.042916 0.004665 255 0 0
0.095984 0.008784 -0.013335 255 0 0
0.047066 0.009793 0.032665 255 0 0
0.033155 0.059713 0.030665 255 0 0
0.039979 0.067010 0.126665 255 0 0
0.059077 0.033821 0.059689 255 0 0
0.059503 0.008368 -0.025335 255 0 0
0.091237 0.093295 0.130665 255 0 0
0.040541 0.046799 0.043667 255 0 0
0.059200 0.090707 0.129678 255 0 0
0.055060 0.039206 -0.065335 255 0 0
0.053732 0.064130 0.092665 255 0 0
0.054848 0.011738 0.004665 255 0 0
0.039341 0.088156 0.146665 255 0 0
0.034228 0.088335 0.008665 255 0 0
0.127437 0.072276 0.018975 255 0 0
0.046479 0.059200 0.068665 255 0 0
0.106566 0.023917 -0.041335 255 0 0
0.111329 0.036942 0.129525 255 0 0
0.037679 0.016960 0.030665 255 0 0
0.090238 0.006822 0.042426 255 0 0
0.053753 0.075530 0.126010 255 0 0
0.077388 0.079698 0.128285 255 0 0
0.125502 0.055688 0.030665 255 0 0
0.081460 0.022053 0.108665 255 0 0
0.057397 0.020312 0.134665 255 0 0
0.116413 0.060178 0.048665 255 0 0
0.056293 0.015052 0.052964 255 0 0
0.112820 0.037205 0.142665 255 0 0
0.031772 0.077747 0.020665 255 0 0
0.127622 0.036677 -0.003335 255 0 0
0.063254 0.079237 0.130757 255 0 0
0.104725 0.039839 0.105240 255 0 0
0.097189 0.001956 0.023885 255 0 0
0.124169 0.039206 -0.019335 255 0 0
0.124468 0.059568 0.144665 255 0 0
0.113300 0.043382 0.050665 255 0 0
0.025858 0.034056 -0.019335 255 0 0
0.050618 0.024206 0.039680 255 0 0
0.042510 0.047148 0.125537 255 0 0
-0.167529 0.109624 -0.050213 255 125 0
-0.039960 -0.026463 -0.055335 255 125 0
-0.022536 0.120973 -0.047335 255 125 0
-0.155026 -0.007357 -0.049335 255 125 0
-0.081803 0.049597 0.009323 255 125 0
-0.098180 0.165511 -0.065335 255 125 0
-0.009157 0.044129 -0.045335 255 125 0
-0.123452 0.055452 -0.047335 255 125 0
-0.104887 0.111407 -0.007335 255 125 0
-0.102337 -0.041265 -0.061335 255 125 0
-0.083251 0.011737 -0.037335 255 125 0
-0.060866 0.075629 -0.041335 255 125 0
-0.177186 0.055118 -0.047335 255 125 0
-0.114002 0.117031 -0.058212 255 125 0
-0.212190 0.121040 -0.065335 255 125 0
-0.067426 0.129305 -0.059723 255 125 0
-0.118762 0.026833 -0.009335 255 125 0
-0.043882 0.018817 -0.059335 255 125 0
-0.120853 0.071144 -0.005335 255 125 0
-0.116567 0.004881 -0.062315 255 125 0
-0.070328 0.088176 -0.002065 255 125 0
-0.136358 0.151675 -0.058372 255 125 0
-0.022407 0.081308 -0.053335 255 125 0
-0.060949 0.041090 -0.023335 255 125 0
-0.074630 -0.014124 -0.064100 255 125 0
-0.149350 0.029564 -0.056225 255 125 0
-0.075552 0.014144 -0.000617 255 125 0
-0.137409 0.088533 -0.058264 255 125 0
-0.040598 0.052801 -0.057335 255 125 0
-0.115918 0.093346 -0.033335 255 125 0
-0.133023 -0.028483 -0.062312 255 125 0
-0.048590 0.103107 -0.055335 255 125 0
-0.014246 0.011984 -0.049335 255 125 0
-0.111187 0.026138 -0.039335 255 125 0
-0.100115 0.003721 -0.014284 255 125 0
-0.150621 0.059802 -0.058314 255 125 0
-0.070486 0.158178 -0.061335 255 125 0
-0.039439 0.143348 -0.053335 255 125 0
-0.143660 0.123986 -0.058185 255 125 0
-0.166039 0.081454 -0.045335 255 125 0
-0.112042 0.048327 0.009401 255 125 0
-0.091533 0.070221 -0.006324 255 125 0
-0.093459 0.138735 -0.061335 255 125 0
-0.064206 -0.038688 -0.060430 255 125 0
-0.065813 0.062571 -0.008241 255 125 0
-0.124547 0.050184 -0.021335 255 125 0
-0.060265 0.037148 -0.049335 255 125 0
-0.100752 -0.015704 -0.065335 255 125 0
-0.078598 0.112045 -0.005335 255 125 0
-0.069777 0.102489 -0.041335 255 125 0
-0.068948 0.011247 -0.058317 255 125 0
-0.093723 0.031249 -0.005335 255 125 0
-0.107170 0.089803 0.005458 255 125 0
-0.172294 0.027549 -0.047335 255 125 0
-0.033962 -0.002893 -0.051821 255 125 0
-0.105026 0.002855 -0.041335 255 125 0
-0.126405 0.072195 -0.030200 255 125 0
-0.125716 0.033731 -0.056289 255 125 0
-0.004722 0.067251 -0.047335 255 125 0
-0.139439 0.007901 -0.059335 255 125 0
-0.066151 0.018417 -0.021335 255 125 0
-0.115085 0.146207 -0.065335 255 125 0
-0.065550 0.036217 -0.001335 255 125 0
-0.026079 0.033022 -0.056197 255 125 0
-0.053658 -0.006366 -0.062140 255 125 0
-0.044609 0.080526 -0.056008 255 125 0
-0.075428 0.071030 0.010931 255 125 0
-0.064179 0.087859 -0.023335 255 125 0
-0.017603 0.100131 -0.043335 255 125 0
-0.089572 0.001518 -0.056293 255 125 0
-0.107637 0.069413 0.011472 255 125 0
-0.083507 -0.032879 -0.067335 255 125 0
-0.046148 0.123808 -0.057335 255 125 0
-0.054667 0.054382 -0.039335 255 125 0
-0.208157 0.108552 -0.049335 255 125 0
-0.089791 0.094898 -0.003987 255 125 0
-0.115230 0.089441 -0.013335 255 125 0
-0.130240 -0.009714 -0.055499 255 125 0
-0.104168 0.015191 0.001754 255 125 0
-0.020398 0.058393 -0.056325 255 125 0
-0.149328 0.104709 -0.057335 255 125 0
-0.158474 0.012193 -0.047335 255 125 0
-0.124166 0.076652 -0.049335 255 125 0
-0.121072 0.099537 -0.052327 255 125 0
-0.096285 0.051106 -0.004033 255 125 0
-0.079968 0.004635 -0.017335 255 125 0
-0.062247 0.019310 -0.041335 255 125 0
-0.161977 0.043584 -0.052054 255 125 0
-0.139964 0.045434 -0.051585 255 125 0
-0.126976 0.133021 -0.058374 255 125 0
-0.162602 0.127749 -0.051335 255 125 0
-0.114318 0.015164 -0.023335 255 125 0
-0.057144 0.145334 -0.059335 255 125 0
-0.125418 0.039876 -0.037335 255 125 0
-0.114949 -0.027327 -0.058692 255 125 0
-0.059580 0.065701 -0.025335 255 125 0
-0.031283 0.097091 -0.056291 255 125 0
-0.112370 0.044208 -0.009335 255 125 0
-0.122660 0.016407 -0.049335 255 125 0
-0.153746 0.077529 -0.058320 255 125 0
-0.150551 0.140028 -0.055335 255 125 0
-0.064319 0.111686 -0.055335 255 125 0
-0.104404 0.031397 0.008665 255 125 0
-0.052959 0.064838 -0.053335 255 125 0
-0.042877 0.036152 -0.052636 255 125 0
-0.080647 0.031523 0.006099 255 125 0
-0.131382 0.111935 -0.060128 255 125 0
-0.059264 0.090127 -0.051335 255 125 0
-0.056788 -0.023164 -0.059372 255 125 0
-0.134241 0.064721 -0.057335 255 125 0
-0.145189 -0.020474 -0.053335 255 125 0
-0.030832 0.013907 -0.050029 255 125 0
-0.115059 0.035610 -0.023335 255 125 0
-0.097735 0.013258 -0.029335 255 125 0
-0.110463 0.108476 -0.037335 255 125 0
-0.085729 0.152479 -0.066324 255 125 0
-0.163119 0.063691 -0.047335 255 125 0
-0.008184 0.086949 -0.047335 255 125 0
-0.015189 0.028849 -0.044655 255 125 0
-0.034299 0.068128 -0.053043 255 125 0
-0.036031 0.112501 -0.050498 255 125 0
-0.108555 0.132207 -0.059567 255 125 0
-0.113788 -0.010875 -0.057134 255 125 0
-0.107132 0.014668 -0.053335 255 125 0
-0.081110 0.045658 -0.006294 255 125 0
-0.091023 0.015478 -0.007335 255 125 0
-0.162782 0.094214 -0.054329 255 125 0
-0.074743 -0.001961 -0.051524 255 125 0
-0.110015 0.059861 -0.001335 255 125 0
-0.054119 0.007769 -0.054599 255 125 0
-0.085390 0.081458 0.002741 255 125 0
-0.058868 0.023178 -0.056238 255 125 0
-0.067894 0.051340 0.002665 255 125 0
-0.073962 0.143337 -0.059335 255 125 0
-0.118243 0.065511 -0.019335 255 125 0
-0.088764 -0.014586 -0.056162 255 125 0
-0.135918 0.022490 -0.053335 255 125 0
-0.067122 0.029847 -0.031335 255 125 0
-0.064333 0.077211 -0.011335 255 125 0
-0.105210 0.021099 -0.012316 255 125 0
-0.111571 0.103243 -0.018012 255 125 0
-0.079947 0.062109 -0.000228 255 125 0
-0.028509 0.046809 -0.050991 255 125 0
-0.098834 0.083149 -0.005335 255 125 0
-0.064776 0.022137 -0.006836 255 125 0
-0.034870 0.128953 -0.048982 255 125 0
-0.089091 -0.001214 -0.041335 255 125 0
-0.174242 0.096255 -0.045335 255 125 0
-0.067147 0.047101 -0.011335 255 125 0
-0.113585 0.160734 -0.065335 255 125 0
-0.121221 0.058894 -0.033335 255 125 0
-0.101832 0.151670 -0.062621 255 125 0
-0.103360 -0.000913 -0.060204 255 125 0
-0.041260 0.003944 -0.062328 255 125 0
-0.072238 0.099003 -0.011335 255 125 0
-0.154437 0.115993 -0.049954 255 125 0
-0.208036 0.122789 -0.051335 255 125 0
-0.070270 0.007223 -0.041335 255 125 0
-0.062572 0.090255 -0.037335 255 125 0
-0.020175 -0.000461 -0.054215 255 125 0
-0.112907 0.099299 -0.003335 255 125 0
-0.121658 0.056786 -0.008895 255 125 0
-0.089672 0.002086 -0.027335 255 125 0
-0.096435 -0.028665 -0.061335 255 125 0
-0.040269 -0.013192 -0.059335 255 125 0
-0.113870 0.012628 -0.037335 255 125 0
-0.123315 0.084926 -0.025335 255 125 0
-0.014141 0.057467 -0.044122 255 125 0
-0.015221 0.075106 -0.043335 255 125 0
-0.139265 0.076021 -0.051488 255 125 0
-0.126013 0.090542 -0.043335 255 125 0
-0.115898 0.035644 0.000665 255 125 0
-0.084043 0.165956 -0.065335 255 125 0
-0.081575 0.025267 -0.006221 255 125 0
-0.118756 -0.040290 -0.059335 255 125 0
-0.149921 0.090389 -0.052709 255 125 0
-0.050870 0.046928 -0.049876 255 125 0
-0.072198 -0.027913 -0.061224 255 125 0
-0.143289 -0.004817 -0.057335 255 125 0
-0.172025 0.041813 -0.043335 255 125 0
-0.066517 -0.002540 -0.062218 255 125 0
-0.055915 0.040990 -0.037335 255 125 0
-0.092222 0.108686 -0.004502 255 125 0
-0.116928 0.084021 -0.001335 255 125 0
-0.095422 0.011656 -0.043335 255 125 0
-0.067352 0.031836 -0.015335 255 125 0
-0.059027 0.053614 -0.019335 255 125 0
-0.129201 0.065610 -0.041335 255 125 0
-0.050307 0.135877 -0.053335 255 125 0
-0.099824 0.044389 0.006665 255 125 0
-0.124712 0.027815 -0.043335 255 125 0
-0.159199 0.027827 -0.047885 255 125 0
-0.067736 0.073479 0.000665 255 125 0
-0.176315 0.073549 -0.045335 255 125 0
-0.146920 0.015776 -0.052084 255 125 0
-0.122941 -0.016551 -0.064314 255 125 0
-0.077869 0.015766 -0.026338 255 125 0
-0.126762 0.005114 -0.054461 255 125 0
-0.102107 0.058203 0.008665 255 125 0
-0.087803 0.003002 -0.007335 255 125 0
-0.119743 0.080479 -0.037335 255 125 0
-0.137524 0.100698 -0.054406 255 125 0
-0.029814 -0.014896 -0.051335 255 125 0
-0.080766 0.009163 -0.050330 255 125 0
-0.120212 0.042825 -0.049335 255 125 0
-0.078121 0.097815 0.000665 255 125 0
-0.072188 0.041138 0.008761 255 125 0
-0.138213 0.139162 -0.057892 255 125 0
-0.122571 0.154106 -0.058982 255 125 0
-0.021080 0.021718 -0.053335 255 125 0
-0.207964 0.108586 -0.061807 255 125 0
-0.074382 0.119955 -0.055335 255 125 0
-0.024279 0.108481 -0.051335 255 125 0
-0.101148 0.078680 0.006025 255 125 0
-0.090359 0.011533 -0.019335 255 125 0
-0.151475 0.047466 -0.057335 255 125 0
-0.090007 -0.042091 -0.061335 255 125 0
-0.070832 0.010410 -0.011335 255 125 0
-0.137880 0.033617 -0.058161 255 125 0
-0.074843 0.083318 0.008665 255 125 0
-0.106014 0.031113 -0.005335 255 125 0
-0.111693 0.000280 -0.051335 255 125 0
-0.123160 0.076830 -0.016179 255 125 0
-0.063090 0.077267 -0.029335 255 125 0
-0.112524 0.108649 -0.049335 255 125 0
-0.050885 -0.033611 -0.057335 255 125 0
-0.118641 0.024825 -0.029335 255 125 0
-0.034801 0.024899 -0.053335 255 125 0
-0.073633 0.020576 -0.037335 255 125 0
-0.017619 0.042637 -0.054288 255 125 0
-0.131158 0.053080 -0.056323 255 125 0
-0.116645 0.045485 -0.031335 255 125 0
-0.162091 0.055749 -0.056293 255 125 0
-0.042754 0.093039 -0.058311 255 125 0
-0.073020 0.059269 0.010665 255 125 0
-0.148775 0.003264 -0.050359 255 125 0
-0.101028 0.101040 -0.001685 255 125 0
-0.110301 0.073004 -0.000249 255 125 0
-0.016226 0.069283 -0.054299 255 125 0
-0.126876 0.017279 -0.060311 255 125 0
-0.062614 0.050950 -0.031335 255 125 0
-0.098890 -0.003230 -0.049335 255 125 0
-0.085563 -0.021219 -0.065335 255 125 0
-0.058159 0.122816 -0.056574 255 125 0
-0.055165 0.078664 -0.051335 255 125 0
-0.060067 0.064537 -0.037335 255 125 0
-0.033334 0.085688 -0.057335 255 125 0
-0.108412 0.010380 -0.009335 255 125 0
-0.071380 0.025034 0.003770 255 125 0
-0.080477 -0.003994 -0.061335 255 125 0
-0.021402 0.092741 -0.051335 255 125 0
-0.124892 0.121203 -0.057968 255 125 0
-0.121703 0.040531 -0.015335 255 125 0
-0.113783 0.023650 -0.050275 255 125 0
-0.106547 0.022895 -0.029335 255 125 0
-0.123056 -0.004386 -0.064324 255 125 0
-0.042287 0.113429 -0.060320 255 125 0
-0.064007 -0.014283 -0.059335 255 125 0
-0.158261 0.103134 -0.048551 255 125 0
-0.098597 0.006626 -0.003335 255 125 0
-0.130828 0.038922 -0.047335 255 125 0
-0.062564 0.101730 -0.050075 255 125 0
-0.164144 0.073664 -0.053335 255 125 0
-0.090567 0.041713 -0.001335 255 125 0
-0.106078 0.006731 -0.025335 255 125 0
-0.057391 0.029532 -0.041335 255 125 0
-0.070158 0.018108 -0.049335 255 125 0
-0.080820 0.015246 -0.013335 255 125 0
-0.106029 -0.031847 -0.066277 255 125 0
-0.098432 0.066974 0.002665 255 125 0
-0.118056 0.128501 -0.064293 255 125 0
-0.150731 0.129531 -0.051335 255 125 0
-0.069340 0.088351 -0.013335 255 125 0
-0.143894 0.113791 -0.053512 255 125 0
-0.126866 0.086330 -0.054266 255 125 0
-0.137077 -0.017013 -0.060304 255 125 0
-0.110487 0.024231 0.002665 255 125 0
-0.076034 0.005936 -0.031335 255 125 0
-0.165684 0.053085 -0.046146 255 125 0
-0.117133 0.100231 -0.042106 255 125 0
-0.049714 0.028855 -0.058268 255 125 0
-0.052482 0.113662 -0.054718 255 125 0
-0.098651 0.006937 -0.053335 255 125 0
-0.117713 0.049358 -0.001335 255 125 0
-0.160794 0.002323 -0.051335 255 125 0
-0.167658 0.018212 -0.044190 255 125 0
-0.126743 0.143216 -0.062175 255 125 0
-0.104035 0.141128 -0.064171 255 125 0
-0.144132 0.069070 -0.058279 255 125 0
-0.076448 0.036326 -0.003335 255 125 0
-0.094092 -0.007403 -0.062287 255 125 0
-0.063273 0.002094 -0.052982 255 125 0
-0.024799 0.071834 -0.048229 255 125 0
-0.074970 -0.038555 -0.061335 255 125 0
-0.109972 0.030414 -0.015335 255 125 0
-0.154327 0.069303 -0.051433 255 125 0
-0.140078 0.057599 -0.051803 255 125 0
-0.056947 0.133184 -0.061335 255 125 0
-0.133813 0.125722 -0.062261 255 125 0
-0.103541 0.017333 -0.039335 255 125 0
-0.033481 0.121075 -0.056331 255 125 0
-0.033148 0.015529 -0.060306 255 125 0
-0.125839 -0.023154 -0.056466 255 125 0
-0.019004 0.085041 -0.043876 255 125 0
-0.128738 0.050873 -0.039335 255 125 0
-0.040332 0.010201 -0.053862 255 125 0
-0.036274 0.033255 -0.060311 255 125 0
-0.067489 0.014487 -0.031335 255 125 0
-0.080744 0.072123 -0.003335 255 125 0
-0.152923 0.038306 -0.051335 255 125 0
-0.086944 0.055719 -0.005335 255 125 0
-0.117384 0.096125 -0.023335 255 125 0
-0.115867 0.035468 -0.034316 255 125 0
-0.029974 0.058736 -0.051335 255 125 0
-0.110082 -0.020376 -0.066253 255 125 0
-0.116333 0.015077 -0.058297 255 125 0
-0.127695 -0.035667 -0.056509 255 125 0
-0.108251 0.042903 0.000665 255 125 0
-0.036041 0.043450 -0.058261 255 125 0
-0.046127 -0.003007 -0.055827 255 125 0
-0.172690 0.064035 -0.051335 255 125 0
-0.027011 -0.007760 -0.058324 255 125 0
-0.011131 0.051904 -0.052334 255 125 0
-0.049952 -0.015866 -0.056671 255 125 0
-0.023533 0.007070 -0.047570 255 125 0
-0.040868 0.133988 -0.057335 255 125 0
-0.061440 0.053188 -0.005335 255 125 0
-0.072818 0.021678 -0.013335 255 125 0
-0.159780 0.019602 -0.054320 255 125 0
-0.115007 0.017342 -0.013335 255 125 0
-0.100051 0.014876 -0.019335 255 125 0
-0.101623 -0.010762 -0.055732 255 125 0
-0.115771 0.009083 -0.047335 255 125 0
-0.097982 0.002065 -0.033335 255 125 0
-0.098022 0.060954 -0.006255 255 125 0
-0.121439 0.111657 -0.053335 255 125 0
-0.061144 0.013058 -0.049335 255 125 0
-0.065641 0.027041 -0.047335 255 125 0
-0.038581 0.103929 -0.058317 255 125 0
-0.060761 0.154851 -0.059335 255 125 0
-0.128603 0.096179 -0.058271 255 125 0
-0.097332 0.022489 -0.000058 255 125 0
-0.043453 0.062452 -0.056023 255 125 0
-0.111690 0.080882 0.007167 255 125 0
-0.063625 -0.030462 -0.066334 255 125 0
-0.112364 0.058424 0.008665 255 125 0
-0.114328 0.078387 -0.009335 255 125 0
-0.029442 0.006028 -0.056227 255 125 0
-0.084244 -0.005667 -0.051585 255 125 0
-0.084115 0.085745 -0.006321 255 125 0
-0.160004 0.084549 -0.053335 255 125 0
-0.079377 0.001285 -0.042515 255 125 0
-0.124179 0.040095 -0.027335 255 125 0
-0.061117 0.028874 -0.023335 255 125 0
-0.078472 0.134360 -0.059335 255 125 0
-0.065079 0.139028 -0.061335 255 125 0
-0.116074 0.053708 -0.017335 255 125 0
-0.118389 0.024869 -0.019335 255 125 0
-0.129421 0.043231 -0.056292 255 125 0
-0.118560 0.032961 -0.049335 255 125 0
-0.015883 0.032790 -0.054308 255 125 0
-0.126366 0.066110 -0.051335 255 125 0
-0.165100 0.118881 -0.047335 255 125 0
-0.117822 0.138696 -0.059340 255 125 0
-0.059681 0.004757 -0.062322 255 125 0
-0.065448 0.066697 -0.017335 255 125 0
-0.137403 -0.026681 -0.053335 255 125 0
-0.046593 -0.023397 -0.062250 255 125 0
-0.084379 0.071483 0.006665 255 125 0
-0.115877 -0.033583 -0.066328 255 125 0
-0.144246 0.081235 -0.058255 255 125 0
-0.099468 0.040390 -0.005335 255 125 0
-0.056368 0.055077 -0.049335 255 125 0
-0.133946 -0.000214 -0.060282 255 125 0
-0.026937 0.099888 -0.047335 255 125 0
-0.053539 0.015995 -0.060319 255 125 0
-0.026074 0.067548 -0.058287 255 125 0
-0.069132 0.064016 0.002665 255 125 0
-0.046235 0.072116 -0.051335 255 125 0
-0.121146 0.071093 -0.041335 255 125 0
-0.169965 0.088885 -0.050250 255 125 0
-0.051296 0.032638 -0.049335 255 125 0
-0.034032 0.078130 -0.051335 255 125 0
-0.103398 0.091442 -0.003335 255 125 0
-0.125495 0.062202 -0.025335 255 125 0
-0.018662 0.048546 -0.046732 255 125 0
-0.106544 0.122408 -0.055335 255 125 0
-0.049937 0.087710 -0.052434 255 125 0
-0.080871 0.090379 0.006135 255 125 0
-0.099543 0.129734 -0.057335 255 125 0
-0.171706 0.064208 -0.041782 255 125 0
-0.141359 0.018788 -0.060301 255 125 0
-0.119963 0.020530 -0.039335 255 125 0
-0.166140 0.101745 -0.043309 255 125 0
-0.091056 0.159662 -0.062790 255 125 0
-0.166497 0.034664 -0.049992 255 125 0
-0.131038 0.075440 -0.056293 255 125 0
-0.116193 0.065872 0.002665 255 125 0
-0.082446 0.041361 0.004665 255 125 0
-0.088355 0.011887 -0.029335 255 125 0
-0.120025 -0.001821 -0.055335 255 125 0
-0.085053 0.010438 -0.001982 255 125 0
-0.063615 0.038589 -0.032316 255 125 0
-0.145179 0.040453 -0.058209 255 125 0
-0.114821 0.064084 -0.008297 255 125 0
-0.078178 0.006005 -0.007335 255 125 0
-0.050295 0.020629 -0.052630 255 125 0
-0.011262 0.023449 -0.051335 255 125 0
-0.078032 0.051241 0.000665 255 125 0
-0.119921 0.046938 -0.040285 255 125 0
-0.077502 0.151898 -0.061069 255 125 0
-0.108227 -0.007865 -0.064290 255 125 0
-0.122010 0.024230 -0.056285 255 125 0
-0.061656 0.038992 -0.013335 255 125 0
-0.089731 0.002419 -0.017335 255 125 0
-0.110512 0.038442 0.008665 255 125 0
-0.076477 0.013981 -0.043335 255 125 0
-0.119064 0.076631 -0.025335 255 125 0
-0.073636 0.003281 -0.059335 255 125 0
-0.146344 -0.010523 -0.050668 255 125 0
-0.083978 0.102016 -0.005335 255 125 0
-0.068929 0.149348 -0.064309 255 125 0
-0.071886 0.027907 -0.005335 255 125 0
-0.097692 0.036052 0.002665 255 125 0
-0.058922 0.046521 -0.045335 255 125 0
-0.085172 -0.011922 -0.064242 255 125 0
-0.071385 -0.009492 -0.056556 255 125 0
-0.029552 0.052718 -0.058314 255 125 0
-0.049893 0.150674 -0.057335 255 125 0
-0.072778 0.009929 -0.021335 255 125 0
-0.057184 0.105771 -0.057335 255 125 0
-0.030241 0.091183 -0.049255 255 125 0
-0.053648 0.062685 -0.043668 255 125 0
-0.093751 0.147002 -0.065335 255 125 0
-0.085282 0.034768 -0.006196 255 125 0
-0.019471 0.064650 -0.046194 255 125 0
-0.070735 0.044414 -0.003335 255 125 0
-0.013676 0.077857 -0.052290 255 125 0
-0.100105 0.072771 -0.004234 255 125 0
-0.154451 0.012417 -0.056307 255 125 0
-0.079843 -0.019106 -0.058450 255 125 0
-0.132872 0.052778 -0.047335 255 125 0
-0.144708 0.095370 -0.058312 255 125 0
-0.211350 0.116113 -0.045335 255 125 0
-0.155488 0.052851 -0.050694 255 125 0
-0.116741 0.045467 -0.021335 255 125 0
-0.056906 0.058124 -0.031335 255 125 0
-0.142976 0.050996 -0.058142 255 125 0
-0.055613 0.096863 -0.056329 255 125 0
-0.128277 0.077958 -0.041335 255 125 0
-0.175004 0.082910 -0.045335 255 125 0
-0.132421 0.071761 -0.047335 255 125 0
-0.097989 0.003184 -0.023335 255 125 0
-0.022139 0.033717 -0.047852 255 125 0
-0.065690 0.119457 -0.060269 255 125 0
-0.082308 0.144597 -0.063335 255 125 0
-0.070503 0.054610 -0.005335 255 125 0
-0.023597 0.013150 -0.055335 255 125 0
-0.209931 0.116362 -0.057335 255 125 0
-0.108689 0.006271 -0.058243 255 125 0
-0.113084 0.054236 -0.008317 255 125 0
-0.060417 0.073677 -0.021335 255 125 0
-0.132438 0.014268 -0.053935 255 125 0
-0.103479 -0.023274 -0.060162 255 125 0
-0.039281 0.073342 -0.058335 255 125 0
-0.051108 0.002208 -0.062310 255 125 0
-0.095139 -0.036019 -0.066237 255 125 0
-0.017610 0.111687 -0.046350 255 125 0
-0.067331 -0.020961 -0.064222 255 125 0
-0.041360 0.119685 -0.051069 255 125 0
-0.152249 0.022960 -0.050549 255 125 0
-0.115703 0.102514 -0.033335 255 125 0
-0.126391 0.047827 -0.031335 255 125 0
-0.092921 0.078100 -0.001096 255 125 0
-0.011592 0.066039 -0.041911 255 125 0
-0.059135 0.084057 -0.043335 255 125 0
-0.123619 0.058471 -0.017335 255 125 0
-0.103448 0.051873 0.002665 255 125 0
-0.094611 -0.021710 -0.067335 255 125 0
-0.145237 0.132922 -0.057335 255 125 0
-0.009350 0.035971 -0.049335 255 125 0
-0.128380 0.104342 -0.053335 255 125 0
-0.130404 0.025769 -0.059335 255 125 0
-0.088521 0.064659 -0.000229 255 125 0
-0.031164 0.119452 -0.046756 255 125 0
-0.077831 -0.024843 -0.067335 255 125 0
-0.011902 0.061923 -0.051335 255 125 0
-0.140699 0.107187 -0.059335 255 125 0
-0.122996 -0.027761 -0.063335 255 125 0
-0.136761 0.130930 -0.055335 255 125 0
-0.137771 -0.013073 -0.052553 255 125 0
-0.122699 0.048479 -0.011335 255 125 0
-0.057876 0.070063 -0.047335 255 125 0
-0.131277 0.030719 -0.050298 255 125 0
-0.167251 0.071085 -0.045335 255 125 0
-0.111261 0.018003 -0.003335 255 125 0
-0.123689 0.068613 -0.013335 255 125 0
-0.134465 0.083350 -0.051335 255 125 0
-0.056898 0.023527 -0.047572 255 125 0
-0.159541 0.064322 -0.056249 255 125 0
-0.070733 0.078959 -0.005335 255 125 0
-0.123051 0.030140 -0.035162 255 125 0
-0.157153 0.108366 -0.055335 255 125 0
-0.059338 -0.031737 -0.058836 255 125 0
-0.119295 0.040955 -0.005335 255 125 0
-0.083663 0.002560 -0.033502 255 125 0
-0.087935 0.022115 -0.001335 255 125 0
-0.025041 -0.007412 -0.049946 255 125 0
-0.153114 0.096971 -0.057335 255 125 0
-0.088456 0.006705 -0.047335 255 125 0
-0.046351 0.055849 -0.051332 255 125 0
-0.034880 0.059902 -0.058304 255 125 0
-0.079780 0.023553 0.002665 255 125 0
-0.085162 0.057128 0.004452 255 125 0
-0.012515 0.094308 -0.048207 255 125 0
-0.087138 0.048657 0.002665 255 125 0
-0.136710 0.119119 -0.056899 255 125 0
-0.105191 0.159201 -0.066129 255 125 0
-0.044482 0.045255 -0.055335 255 125 0
-0.063450 0.022371 -0.033335 255 125 0
-0.033338 0.137346 -0.053335 255 125 0
-0.166558 0.092596 -0.043335 255 125 0
-0.028282 0.022479 -0.058319 255 125 0
-0.086333 -0.028374 -0.060656 255 125 0
-0.021900 0.050006 -0.055335 255 125 0
-0.037282 -0.018615 -0.053335 255 125 0
-0.062418 0.043320 -0.005335 255 125 0
-0.080296 0.064079 0.010164 255 125 0
-0.005400 0.059008 -0.045335 255 125 0
-0.107527 0.022722 -0.020339 255 125 0
-0.037901 -0.003588 -0.060292 255 125 0
-0.118415 0.055326 -0.025335 255 125 0
-0.096271 0.154681 -0.068287 255 125 0
-0.034295 0.102653 -0.050537 255 125 0
-0.096295 -0.017945 -0.058132 255 125 0
-0.114344 0.153526 -0.060982 255 125 0
-0.151191 0.120627 -0.056234 255 125 0
-0.053768 0.040325 -0.054274 255 125 0
-0.043235 0.026665 -0.053335 255 125 0
-0.070849 0.022026 -0.027335 255 125 0
-0.077859 0.084817 -0.000334 255 125 0
-0.031060 0.038237 -0.051840 255 125 0
-0.117363 0.083944 -0.019335 255 125 0
-0.070799 0.033259 0.005429 255 125 0
-0.117713 0.092006 -0.005723 255 125 0
-0.027007 0.026766 -0.050224 255 125 0
-0.138108 0.057947 -0.060334 255 125 0
-0.019361 0.017960 -0.046073 255 125 0
-0.110895 -0.038798 -0.061729 255 125 0
-0.125140 0.007432 -0.062318 255 125 0
-0.099265 0.016056 -0.009335 255 125 0
-0.111906 0.030074 -0.029335 255 125 0
-0.121087 0.083287 -0.011335 255 125 0
-0.064212 0.030453 -0.007335 255 125 0
-0.076922 0.160124 -0.066219 255 125 0
-0.122948 0.087145 -0.033335 255 125 0
-0.097348 -0.000453 -0.041335 255 125 0
-0.076123 0.074969 0.003671 255 125 0
-0.063081 0.035558 -0.041335 255 125 0
-0.119637 0.068365 -0.027335 255 125 0
-0.114733 0.098144 -0.011335 255 125 0
-0.170550 0.046133 -0.050248 255 125 0
-0.109922 0.018238 -0.045335 255 125 0
-0.122014 -0.010295 -0.057884 255 125 0
-0.166140 0.101745 -0.052331 255 125 0
-0.107449 0.008520 -0.017335 255 125 0
-0.007239 0.075907 -0.045335 255 125 0
-0.114369 -0.019101 -0.059161 255 125 0
-0.027463 0.075426 -0.056162 255 125 0
-0.092342 0.086326 -0.000789 255 125 0
-0.127918 0.023188 -0.050558 255 125 0
-0.121385 0.060896 -0.041335 255 125 0
-0.081822 0.003634 -0.025335 255 125 0
-0.113335 0.037945 -0.015335 255 125 0
-0.119942 0.032718 -0.017335 255 125 0
-0.061417 0.014606 -0.058269 255 125 0
-0.067612 0.026704 -0.039335 255 125 0
-0.065176 0.047438 -0.019335 255 125 0
-0.027815 0.042871 -0.058334 255 125 0
-0.129444 0.152894 -0.063335 255 125 0
-0.063247 0.094087 -0.045335 255 125 0
-0.064111 0.024285 -0.015335 255 125 0
-0.132547 0.060958 -0.048010 255 125 0
-0.064772 0.056662 -0.014324 255 125 0
-0.046588 0.011128 -0.060199 255 125 0
-0.073578 0.049017 0.010521 255 125 0
-0.118184 0.037090 -0.042293 255 125 0
-0.086665 0.077171 -0.006261 255 125 0
-0.104163 0.049717 0.011055 255 125 0
-0.140996 0.002604 -0.053335 255 125 0
-0.106942 0.065473 0.003719 255 125 0
-0.043910 0.111112 -0.052676 255 125 0
-0.147143 0.074631 -0.052982 255 125 0
-0.069524 0.037546 -0.008298 255 125 0
-0.017197 0.040681 -0.045335 255 125 0
-0.151325 -0.005309 -0.056303 255 125 0
-0.015235 0.086700 -0.051335 255 125 0
-0.025836 0.112268 -0.044338 255 125 0
-0.117718 0.057480 -0.000504 255 125 0
-0.079190 -0.011294 -0.055335 255 125 0
-0.068071 0.070297 -0.007335 255 125 0
-0.022021 0.056077 -0.048738 255 125 0
-0.144181 0.023280 -0.053335 255 125 0
-0.031050 0.107287 -0.056303 255 125 0
-0.156900 0.032294 -0.055335 255 125 0
-0.117347 0.124486 -0.057335 255 125 0
-0.059914 -0.005437 -0.057141 255 125 0
-0.121813 0.032388 -0.027335 255 125 0
-0.093815 -0.008977 -0.053335 255 125 0
-0.106828 0.007236 -0.033335 255 125 0
-0.157686 0.076834 -0.049728 255 125 0
-0.156513 0.095319 -0.049335 255 125 0
-0.173215 0.049726 -0.042516 255 125 0
-0.093388 0.057709 -0.000544 255 125 0
-0.081694 0.002907 -0.056262 255 125 0
-0.115178 -0.002997 -0.064328 255 125 0
-0.137300 0.041843 -0.058210 255 125 0
-0.058685 0.071951 -0.033335 255 125 0
-0.138289 0.068069 -0.051335 255 125 0
-0.064999 0.080992 -0.018317 255 125 0
-0.058739 0.114590 -0.060193 255 125 0
-0.155825 0.123872 -0.049076 255 125 0
-0.057207 -0.015115 -0.063335 255 125 0
-0.095943 0.014611 -0.001182 255 125 0
-0.136496 -0.008787 -0.060271 255 125 0
-0.026530 0.116207 -0.052302 255 125 0
-0.053768 0.040325 -0.046190 255 125 0
-0.093088 0.009943 -0.035335 255 125 0
-0.150502 0.082162 -0.052829 255 125 0
-0.144136 0.034544 -0.053045 255 125 0
-0.051783 0.144248 -0.053188 255 125 0
-0.122232 0.083086 -0.044325 255 125 0
-0.058287 0.031405 -0.054327 255 125 0
-0.085985 0.113847 -0.007335 255 125 0
-0.072997 0.057243 0.001743 255 125 0
-0.039736 -0.007972 -0.053335 255 125 0
-0.028083 0.125017 -0.051335 255 125 0
-0.147376 0.064437 -0.052860 255 125 0
-0.080756 0.078214 0.009058 255 125 0
-0.027095 0.000349 -0.049335 255 125 0
-0.039395 0.085508 -0.052427 255 125 0
-0.133818 0.091197 -0.051875 255 125 0
-0.107796 0.104868 -0.001335 255 125 0
-0.059719 0.031151 -0.033335 255 125 0
-0.159778 0.110990 -0.047335 255 125 0
-0.115693 0.017221 -0.031335 255 125 0
-0.104988 0.084096 0.000665 255 125 0
-0.042150 0.127669 -0.051335 255 125 0
-0.065694 0.084932 -0.007358 255 125 0
-0.147610 0.054241 -0.052853 255 125 0
-0.127196 0.065167 -0.033335 255 125 0
-0.065694 0.084932 -0.030330 255 125 0
-0.113689 0.072407 0.006665 255 125 0
-0.111566 0.137769 -0.063997 255 125 0
-0.069830 0.016250 -0.005335 255 125 0
-0.023752 0.100450 -0.054329 255 125 0
-0.065119 0.058632 -0.001097 255 125 0
-0.082321 -0.039609 -0.063335 255 125 0
-0.116042 0.071016 -0.011335 255 125 0
-0.092871 -0.014331 -0.065335 255 125 0
-0.061061 0.081687 -0.036315 255 125 0
-0.106388 0.096885 0.002665 255 125 0
-0.119539 0.073407 -0.033335 255 125 0
-0.037611 0.017805 -0.053335 255 125 0
-0.173602 0.035442 -0.047335 255 125 0
-0.064406 -0.026031 -0.059335 255 125 0
-0.118769 0.091820 -0.041335 255 125 0
-0.115410 -0.013192 -0.064207 255 125 0
-0.112996 0.090807 0.000665 255 125 0
-0.071403 0.134696 -0.063335 255 125 0
-0.047150 0.141003 -0.058277 255 125 0
-0.103174 0.023489 0.004665 255 125 0
-0.164994 0.014621 -0.050335 255 125 0
-0.126286 0.094556 -0.049750 255 125 0
-0.046901 -0.010136 -0.061335 255 125 0
-0.090456 -0.028028 -0.067335 255 125 0
-0.094772 0.100113 -0.006257 255 125 0
-0.066406 0.042899 0.002665 255 125 0
-0.106698 -0.005015 -0.053335 255 125 0
-0.102609 0.023589 -0.005335 255 125 0
-0.125299 0.048021 -0.051335 255 125 0
-0.077393 0.105207 -0.002399 255 125 0
-0.108757 0.150449 -0.065335 255 125 0
-0.140912 -0.023782 -0.059335 255 125 0
-0.106838 -0.015743 -0.057901 255 125 0
-0.115287 0.043693 0.003219 255 125 0
-0.168539 0.057763 -0.051335 255 125 0
-0.035112 0.049707 -0.053116 255 125 0
-0.075443 -0.032546 -0.066175 255 125 0
-0.066285 0.007655 -0.048397 255 125 0
-0.089682 0.048208 -0.006139 255 125 0
-0.068722 0.027534 -0.021335 255 125 0
-0.074277 0.018431 -0.020308 255 125 0
-0.123974 0.069928 -0.021335 255 125 0
-0.061790 0.069373 -0.011335 255 125 0
-0.081218 0.092348 -0.004251 255 125 0
-0.066265 0.145757 -0.058240 255 125 0
-0.132443 -0.020257 -0.054411 255 125 0
-0.084234 0.063384 -0.006244 255 125 0
-0.131743 0.010329 -0.060272 255 125 0
-0.170741 0.076563 -0.049335 255 125 0
-0.166383 0.022499 -0.050202 255 125 0
-0.059830 0.047379 -0.037335 255 125 0
-0.136021 0.080654 -0.058295 255 125 0
-0.101678 0.012582 -0.047335 255 125 0
-0.038462 0.126288 -0.058321 255 125 0
-0.065043 0.035167 -0.025335 255 125 0
-0.110420 0.050644 -0.002268 255 125 0
-0.052012 0.127961 -0.055335 255 125 0
-0.071088 0.080965 0.002665 255 125 0
-0.109432 0.038633 -0.005335 255 125 0
-0.028852 0.083305 -0.049933 255 125 0
-0.057956 0.139099 -0.055335 255 125 0
-0.147703 0.008701 -0.055335 255 125 0
-0.123384 0.135685 -0.064313 255 125 0
-0.093392 0.023183 -0.006317 255 125 0
-0.039509 0.097672 -0.052317 255 125 0
-0.119212 0.146575 -0.059174 255 125 0
-0.127914 0.057714 -0.036571 255 125 0
-0.154942 0.000146 -0.047335 255 125 0
-0.061395 0.057258 -0.025335 255 125 0
-0.138629 0.026346 -0.059335 255 125 0
-0.102875 0.060098 0.000665 255 125 0
-0.084239 0.028859 0.000098 255 125 0
-0.160346 0.114951 -0.054297 255 125 0
-0.083247 0.011713 -0.021335 255 125 0
-0.103604 0.017321 -0.025335 255 125 0
-0.073544 0.094895 -0.005335 255 125 0
-0.040912 0.001975 -0.054224 255 125 0
-0.140316 0.012879 -0.053656 255 125 0
-0.115336 0.029469 -0.003335 255 125 0
-0.060410 0.061493 -0.019335 255 125 0
-0.131377 0.146461 -0.056915 255 125 0
-0.151795 0.101013 -0.051335 255 125 0
-0.078385 0.018690 -0.007335 255 125 0
-0.109602 0.103590 -0.008326 255 125 0
-0.005885 0.050799 -0.047335 255 125 0
-0.129366 -0.014672 -0.061335 255 125 0
-0.050185 -0.026062 -0.056449 255 125 0
-0.019542 0.093069 -0.043335 255 125 0
-0.162276 0.088210 -0.047335 255 125 0
-0.065408 0.019994 -0.055335 255 125 0
-0.091150 0.165739 -0.067335 255 125 0
-0.091314 -0.023160 -0.059453 255 125 0
-0.128261 0.059683 -0.054254 255 125 0
-0.040051 -0.020212 -0.061335 255 125 0
-0.143318 0.087492 -0.053862 255 125 0
-0.087940 0.072886 0.000048 255 125 0
-0.154907 0.061078 -0.051647 255 125 0
-0.023529 0.041595 -0.048834 255 125 0
-0.012401 0.082144 -0.042835 255 125 0
-0.128233 0.071873 -0.037335 255 125 0
-0.151074 0.108463 -0.051335 255 125 0
-0.026651 0.087754 -0.055335 255 125 0
-0.016384 0.006300 -0.053335 255 125 0
-0.039870 0.134272 -0.049335 255 125 0
-0.125377 0.054848 -0.027335 255 125 0
-0.127343 -0.003111 -0.056327 255 125 0
-0.059288 0.048596 -0.025335 255 125 0
-0.073862 -0.006956 -0.063335 255 125 0
-0.117435 0.014882 -0.043335 255 125 0
-0.118837 0.034944 -0.009335 255 125 0
-0.060822 0.126408 -0.062260 255 125 0
-0.065200 0.013018 -0.043335 255 125 0
-0.118536 0.004534 -0.052233 255 125 0
-0.085694 0.089528 0.000665 255 125 0
-0.047516 0.004871 -0.054995 255 125 0
-0.082484 0.157113 -0.061385 255 125 0
-0.116904 0.075902 -0.000492 255 125 0
-0.120163 -0.032308 -0.058480 255 125 0
-0.082156 0.017042 -0.000464 255 125 0
-0.104045 0.072076 0.003869 255 125 0
-0.131957 0.138234 -0.062292 255 125 0
-0.130125 -0.021879 -0.062327 255 125 0
-0.112979 -0.026980 -0.066292 255 125 0
-0.036046 0.008926 -0.060334 255 125 0
-0.032225 -0.012741 -0.058278 255 125 0
-0.044971 -0.021081 -0.055650 255 125 0
-0.054514 0.068625 -0.039335 255 125 0
-0.061359 -0.008759 -0.063335 255 125 0
-0.054699 -0.000457 -0.056711 255 125 0
-0.027780 0.065708 -0.051335 255 125 0
-0.111773 0.086961 -0.005335 255 125 0
-0.133584 0.101392 -0.060325 255 125 0
-0.158886 0.100993 -0.055335 255 125 0
-0.074510 0.008235 -0.054270 255 125 0
-0.087180 0.010986 -0.011335 255 125 0
-0.061466 0.055214 -0.041335 255 125 0
-0.065808 0.097097 -0.038876 255 125 0
-0.066027 0.017712 -0.013335 255 125 0
-0.038644 0.023658 -0.059335 255 125 0
-0.118815 0.052189 -0.033335 255 125 0
-0.028346 0.132134 -0.051335 255 125 0
-0.051207 0.117949 -0.060259 255 125 0
-0.136605 0.037903 -0.051356 255 125 0
-0.145863 0.113444 -0.060331 255 125 0
-0.125934 0.127112 -0.062180 255 125 0
-0.058402 0.043570 -0.031204 255 125 0
-0.017844 0.101493 -0.050296 255 125 0
-0.101004 -0.008621 -0.063335 255 125 0
-0.074158 0.040791 0.001710 255 125 0
-0.152357 0.069650 -0.058234 255 125 0
-0.077684 0.014717 -0.033335 255 125 0
-0.159780 0.019602 -0.047245 255 125 0
-0.114825 0.029558 -0.044334 255 125 0
-0.120158 0.105868 -0.049335 255 125 0
-0.098935 0.158274 -0.062826 255 125 0
-0.036092 0.032225 -0.053335 255 125 0
-0.095006 0.089917 -0.006241 255 125 0
-0.085894 0.036691 0.000665 255 125 0
-0.111689 0.011775 -0.029335 255 125 0
-0.207924 0.122809 -0.059335 255 125 0
-0.010317 0.070326 -0.050306 255 125 0
-0.102822 0.134245 -0.063335 255 125 0
-0.165455 0.028755 -0.044799 255 125 0
-0.071808 -0.018609 -0.059335 255 125 0
-0.021901 0.078438 -0.046939 255 125 0
-0.060766 0.049245 -0.013335 255 125 0
-0.133992 0.005871 -0.055335 255 125 0
-0.165171 0.050178 -0.053335 255 125 0
-0.096503 0.000296 -0.059335 255 125 0
-0.138918 0.074051 -0.058212 255 125 0
-0.093838 0.002675 -0.011335 255 125 0
-0.128490 0.084013 -0.047339 255 125 0
-0.155830 0.089346 -0.056302 255 125 0
-0.165569 0.040920 -0.045867 255 125 0
-0.121424 0.091351 -0.027335 255 125 0
-0.100236 0.108064 -0.003335 255 125 0
-0.143680 -0.014116 -0.056116 255 125 0
-0.073648 0.126177 -0.059335 255 125 0
-0.110444 0.108365 -0.013335 255 125 0
-0.157343 0.040339 -0.056325 255 125 0
-0.105122 0.009083 -0.003335 255 125 0
-0.055846 0.086668 -0.056315 255 125 0
-0.129769 0.045202 -0.044530 255 125 0
-0.139337 0.145536 -0.055335 255 125 0
-0.130628 0.119174 -0.061335 255 125 0
-0.139155 0.029330 -0.052837 255 125 0
-0.102079 0.037899 0.009476 255 125 0
-0.101742 -0.033122 -0.060783 255 125 0
-0.096047 0.095826 -0.000945 255 125 0
-0.134626 0.107301 -0.055975 255 125 0
-0.105677 0.000709 -0.047902 255 125 0
-0.166606 0.081354 -0.052248 255 125 0
-0.120729 0.063042 -0.004817 255 125 0
-0.123678 0.114320 -0.059335 255 125 0
-0.094619 0.012813 -0.013335 255 125 0
-0.171630 0.104838 -0.047335 255 125 0
-0.110794 0.006691 -0.041335 255 125 0
-0.092263 -0.003018 -0.047335 255 125 0
-0.110639 0.144025 -0.060502 255 125 0
-0.152134 0.010795 -0.050003 255 125 0
-0.068488 -0.002888 -0.054299 255 125 0
-0.076703 0.066743 0.003724 255 125 0
-0.053777 -0.028727 -0.062128 255 125 0
-0.130552 -0.028047 -0.055335 255 125 0
-0.137190 -0.004848 -0.054152 255 125 0
-0.077389 0.139733 -0.064084 255 125 0
-0.104050 0.037551 -0.000303 255 125 0
-0.078726 0.042017 0.010665 255 125 0
-0.117239 0.059596 -0.013335 255 125 0
-0.110886 0.030253 -0.022328 255 125 0
-0.124431 0.107069 -0.058227 255 125 0
-0.160406 0.057707 -0.049335 255 125 0
-0.095408 0.046126 0.000665 255 125 0
-0.149227 0.086449 -0.058267 255 125 0
-0.025617 0.018888 -0.048675 255 125 0
-0.170551 0.057654 -0.043335 255 125 0
-0.012753 0.049587 -0.043346 255 125 0
-0.026845 0.060405 -0.057335 255 125 0
-0.154109 0.045030 -0.051335 255 125 0
-0.091646 0.082386 -0.006317 255 125 0
-0.110245 0.066922 -0.003335 255 125 0
-0.080173 -0.033380 -0.061335 255 125 0
-0.117604 0.073747 -0.019335 255 125 0
-0.051788 0.109723 -0.060236 255 125 0
-0.126398 0.035641 -0.043335 255 125 0
-0.100814 -0.026865 -0.066230 255 125 0
-0.033819 0.007820 -0.051335 255 125 0
-0.124043 0.080735 -0.031335 255 125 0
-0.069686 0.021271 -0.043335 255 125 0
-0.048905 0.012750 -0.054018 255 125 0
-0.075716 0.091288 0.000665 255 125 0
-0.110725 0.081053 -0.001335 255 125 0
-0.062806 0.022484 -0.025628 255 125 0
-0.020750 0.025838 -0.047133 255 125 0
-0.087118 0.160357 -0.068284 255 125 0
-0.206783 0.114887 -0.051335 255 125 0
-0.043971 0.099938 -0.059335 255 125 0
-0.071676 0.003678 -0.047335 255 125 0
-0.037373 0.079771 -0.057335 255 125 0
-0.088599 -0.034866 -0.063335 255 125 0
-0.119683 0.091659 -0.018809 255 125 0
-0.083997 0.108106 -0.002418 255 125 0
-0.110886 0.030253 0.005690 255 125 0
-0.022477 0.104737 -0.044068 255 125 0
-0.154684 0.002222 -0.054190 255 125 0
-0.087160 -0.006180 -0.061335 255 125 0
-0.024306 0.088167 -0.047335 255 125 0
-0.036497 0.092111 -0.056010 255 125 0
-0.063835 0.069013 -0.029335 255 125 0
-0.091445 0.000622 -0.035335 255 125 0
-0.054895 -0.010869 -0.057335 255 125 0
-0.115570 0.021303 -0.007335 255 125 0
-0.131625 0.032690 -0.060333 255 125 0
-0.080191 -0.017136 -0.066259 255 125 0
-0.122466 0.054613 -0.039335 255 125 0
-0.108303 0.020554 -0.035335 255 125 0
-0.062228 0.134377 -0.057335 255 125 0
-0.055509 0.015647 -0.051801 255 125 0
-0.150584 0.036555 -0.057335 255 125 0
-0.148553 0.019550 -0.057335 255 125 0
-0.166145 0.067219 -0.052113 255 125 0
-0.069187 -0.033473 -0.064087 255 125 0
-0.101898 0.078548 -0.001335 255 125 0
-0.078926 0.056197 0.010665 255 125 0
-0.128617 -0.007398 -0.062268 255 125 0
-0.122063 0.077022 -0.009335 255 125 0
-0.048786 0.035110 -0.056220 255 125 0
-0.073230 0.047047 0.003745 255 125 0
-0.045474 -0.029745 -0.059335 255 125 0
-0.160002 0.078456 -0.056308 255 125 0
-0.079808 0.078382 -0.001335 255 125 0
-0.109616 0.000015 -0.062328 255 125 0
-0.124229 -0.016778 -0.057335 255 125 0
-0.032340 -0.000576 -0.058293 255 125 0
-0.054467 0.009739 -0.062311 255 125 0
-0.021207 0.074498 -0.054196 255 125 0
-0.056670 -0.000804 -0.064289 255 125 0
-0.065937 0.005685 -0.060281 255 125 0
-0.158922 0.049293 -0.055335 255 125 0
-0.011893 0.044710 -0.051335 255 125 0
-0.145547 0.100131 -0.053335 255 125 0
-0.161982 0.009059 -0.052276 255 125 0
-0.108346 -0.030224 -0.060304 255 125 0
-0.067896 0.029710 0.000665 255 125 0
-0.062322 0.034755 -0.019335 255 125 0
-0.012291 0.035453 -0.043450 255 125 0
-0.070491 0.071901 0.006665 255 125 0
-0.114725 0.052025 0.004665 255 125 0
-0.098473 0.144138 -0.061758 255 125 0
-0.071254 0.065673 0.008665 255 125 0
-0.106709 0.075668 0.009731 255 125 0
-0.038562 0.057748 -0.053335 255 125 0
-0.044832 0.139382 -0.052371 255 125 0
-0.064538 0.066858 -0.003026 255 125 0
-0.120212 0.094659 -0.047335 255 125 0
-0.119930 -0.022113 -0.062156 255 125 0
-0.093954 0.153059 -0.062398 255 125 0
-0.013789 0.090022 -0.042811 255 125 0
-0.146220 0.046363 -0.053200 255 125 0
-0.069151 0.116057 -0.055335 255 125 0
-0.135429 0.048265 -0.057335 255 125 0
-0.085816 0.020458 -0.007335 255 125 0
-0.126931 0.001023 -0.061335 255 125 0
-0.091885 0.037666 -0.006255 255 125 0
-0.096067 -0.042275 -0.063685 255 125 0
-0.110396 0.125790 -0.059335 255 125 0
-0.114299 0.095677 -0.017335 255 125 0
-0.121875 0.150167 -0.064103 255 125 0
-0.056779 0.045886 -0.052333 255 125 0
-0.047621 0.086087 -0.058264 255 125 0
-0.145749 -0.002381 -0.051335 255 125 0
-0.135737 0.015717 -0.059335 255 125 0
-0.050467 0.021609 -0.059335 255 125 0
-0.158966 0.038022 -0.049042 255 125 0
-0.067195 0.042019 -0.015335 255 125 0
-0.050010 0.093790 -0.055335 255 125 0
-0.068607 0.013338 -0.017335 255 125 0
-0.051743 0.074915 -0.047335 255 125 0
-0.125835 0.011370 -0.053149 255 125 0
-0.136660 0.095801 -0.059335 255 125 0
-0.169618 0.086916 -0.043079 255 125 0
-0.070685 0.009574 -0.035335 255 125 0
-0.118978 0.156770 -0.064093 255 125 0
-0.046127 -0.003007 -0.062275 255 125 0
-0.095415 0.011617 -0.023335 255 125 0
-0.108841 0.156864 -0.061335 255 125 0
-0.168467 0.034317 -0.043569 255 125 0
-0.123327 0.042276 -0.021335 255 125 0
-0.021275 0.028819 -0.055335 255 125 0
-0.040979 0.068981 -0.053335 255 125 0
-0.156697 0.025160 -0.055335 255 125 0
-0.056141 0.035845 -0.041335 255 125 0
-0.088000 0.027153 -0.005335 255 125 0
-0.151962 0.113481 -0.055335 255 125 0
-0.118005 0.041183 -0.037335 255 125 0
-0.089210 0.103124 -0.001781 255 125 0
-0.101876 0.054181 -0.003335 255 125 0
-0.021903 0.037820 -0.055335 255 125 0
-0.104164 0.063933 0.010665 255 125 0
-0.123617 0.021828 -0.045335 255 125 0
-0.058764 0.096308 -0.049335 255 125 0
-0.137638 0.112863 -0.055007 255 125 0
-0.160573 0.070174 -0.049335 255 125 0
-0.111685 0.115408 -0.052474 255 125 0
-0.120634 0.131607 -0.059335 255 125 0
-0.080787 -0.025269 -0.061335 255 125 0
-0.013774 0.020975 -0.045335 255 125 0
-0.044951 0.117021 -0.055634 255 125 0
-0.073587 -0.020034 -0.066292 255 125 0
-0.084581 0.065355 0.004883 255 125 0
-0.100042 0.032165 -0.003335 255 125 0
-0.120120 0.065180 -0.033335 255 125 0
-0.047402 0.061818 -0.049335 255 125 0
-0.042520 0.103233 -0.053163 255 125 0
-0.176191 0.061386 -0.045335 255 125 0
-0.061558 0.063321 -0.013335 255 125 0
-0.070033 0.021210 -0.001335 255 125 0
-0.144356 0.127925 -0.053221 255 125 0
-0.101945 0.044015 0.000665 255 125 0
-0.100691 0.030020 0.003672 255 125 0
-0.107062 0.043113 0.011280 255 125 0
-0.042182 0.032214 -0.058176 255 125 0
-0.047859 0.041367 -0.050582 255 125 0
-0.084938 -0.001726 -0.046638 255 125 0
-0.133874 0.044477 -0.049335 255 125 0
-0.032260 0.114147 -0.055335 255 125 0
-0.026083 -0.001504 -0.056294 255 125 0
-0.113832 -0.004790 -0.055335 255 125 0
-0.119629 0.120100 -0.061335 255 125 0
-0.092333 0.005657 -0.003335 255 125 0
-0.122699 0.062695 -0.011292 255 125 0
-0.164299 0.010681 -0.045352 255 125 0
-0.107015 -0.014739 -0.065335 255 125 0
-0.144470 0.140090 -0.058256 255 125 0
-0.018035 0.016162 -0.053335 255 125 0
-0.107175 0.055278 0.011397 255 125 0
-0.106129 0.083894 0.007501 255 125 0
-0.082151 0.051567 -0.004274 255 125 0
-0.069067 -0.011114 -0.064251 255 125 0
-0.107057 0.077638 0.003726 255 125 0
-0.157041 0.130765 -0.051335 255 125 0
-0.144364 0.058875 -0.058219 255 125 0
-0.143442 0.030605 -0.058275 255 125 0
-0.065547 0.014991 -0.037335 255 125 0
-0.097094 0.067210 -0.006161 255 125 0
-0.138699 -0.019329 -0.052652 255 125 0
-0.082903 0.009766 -0.043335 255 125 0
-0.119507 0.061226 -0.027335 255 125 0
-0.140202 0.000714 -0.060308 255 125 0
-0.031292 0.028041 -0.058335 255 125 0
-0.159418 0.121208 -0.054270 255 125 0
-0.069450 0.014090 -0.025335 255 125 0
-0.023186 0.005100 -0.054171 255 125 0
-0.169038 0.095141 -0.050220 255 125 0
-0.115663 0.039565 -0.029335 255 125 0
-0.099695 0.012857 -0.035335 255 125 0
-0.061075 -0.021889 -0.064191 255 125 0
-0.132884 0.131978 -0.062297 255 125 0
-0.061797 0.057186 -0.035335 255 125 0
-0.037891 0.065463 -0.058250 255 125 0
-0.069857 0.143092 -0.064335 255 125 0
-0.158614 0.070578 -0.056219 255 125 0
-0.086670 0.042647 -0.006230 255 125 0
-0.103826 -0.021305 -0.066297 255 125 0
-0.115038 0.047799 -0.015335 255 125 0
-0.010271 0.029717 -0.049335 255 125 0
-0.041255 0.038470 -0.058289 255 125 0
-0.124382 0.066460 -0.045335 255 125 0
-0.088801 0.008661 -0.041335 255 125 0
-0.039390 0.120033 -0.058273 255 125 0
-0.071036 0.063681 -0.003335 255 125 0
-0.130531 0.057252 -0.043335 255 125 0
-0.111994 0.094125 -0.007335 255 125 0
-0.141631 0.100961 -0.059335 255 125 0
-0.146458 0.001642 -0.056308 255 125 0
-0.117018 0.088066 -0.024295 255 125 0
-0.144822 0.107535 -0.053997 255 125 0
-0.125337 0.076446 -0.025335 255 125 0
-0.210012 0.114317 -0.063335 255 125 0
-0.077914 0.004506 -0.037335 255 125 0
-0.171592 0.052043 -0.048115 255 125 0
-0.054020 0.050435 -0.045335 255 125 0
-0.165212 0.108001 -0.044617 255 125 0
-0.065352 0.048436 -0.003238 255 125 0
-0.163486 0.029102 -0.052263 255 125 0
-0.037654 0.110184 -0.056077 255 125 0
-0.027581 0.053066 -0.050329 255 125 0
-0.074105 0.010338 -0.005335 255 125 0
-0.049366 0.026885 -0.052241 255 125 0
-0.140306 0.081930 -0.053165 255 125 0
-0.163301 0.047412 -0.047335 255 125 0
-0.017387 0.052833 -0.052127 255 125 0
-0.116397 0.021158 -0.055335 255 125 0
-0.117128 0.134757 -0.064098 255 125 0
-0.093920 0.008875 -0.049335 255 125 0
-0.125629 0.084517 -0.039335 255 125 0
-0.056710 0.078392 -0.045335 255 125 0
-0.122410 0.049537 -0.045335 255 125 0
-0.029081 0.107635 -0.047509 255 125 0
-0.043339 0.050287 -0.051925 255 125 0
-0.051574 -0.018183 -0.062164 255 125 0
-0.095467 0.104052 -0.001554 255 125 0
-0.113907 -0.033236 -0.060144 255 125 0
-0.081799 0.084123 0.007607 255 125 0
-0.065576 0.107292 -0.051188 255 125 0
-0.098912 0.085167 0.000665 255 125 0
-0.084229 0.097910 -0.000187 255 125 0
-0.075371 0.013116 -0.049335 255 125 0
-0.157348 0.005814 -0.047134 255 125 0
-0.079443 -0.009855 -0.063335 255 125 0
-0.061993 0.040905 -0.038313 255 125 0
-0.070716 0.027182 -0.011335 255 125 0
-0.051490 0.067127 -0.047335 255 125 0
-0.020553 0.064459 -0.055335 255 125 0
-0.163595 0.075792 -0.046843 255 125 0
-0.117433 0.078897 -0.015335 255 125 0
-0.096567 0.133329 -0.061335 255 125 0
-0.118065 0.059451 -0.020304 255 125 0
-0.111867 0.012781 -0.017335 255 125 0
-0.033230 0.073578 -0.057335 255 125 0
-0.095343 0.160937 -0.068282 255 125 0
-0.058492 0.061831 -0.047335 255 125 0
-0.154223 0.016520 -0.049335 255 125 0
-0.034542 -0.011119 -0.052312 255 125 0
-0.092259 0.062826 -0.005335 255 125 0
-0.023067 0.013245 -0.047335 255 125 0
-0.132305 0.140204 -0.056501 255 125 0
-0.014786 0.038079 -0.051335 255 125 0
-0.124787 0.039987 -0.052256 255 125 0
-0.175234 0.089987 -0.047335 255 125 0
-0.112270 0.066565 0.008665 255 125 0
-0.055271 0.060369 -0.038236 255 125 0
-0.085888 -0.019375 -0.059335 255 125 0
-0.037154 0.038245 -0.053335 255 125 0
-0.170545 0.080659 -0.041285 255 125 0
-0.104124 0.009106 -0.055335 255 125 0
-0.060535 0.063502 -0.031335 255 125 0
-0.106649 0.057402 0.004665 255 125 0
-0.069226 0.024340 -0.033335 255 125 0
-0.018543 0.070907 -0.046261 255 125 0
-0.044390 -0.012854 -0.054854 255 125 0
-0.041365 0.085160 -0.058279 255 125 0
-0.035798 0.122697 -0.049018 255 125 0
-0.155483 0.087377 -0.050390 255 125 0
-0.070135 0.053686 0.008665 255 125 0
-0.098131 0.054841 0.002665 255 125 0
-0.056950 0.051949 -0.033335 255 125 0
-0.074500 0.077286 0.009411 255 125 0
-0.055956 0.133358 -0.055182 255 125 0
-0.087003 0.148192 -0.061924 255 125 0
-0.058188 0.084224 -0.049335 255 125 0
-0.140421 0.094095 -0.054199 255 125 0
-0.050636 0.057123 -0.047217 255 125 0
-0.149222 0.120975 -0.050498 255 125 0
-0.033029 0.037889 -0.058100 255 125 0
-0.088064 0.015999 -0.001409 255 125 0
-0.060897 0.057722 -0.009335 255 125 0
-0.127306 -0.031537 -0.061335 255 125 0
-0.072456 0.071554 -0.003335 255 125 0
-0.055385 0.072534 -0.052285 255 125 0
-0.129064 0.110313 -0.054765 255 125 0
-0.081223 0.057824 -0.004321 255 125 0
-0.077402 0.036157 0.009969 255 125 0
-0.031873 0.019816 -0.050781 255 125 0
-0.030018 0.032327 -0.051095 255 125 0
-0.060119 0.007240 -0.053335 255 125 0
-0.128375 0.071848 -0.052226 255 125 0
-0.207438 0.108679 -0.055335 255 125 0
-0.026650 0.093847 -0.054164 255 125 0
-0.027434 0.077461 -0.049335 255 125 0
-0.112573 0.103067 -0.039335 255 125 0
-0.082406 0.012936 -0.029335 255 125 0
-0.138521 0.051782 -0.051335 255 125 0
-0.153866 0.055169 -0.056195 255 125 0
-0.045532 0.108795 -0.058222 255 125 0
-0.068557 0.090519 -0.007335 255 125 0
-0.171697 0.070302 -0.049335 255 125 0
-0.121895 0.012066 -0.060242 255 125 0
-0.067307 0.151666 -0.058780 255 125 0
-0.065476 -0.008449 -0.057059 255 125 0
