ply
format ascii 1.0
element vertex 1243
property float x
property float y
property float z
property uchar red
property uchar green
property uchar blue
end_header
-0.048417 -0.310526 -0.768313 144 112 74
-0.045585 -0.302063 -0.753070 148 116 78
-0.052183 -0.303962 -0.739522 157 115 71
-0.046422 -0.291210 -0.738526 160 119 76
-0.049256 -0.288708 -0.745622 150 117 79
-0.053556 -0.296839 -0.746845 135 104 68
0.204058 -0.663544 -0.889791 14 14 14
0.207858 -0.682398 -0.882071 21 19 13
0.183437 -0.680603 -0.880295 21 18 13
0.199545 -0.686139 -0.875157 28 23 18
-0.260456 0.137486 -0.860087 19 20 21
-0.255793 0.161768 -0.860399 27 28 28
-0.111095 -0.337357 -0.700261 100 83 55
0.339866 0.050769 -0.721128 21 18 17
0.330825 0.055426 -0.716827 22 18 16
-0.266889 -0.270626 -0.880161 37 35 32
-0.296554 -0.258354 -0.880569 36 38 32
-0.312001 -0.275144 -0.880229 34 35 32
-0.151281 -0.488354 -0.875715 33 34 30
-0.127439 -0.462482 -0.875712 34 34 30
-0.005768 -0.628696 -0.471789 100 84 60
-0.010410 -0.626926 -0.444759 104 84 58
0.010562 -0.623710 -0.452520 100 83 59
-0.071535 -0.015583 -0.804245 21 22 22
-0.055218 -0.015812 -0.819810 14 15 16
0.010182 -0.628603 -0.873491 74 57 39
-0.006138 -0.628827 -0.877867 79 54 31
-0.095617 -0.168955 -0.871974 32 33 31
-0.102308 -0.197819 -0.873492 32 31 28
0.027514 -0.623630 -0.580623 79 65 52
0.018070 -0.620520 -0.590929 59 48 38
-0.318991 0.247225 -0.477880 13 14 18
-0.329683 0.249483 -0.481713 13 14 18
0.249520 -0.108368 -0.866192 20 22 21
0.262562 -0.093683 -0.864673 20 22 21
-0.346107 -0.332089 -0.882642 35 36 32
-0.361807 0.104088 -0.421200 10 14 17
-0.353958 0.088374 -0.446784 13 15 19
-0.355457 0.085976 -0.438968 12 14 19
-0.362132 0.088832 -0.436342 11 14 19
-0.346830 0.105747 -0.445970 12 14 20
-0.108474 0.092506 -0.873561 23 24 26
-0.128851 0.104551 -0.875193 22 23 25
-0.145130 0.094377 -0.873809 17 18 22
-0.151054 0.114181 -0.877908 7 11 14
0.086691 -0.201295 -0.864768 21 22 23
0.028663 -0.025243 -0.897835 30 29 26
-0.110529 -0.332678 -0.480890 119 101 77
0.147668 0.079757 -0.874357 13 14 15
0.145348 0.049491 -0.871472 18 19 21
-0.029625 0.167397 -0.891935 23 22 19
-0.110225 0.025525 -0.455693 14 18 20
-0.125877 0.029714 -0.443390 12 14 19
-0.115268 0.027296 -0.466797 15 18 20
-0.000997 -0.627709 -0.639656 85 71 53
0.011091 -0.623477 -0.625443 62 50 38
0.012936 -0.623997 -0.638116 86 72 54
-0.029119 -0.375641 -0.820415 111 82 51
-0.016003 -0.391708 -0.839576 122 86 54
-0.036043 -0.389221 -0.813177 132 92 59
-0.036723 -0.406322 -0.815583 133 94 59
-0.043739 -0.382008 -0.802150 137 97 61
-0.047071 -0.396052 -0.803863 138 96 63
-0.048482 -0.345519 -0.766405 143 105 65
-0.051560 -0.345479 -0.780661 136 99 60
-0.043648 -0.355238 -0.800552 136 100 61
-0.056434 -0.340705 -0.784431 146 104 66
-0.052228 -0.355609 -0.791528 138 100 61
-0.089214 0.066907 -0.439547 11 14 17
-0.081948 0.063570 -0.418811 6 9 15
-0.098006 0.055254 -0.436864 12 13 18
-0.069418 0.048223 -0.434108 11 12 14
-0.077368 0.063277 -0.439582 12 16 19
-0.059586 0.071482 -0.446514 13 16 20
-0.277798 -0.245198 -0.881263 36 37 32
-0.279655 -0.231066 -0.880749 37 36 35
-0.294103 -0.204096 -0.880813 36 36 32
0.123844 -0.648096 -0.894624 15 14 12
-0.353973 0.182424 -0.602491 11 13 14
-0.346038 0.200065 -0.603975 16 18 19
-0.380327 0.187542 -0.579787 10 13 13
0.352865 -0.213814 -0.647912 85 61 34
0.339775 -0.217859 -0.639325 69 56 37
0.359904 -0.203999 -0.649646 70 57 39
0.354926 -0.187852 -0.647700 65 57 39
0.341416 -0.209207 -0.638023 70 57 38
-0.039500 -0.622408 -0.808521 98 69 42
-0.030083 -0.621091 -0.815777 98 69 42
-0.354209 -0.293382 -0.882468 36 36 33
-0.341814 -0.268655 -0.882393 37 36 32
-0.332772 -0.299078 -0.881433 36 36 32
-0.103242 -0.522322 -0.436567 100 82 55
-0.103728 -0.538569 -0.427498 95 75 50
-0.104536 -0.554234 -0.427105 94 75 48
-0.113606 -0.443738 -0.873857 34 33 29
-0.379875 0.211269 -0.417520 12 16 21
-0.362346 0.201407 -0.425887 12 16 22
-0.344405 0.091716 -0.894062 12 18 28
0.024876 -0.037285 -0.886749 32 28 25
0.015123 -0.061029 -0.876225 17 18 20
0.045396 -0.054618 -0.878644 16 17 19
0.020073 -0.048810 -0.884122 16 18 19
0.036777 -0.042447 -0.884251 15 16 18
0.060098 -0.034278 -0.882308 31 28 25
0.031299 -0.016532 -0.893720 24 22 22
0.051021 -0.011858 -0.892151 21 21 19
0.041761 -0.007013 -0.870448 22 23 19
0.037761 -0.010445 -0.875700 22 23 19
0.056531 -0.008041 -0.875435 21 22 17
0.049967 -0.002649 -0.876389 21 21 18
0.034241 -0.010206 -0.887969 21 21 18
0.024792 -0.009812 -0.884806 23 22 21
-0.104552 -0.579603 -0.578292 80 64 41
-0.105832 -0.566772 -0.563112 80 62 42
-0.055144 -0.635019 -0.523177 87 69 48
-0.057867 -0.639035 -0.542626 82 61 46
-0.071742 -0.642710 -0.532760 31 26 21
-0.007725 -0.008639 -0.878757 22 21 21
0.005406 -0.022668 -0.893093 28 27 24
0.012305 -0.013325 -0.888929 24 22 22
-0.007556 -0.020719 -0.888843 22 21 21
0.012291 -0.007040 -0.878054 24 23 22
0.011763 0.019300 -0.864120 13 14 13
-0.068645 -0.557494 -0.829503 51 42 28
-0.041810 -0.554674 -0.831007 65 50 35
-0.037176 -0.541026 -0.837914 61 49 35
-0.064625 -0.538926 -0.858019 30 29 26
-0.062998 -0.545945 -0.843693 40 33 24
0.260642 0.120565 -0.860301 21 20 20
-0.078606 -0.207245 -0.872208 30 30 28
0.235565 -0.090552 -0.684763 15 16 15
0.229791 -0.109485 -0.675367 14 16 14
0.227490 -0.095835 -0.671491 17 17 16
-0.104088 -0.410514 -0.470293 113 94 64
-0.104401 -0.429391 -0.472579 87 70 46
-0.077566 -0.472508 -0.870039 32 32 28
-0.085450 -0.461205 -0.872774 34 32 28
-0.090344 -0.441206 -0.872476 35 33 31
-0.065966 -0.440756 -0.860188 32 31 27
-0.031389 0.099639 -0.875641 21 22 21
-0.023389 0.075515 -0.878550 20 21 21
-0.018857 0.096016 -0.885718 26 21 18
-0.088962 -0.244155 -0.597535 26 22 18
-0.090072 -0.244103 -0.580703 42 33 25
0.208737 0.086166 -0.869851 19 20 21
0.229965 0.085256 -0.870151 19 20 21
0.222755 0.093660 -0.872336 18 19 21
0.245610 0.096658 -0.870535 17 18 20
-0.292808 0.160511 -0.873198 27 29 28
-0.287079 0.148517 -0.866315 21 22 23
-0.322381 0.133123 -0.871148 26 28 26
-0.194689 0.245209 -0.745007 12 13 15
-0.196231 0.237157 -0.741310 14 14 15
-0.342263 0.100808 -0.883123 13 20 30
-0.333173 0.098011 -0.871495 18 23 31
-0.325048 0.096740 -0.883401 16 20 28
-0.320111 0.102131 -0.866855 14 16 21
-0.330328 0.083769 -0.888988 20 20 19
-0.374380 0.211237 -0.493091 12 15 19
-0.376255 0.222974 -0.496970 13 17 20
-0.380477 0.210365 -0.503121 14 17 21
-0.107058 -0.407965 -0.564202 101 81 54
-0.107837 -0.402128 -0.609217 101 82 51
-0.105597 -0.427016 -0.586641 101 80 54
-0.063840 -0.628748 -0.765764 60 49 35
-0.065946 -0.633401 -0.791785 39 32 25
0.363461 -0.028971 -0.652549 103 80 56
0.343933 -0.009967 -0.642013 103 79 55
0.366361 -0.015190 -0.654513 104 81 56
0.373496 -0.030276 -0.658937 103 83 56
0.372979 -0.005876 -0.658929 103 83 56
-0.103714 -0.488472 -0.431607 109 89 63
-0.105453 -0.465066 -0.427512 110 91 62
-0.108573 -0.313930 -0.432577 124 101 69
-0.106915 -0.312525 -0.419632 125 102 70
0.203303 0.018337 -0.868827 19 21 22
0.201669 0.031959 -0.868613 19 20 23
0.199285 0.047448 -0.870384 20 22 22
0.230916 -0.085540 -0.664348 38 34 25
0.239550 -0.104254 -0.636360 78 69 51
0.235241 -0.103915 -0.658750 65 60 46
-0.111569 -0.017057 -0.805665 9 10 14
-0.111846 -0.026506 -0.800575 9 11 14
-0.116685 -0.018170 -0.794032 10 11 15
-0.217472 0.120935 -0.903460 17 17 14
-0.033956 -0.240411 -0.634959 15 15 12
-0.036839 -0.239956 -0.615849 13 16 12
-0.047541 -0.234413 -0.614735 14 15 14
-0.048751 -0.232884 -0.595018 14 15 14
-0.191161 0.202252 -0.716765 14 17 20
-0.183826 0.203476 -0.711503 16 19 22
-0.203494 0.220873 -0.726964 10 13 18
-0.174148 0.209179 -0.717951 15 18 20
-0.192817 0.214503 -0.714051 14 17 21
-0.175768 0.214471 -0.720796 13 17 19
-0.195745 0.201171 -0.721591 12 16 19
-0.200182 0.197167 -0.725670 12 15 20
-0.193857 0.225326 -0.721231 12 15 20
-0.198622 0.191804 -0.723461 12 16 20
-0.015286 -0.007011 -0.872830 19 18 17
-0.032146 -0.013437 -0.867145 17 16 17
-0.019461 -0.015414 -0.879124 21 21 23
-0.324438 -0.245997 -0.881329 39 38 35
-0.210067 0.047426 -0.875777 28 30 27
-0.010372 -0.232373 -0.429826 27 29 29
-0.019349 -0.233189 -0.442803 26 29 30
-0.022520 -0.233702 -0.464449 18 20 20
-0.323158 -0.056794 -0.880497 37 37 34
-0.084786 -0.640184 -0.532879 29 25 20
-0.099332 -0.632581 -0.526257 36 29 23
-0.308639 0.166428 -0.627393 17 18 20
-0.334344 0.158215 -0.612863 17 19 24
-0.331405 0.147789 -0.605785 15 16 21
-0.322568 0.162042 -0.617668 14 14 20
-0.321119 0.172730 -0.617514 17 18 21
-0.037911 -0.236850 -0.466215 53 49 39
-0.012977 -0.229121 -0.458377 16 17 17
-0.286160 0.173246 -0.875095 34 36 35
-0.305424 0.173879 -0.876261 33 36 34
-0.195260 -0.450955 -0.877432 36 36 33
0.080608 0.135760 -0.874905 9 12 14
0.098685 0.135175 -0.878473 10 13 15
0.100109 0.152061 -0.881719 8 11 14
-0.326545 0.081950 -0.492683 17 20 26
-0.348735 0.083173 -0.483018 14 18 24
-0.318605 0.088894 -0.486248 16 16 19
0.357032 -0.155622 -0.864174 19 19 19
0.376459 -0.149208 -0.865093 18 18 18
-0.425472 0.015721 -0.881207 40 41 37
-0.058289 -0.477569 -0.813169 71 55 38
-0.052536 -0.506944 -0.820631 93 66 45
-0.045042 -0.484452 -0.832543 60 47 36
-0.029894 -0.495604 -0.850716 68 55 40
-0.284998 0.166805 -0.789456 14 16 17
-0.278088 0.168374 -0.773134 15 16 20
-0.285766 0.175442 -0.775989 15 17 20
-0.286035 0.169519 -0.781371 15 16 20
-0.232318 0.111034 -0.889441 22 19 17
-0.223303 0.129207 -0.896700 16 19 22
-0.248265 0.134528 -0.867122 17 21 25
-0.243505 0.125496 -0.882288 16 18 24
0.221193 -0.652330 -0.894307 12 12 14
0.244680 -0.648406 -0.892608 14 11 13
0.057724 0.004889 -0.875022 23 23 20
0.034717 0.024688 -0.878173 16 16 17
0.030626 0.029835 -0.868584 18 19 16
0.050382 0.027820 -0.881842 20 19 17
0.051762 0.031938 -0.881088 19 18 14
0.010623 -0.228261 -0.629124 13 14 13
0.012726 -0.226572 -0.617031 12 13 13
0.015411 -0.239302 -0.625810 32 28 22
0.008076 -0.225263 -0.621103 14 14 14
0.013718 -0.227247 -0.601308 11 13 14
0.011924 -0.234905 -0.621034 11 13 15
0.056878 -0.063147 -0.870682 19 20 21
0.020432 -0.072211 -0.870790 24 26 26
0.049906 -0.085759 -0.868904 24 26 26
0.041850 -0.071610 -0.869622 24 25 26
-0.069043 -0.238055 -0.590147 11 15 11
0.255670 0.097702 -0.699449 18 18 16
0.262180 0.091849 -0.695680 20 19 18
0.249619 0.084704 -0.703326 16 17 16
0.366158 0.134647 -0.885234 18 17 14
0.387413 0.126573 -0.863778 22 21 18
0.388015 0.133333 -0.857859 20 20 17
0.369788 0.136022 -0.870911 19 20 17
0.368759 0.131134 -0.864275 20 19 16
0.275778 -0.066991 -0.705433 17 17 17
0.261779 -0.056339 -0.699600 21 22 23
-0.212183 -0.465047 -0.877483 37 35 30
-0.240113 -0.453343 -0.879367 38 36 32
0.156515 -0.102391 -0.867977 23 25 22
0.131840 -0.099762 -0.866600 23 25 22
0.137100 -0.084871 -0.869433 24 26 23
0.159612 -0.086504 -0.869962 23 25 23
0.178372 -0.089978 -0.869636 23 24 24
0.178266 -0.104661 -0.867167 23 25 24
0.352645 -0.070258 -0.861565 18 20 20
0.366117 -0.065675 -0.863028 18 19 20
-0.032399 -0.347684 -0.818326 122 100 75
-0.049625 -0.243791 -0.729023 48 39 28
-0.228532 0.007404 -0.876598 32 33 30
-0.202994 0.024901 -0.874732 28 30 26
-0.394136 0.162529 -0.540158 38 48 59
-0.380566 0.174791 -0.516919 26 36 39
-0.380776 0.149504 -0.519372 29 40 45
-0.212609 -0.234942 -0.876935 37 38 35
-0.242092 -0.255766 -0.879238 33 35 33
-0.086728 -0.640803 -0.508417 39 32 24
-0.101500 -0.632644 -0.495015 40 30 21
-0.082863 -0.643561 -0.490722 23 22 17
-0.103826 -0.632407 -0.470533 45 38 28
-0.005124 0.101767 -0.897092 37 33 28
0.002508 0.071763 -0.899047 30 25 21
0.005242 0.089709 -0.901141 24 21 19
-0.013319 0.086014 -0.890193 25 22 19
-0.164669 0.210150 -0.714993 15 18 24
-0.162195 0.213450 -0.731874 15 16 19
-0.154102 0.211165 -0.714004 15 24 33
-0.162728 0.214803 -0.707082 15 24 35
-0.151391 0.210524 -0.728423 15 22 31
0.085409 -0.237558 -0.847273 21 22 17
0.131833 -0.238734 -0.844205 19 21 18
0.104330 -0.239694 -0.843417 21 22 19
-0.034683 -0.146278 -0.871456 28 30 29
-0.017134 -0.528851 -0.869197 63 46 31
-0.015363 -0.510451 -0.870094 88 63 44
-0.012469 -0.523434 -0.876642 85 59 37
-0.010768 -0.510129 -0.873546 66 49 37
-0.013835 -0.537287 -0.876934 89 62 38
-0.010392 -0.537754 -0.866076 89 62 38
-0.008409 -0.527532 -0.875323 93 64 38
-0.012208 -0.506887 -0.864308 102 69 43
-0.065297 -0.456279 -0.857710 30 28 25
-0.063398 -0.506746 -0.845831 30 27 23
-0.063845 -0.482721 -0.854346 29 29 26
-0.065650 -0.482041 -0.838809 31 27 20
0.295449 0.009760 -0.867419 19 20 21
0.280968 0.021570 -0.866650 20 21 22
0.136523 0.194115 -0.845909 17 18 23
0.126863 0.194194 -0.844507 12 13 17
-0.248899 0.028024 -0.479550 13 15 20
-0.238325 0.031506 -0.465997 15 18 22
-0.233585 0.026888 -0.472913 12 16 20
-0.247680 0.032186 -0.468714 12 17 20
-0.356727 0.239767 -0.878273 39 41 41
-0.395593 0.136800 -0.877797 38 39 37
-0.405395 0.118537 -0.872038 36 37 35
-0.421000 0.122117 -0.879269 38 39 36
-0.384239 0.123531 -0.867777 26 28 31
-0.370689 0.135373 -0.872450 31 31 32
0.228395 0.064446 -0.680699 11 14 17
0.219830 0.073613 -0.678459 10 13 15
-0.246015 -0.289872 -0.878695 38 38 34
-0.253977 -0.314684 -0.880422 39 39 37
-0.132540 0.043250 -0.444252 12 15 19
-0.095406 0.031383 -0.438964 12 13 18
-0.111452 0.033744 -0.439690 11 13 17
-0.105572 0.042948 -0.439517 11 13 18
-0.114748 0.026870 -0.444655 12 13 18
0.364783 0.134083 -0.897451 15 15 13
-0.105260 -0.592908 -0.619887 75 57 38
-0.104297 -0.612477 -0.617729 70 55 36
-0.183397 0.214622 -0.857929 20 22 21
-0.197275 0.196233 -0.841673 18 20 19
-0.176769 0.217275 -0.846588 18 20 19
-0.188786 0.201731 -0.847214 17 19 18
-0.182078 0.208504 -0.847857 18 19 18
-0.172325 0.224190 -0.842077 17 17 18
-0.360897 0.104556 -0.472737 14 18 23
-0.369365 0.083268 -0.474110 11 16 19
-0.375769 0.090021 -0.474631 12 16 20
-0.366044 0.093135 -0.466088 14 17 21
-0.356596 0.094670 -0.442429 14 15 20
-0.361945 0.100023 -0.458297 13 15 21
-0.352769 0.089761 -0.457646 15 16 20
-0.364237 0.093245 -0.456972 16 17 21
-0.361109 0.089167 -0.465062 14 15 18
-0.106448 -0.546989 -0.763414 69 56 37
0.251665 -0.150531 -0.693442 15 18 15
0.253524 -0.119143 -0.695089 17 19 17
0.256973 -0.131107 -0.696095 16 16 15
-0.332165 0.215616 -0.442952 20 21 21
-0.317856 0.205167 -0.439754 21 21 23
-0.261979 -0.218562 -0.880890 38 39 34
-0.292000 0.196182 -0.625308 49 55 73
-0.298359 0.175493 -0.631165 15 16 16
-0.281594 0.188994 -0.625704 18 31 44
-0.282860 0.176022 -0.625504 13 21 32
-0.296655 0.177633 -0.622954 10 17 31
-0.250795 0.076741 -0.894145 20 21 22
-0.250856 0.095854 -0.895030 43 38 31
-0.047658 -0.015468 -0.855780 15 16 18
-0.053659 -0.013927 -0.831200 15 15 18
-0.061300 0.016715 -0.861179 21 22 23
-0.042994 -0.012922 -0.840751 15 15 18
-0.059005 -0.018564 -0.844130 13 13 17
-0.384133 0.073466 -0.500903 14 18 21
-0.379320 0.075419 -0.490408 15 19 23
-0.369148 0.074452 -0.487868 11 15 19
-0.384827 0.069581 -0.491086 13 18 22
-0.358609 0.065712 -0.507089 15 15 15
-0.358923 0.076861 -0.483407 13 17 21
-0.373257 0.065281 -0.500236 13 17 19
-0.378779 0.066260 -0.510795 13 17 20
-0.378493 0.067684 -0.500720 14 17 20
-0.363562 0.065889 -0.495488 12 15 17
-0.372065 0.065081 -0.490813 12 13 16
-0.122007 -0.297190 -0.875026 32 34 30
-0.132530 -0.264328 -0.874141 35 35 30
-0.102005 -0.279877 -0.870391 32 34 30
-0.174348 0.175458 -0.741500 14 14 14
-0.175959 0.172888 -0.751426 14 14 14
-0.176146 0.162133 -0.747283 11 11 10
-0.172792 0.178665 -0.762568 14 13 13
-0.175683 0.167265 -0.758566 15 14 14
-0.040015 -0.632144 -0.524269 91 61 38
-0.041737 -0.633943 -0.540280 82 59 43
-0.017859 0.038665 -0.457514 14 16 17
-0.023137 0.037993 -0.451935 13 14 13
-0.026376 0.040268 -0.461429 23 21 21
-0.441236 -0.026485 -0.883525 42 42 39
-0.142933 0.050878 -0.444847 10 15 19
-0.111505 -0.021195 -0.790315 10 11 15
-0.100473 -0.030679 -0.799044 8 9 13
-0.307002 0.103661 -0.878633 18 22 31
-0.303125 0.101878 -0.888069 20 25 32
-0.318659 0.086699 -0.892604 39 34 33
-0.321966 0.093345 -0.890864 19 23 33
-0.316932 0.096981 -0.856001 20 21 23
-0.292307 0.104903 -0.875228 15 13 12
0.004577 -0.306028 -0.870484 105 85 61
0.004383 -0.286779 -0.869287 85 73 58
0.005857 -0.282326 -0.879089 88 76 62
-0.000999 -0.309488 -0.878816 116 85 55
-0.363005 0.108976 -0.859830 12 17 20
-0.103114 -0.614324 -0.875679 30 31 28
-0.081522 -0.625515 -0.867712 31 31 26
-0.093410 -0.624198 -0.872923 31 31 27
-0.082289 -0.609002 -0.871956 33 31 29
-0.080827 -0.041590 -0.873124 19 21 23
-0.047355 -0.247521 -0.746783 41 33 25
-0.055422 -0.244408 -0.751705 21 19 19
-0.060657 -0.244104 -0.749338 27 23 18
-0.042922 -0.247785 -0.763901 42 34 26
0.275883 -0.139690 -0.863842 19 21 21
0.270755 -0.130123 -0.864756 20 21 21
-0.352849 0.152424 -0.876783 35 37 36
-0.362604 0.132583 -0.870686 13 18 21
0.005539 0.172985 -0.902887 33 30 26
0.006197 0.182753 -0.904899 34 31 27
-0.008876 0.171844 -0.902079 28 26 22
-0.001995 0.181282 -0.906201 26 23 21
-0.013406 0.191909 -0.905722 30 28 25
0.018163 0.192499 -0.903954 28 27 23
0.030676 -0.203555 -0.868129 28 28 27
0.008472 -0.211183 -0.866332 28 28 27
0.030758 -0.194602 -0.869750 28 28 28
0.002110 -0.202251 -0.869195 28 29 28
0.007407 -0.189827 -0.869691 27 28 26
-0.329000 0.039934 -0.510717 11 14 17
-0.327660 0.043580 -0.492841 9 11 17
-0.301372 0.033400 -0.499497 8 11 14
-0.305482 0.040083 -0.489716 9 11 15
0.016702 -0.238465 -0.756351 20 20 19
0.004759 -0.234567 -0.743909 20 20 20
-0.080600 -0.255395 -0.524795 61 51 39
-0.096026 -0.263645 -0.533552 101 81 57
-0.105649 -0.270999 -0.553667 85 68 46
0.018526 -0.241921 -0.763138 23 21 20
-0.132698 0.204340 -0.764853 14 14 14
-0.283999 0.065327 -0.885625 20 23 22
-0.260367 0.062110 -0.880763 24 27 27
-0.286345 0.047772 -0.878227 25 29 29
-0.291153 0.054017 -0.879369 24 28 28
-0.253058 0.041876 -0.876235 26 28 26
-0.270176 0.043979 -0.876387 27 29 28
0.283946 0.057158 -0.866281 18 19 21
0.266171 0.049751 -0.867318 18 19 21
0.246708 0.070815 -0.868489 18 19 22
-0.009409 -0.542158 -0.876588 82 59 38
-0.017498 -0.553626 -0.864537 33 28 24
-0.017030 -0.562461 -0.868854 78 58 39
-0.013014 -0.563549 -0.861704 83 59 39
-0.018614 -0.545954 -0.868322 59 41 28
0.239090 0.072399 -0.643669 17 18 20
0.245475 0.063653 -0.645619 21 22 22
0.237438 0.074579 -0.652570 23 23 24
0.248594 0.053766 -0.658743 49 45 40
0.243393 0.065472 -0.657641 34 32 30
0.248104 0.051183 -0.666527 39 36 29
0.234819 0.050847 -0.669798 23 24 20
0.247822 0.055757 -0.635862 46 40 34
-0.362778 -0.344914 -0.880934 38 35 33
-0.351749 -0.365674 -0.880110 38 38 34
-0.338911 -0.349646 -0.880802 39 38 34
-0.110649 -0.280421 -0.648795 109 91 61
-0.109388 -0.269915 -0.642495 106 88 58
-0.105162 -0.464406 -0.555386 98 79 52
-0.106464 -0.434908 -0.563884 99 80 52
-0.101614 -0.439920 -0.541303 98 78 53
0.314582 -0.201596 -0.859668 18 19 21
0.296728 -0.214458 -0.862372 18 19 20
0.441390 0.078451 -0.861619 16 18 18
-0.084128 -0.356564 -0.871652 32 34 30
-0.103363 -0.362022 -0.874106 34 34 31
-0.102938 -0.333077 -0.873438 34 34 30
0.317255 -0.657999 -0.891255 11 11 13
0.344093 -0.650194 -0.883675 12 11 11
0.316048 -0.643942 -0.879560 12 10 10
0.328155 -0.650692 -0.887748 12 12 12
0.342566 -0.669974 -0.881948 10 11 11
0.318314 -0.666800 -0.886675 10 11 11
0.279444 -0.156431 -0.618049 75 64 45
0.296048 -0.153840 -0.626931 79 67 48
0.301215 -0.148153 -0.634555 80 66 49
-0.316941 0.049591 -0.522649 7 9 10
-0.285787 0.040440 -0.525837 10 11 10
-0.297569 0.042547 -0.525969 10 11 10
-0.012979 -0.473129 -0.884052 90 65 42
-0.002849 -0.453204 -0.868155 103 72 44
-0.017831 -0.456287 -0.869012 106 74 44
-0.011200 -0.455126 -0.878147 96 68 43
-0.009521 -0.442416 -0.882639 94 65 40
-0.014545 -0.439187 -0.881206 45 34 25
-0.003967 -0.475099 -0.870728 96 68 41
-0.110518 -0.320662 -0.690253 105 85 59
-0.110098 -0.305962 -0.698068 105 88 58
-0.359462 0.123293 -0.513937 15 20 25
-0.373382 0.129296 -0.524971 16 21 30
-0.371813 0.118627 -0.524756 16 21 30
-0.371097 0.136106 -0.517187 15 20 29
-0.367449 0.122622 -0.520241 11 17 24
-0.090545 0.079118 -0.447223 13 16 18
-0.226103 0.202699 -0.658383 15 24 34
-0.214636 0.199198 -0.664250 14 21 31
-0.199499 0.217658 -0.672656 4 9 14
-0.218330 0.214285 -0.657965 9 14 20
-0.238498 0.201200 -0.650380 7 13 20
-0.104488 -0.492100 -0.477611 110 93 71
-0.105854 -0.464276 -0.472124 95 78 55
-0.104716 -0.482512 -0.454762 75 57 36
-0.104068 -0.497946 -0.434669 107 88 63
-0.222180 0.169214 -0.801182 17 18 17
-0.213619 0.171300 -0.796700 20 19 18
-0.042116 -0.426540 -0.808922 123 89 54
-0.053949 -0.438398 -0.797055 138 98 58
-0.052146 -0.410707 -0.794190 136 98 61
-0.030941 -0.438764 -0.823382 117 89 61
-0.398512 0.083581 -0.812096 17 16 18
-0.386954 0.085864 -0.828446 19 19 21
-0.397126 0.077710 -0.798800 28 25 25
-0.030637 -0.234180 -0.480390 64 54 42
-0.051112 -0.238516 -0.481353 70 57 40
-0.060301 -0.243983 -0.490609 60 48 35
-0.034651 -0.234894 -0.487255 60 49 35
-0.189941 0.189068 -0.730662 11 16 19
-0.192278 0.173464 -0.727059 12 14 15
-0.199083 0.175909 -0.713956 11 15 18
-0.203829 0.188268 -0.712995 11 15 18
-0.207963 0.177978 -0.701256 13 16 19
-0.323576 0.250453 -0.437029 14 19 29
-0.319956 0.261936 -0.438191 12 22 38
-0.332287 0.240359 -0.442134 18 19 21
-0.287984 0.126941 -0.861958 15 16 20
-0.302879 0.119154 -0.859251 11 12 16
-0.309547 0.125111 -0.865615 11 12 15
-0.323404 0.110884 -0.863679 11 12 15
-0.282025 0.136052 -0.863757 20 21 23
-0.198294 0.107606 -0.893028 13 14 16
-0.206992 0.115495 -0.887707 21 17 16
-0.359981 0.100284 -0.850829 15 19 22
-0.370645 0.098916 -0.857468 11 16 20
-0.362620 0.099521 -0.858580 11 17 20
-0.381980 0.094108 -0.831007 13 17 20
-0.360288 0.097227 -0.824841 15 18 18
-0.367133 0.085537 -0.834257 18 18 20
-0.375885 0.098594 -0.833045 13 17 20
-0.364354 0.097536 -0.846262 16 19 23
-0.351411 0.100692 -0.840599 15 16 19
-0.354155 0.096580 -0.841022 17 19 21
-0.351428 0.098547 -0.858387 16 21 24
-0.351693 0.107723 -0.856729 12 17 20
-0.362396 0.101312 -0.838794 12 15 18
-0.374807 0.088097 -0.834769 14 17 21
0.271068 -0.195801 -0.860129 18 19 20
0.280839 -0.215142 -0.861021 19 19 20
0.288357 -0.200113 -0.860229 18 19 20
-0.309274 0.202635 -0.615741 41 45 60
-0.335569 0.207783 -0.603741 35 34 37
-0.325641 0.216672 -0.607581 16 16 18
-0.301158 0.216510 -0.609899 66 75 94
-0.309429 0.218735 -0.604601 34 40 50
-0.088538 -0.640350 -0.731686 26 24 20
-0.096388 -0.637544 -0.734576 27 25 21
-0.100363 -0.637708 -0.697345 22 22 19
-0.105170 -0.632241 -0.719606 34 31 26
-0.109068 -0.626997 -0.704414 43 36 27
-0.080494 -0.641616 -0.708272 27 26 23
-0.087017 -0.641787 -0.710847 24 24 20
-0.097431 -0.636926 -0.714978 26 24 19
-0.321225 0.075057 -0.579066 25 24 20
-0.339900 0.063795 -0.574736 23 23 22
-0.047006 -0.331423 -0.794299 147 107 67
-0.046046 -0.310689 -0.786142 142 104 64
-0.057526 -0.326281 -0.785251 147 105 65
-0.060540 -0.324155 -0.796085 121 93 58
-0.058791 -0.309869 -0.804039 117 88 55
-0.046553 -0.314264 -0.771419 140 110 84
-0.054679 -0.318387 -0.765440 146 106 65
-0.053118 -0.309176 -0.778087 156 112 71
-0.049648 -0.322611 -0.773960 145 107 67
-0.059215 -0.321227 -0.785400 146 105 65
-0.048090 -0.337183 -0.778599 143 104 65
-0.058388 -0.331324 -0.774127 149 107 68
-0.324833 -0.124019 -0.880331 39 40 34
-0.310613 -0.152080 -0.881462 39 39 34
-0.342518 -0.147378 -0.881757 40 41 36
-0.380536 0.150367 -0.582825 16 17 22
-0.380042 0.136136 -0.587933 14 17 20
-0.392348 0.124367 -0.573897 15 15 19
-0.391317 0.132370 -0.575751 15 16 19
-0.399315 0.122386 -0.567369 14 16 19
-0.402283 0.121330 -0.560193 13 15 18
-0.393485 0.116120 -0.543108 30 37 47
-0.392424 0.143278 -0.560102 10 17 25
-0.397495 0.127999 -0.547206 26 34 46
-0.298479 0.184051 -0.620218 19 19 24
-0.308181 0.179131 -0.619901 19 19 22
-0.318326 0.187765 -0.611721 19 19 20
-0.335608 0.180718 -0.607166 17 17 18
-0.326594 0.199747 -0.611880 26 26 28
-0.319172 0.207142 -0.611328 26 26 28
-0.415479 0.245059 -0.518635 17 18 19
-0.422007 0.251283 -0.527671 20 21 23
-0.422192 0.244379 -0.510387 14 16 18
-0.397699 0.244315 -0.529435 15 18 20
-0.397932 0.233895 -0.538851 20 22 28
0.442322 0.033649 -0.863492 22 21 23
0.356270 -0.093062 -0.863759 19 20 19
0.337042 -0.131136 -0.862998 19 20 20
0.338575 -0.096570 -0.863207 19 20 20
0.337912 -0.111163 -0.861621 19 21 21
0.362221 -0.111727 -0.861888 18 19 21
-0.022121 -0.389959 -0.864737 72 56 39
0.300745 -0.196839 -0.642419 64 48 31
0.297995 -0.193211 -0.652947 64 48 31
0.306180 -0.183924 -0.646566 64 48 31
-0.330736 0.122612 -0.581261 25 27 32
-0.336479 0.132074 -0.596918 14 14 16
-0.324708 0.131855 -0.590195 27 34 45
-0.335444 0.102204 -0.577955 16 17 12
-0.346893 0.137854 -0.596806 13 13 16
-0.340547 0.144849 -0.600146 13 13 17
-0.102976 -0.308766 -0.533177 117 95 65
-0.103280 -0.332166 -0.539806 115 95 65
-0.103847 -0.320544 -0.523285 120 101 70
0.229112 0.107384 -0.661056 8 10 10
0.253376 0.118216 -0.672333 14 15 17
-0.309544 0.083003 -0.587090 25 24 20
-0.288471 0.082998 -0.599414 17 21 25
-0.048434 0.137163 -0.871157 18 19 21
-0.034663 0.117920 -0.878443 21 20 20
-0.045469 0.118987 -0.867293 17 18 19
-0.023786 0.123349 -0.889464 20 20 20
-0.256154 -0.155235 -0.878175 39 38 35
-0.128631 -0.060456 -0.866871 31 31 27
-0.156752 -0.047980 -0.871106 30 32 30
-0.152843 -0.062668 -0.872370 31 32 29
0.100328 -0.009537 -0.872671 12 15 16
0.065083 0.005638 -0.875954 18 21 19
0.066082 -0.018460 -0.875838 27 25 22
0.063228 -0.021464 -0.893924 29 26 23
0.059980 -0.019474 -0.886533 25 25 21
0.063317 -0.026529 -0.884948 30 28 25
-0.397509 0.008836 -0.880537 40 40 38
-0.420095 -0.000445 -0.881077 40 40 36
-0.012723 -0.268853 -0.838176 80 66 50
-0.026234 -0.320146 -0.856212 79 66 52
-0.023659 -0.286116 -0.860802 117 84 54
-0.016939 -0.293024 -0.835044 113 88 63
-0.031961 -0.286942 -0.849148 96 71 47
-0.108415 -0.571262 -0.754806 74 56 39
-0.105018 -0.592265 -0.772313 66 49 35
-0.108219 -0.363590 -0.658567 105 85 56
-0.108227 -0.348800 -0.637338 107 88 57
-0.171811 0.084432 -0.452518 17 20 24
-0.193608 0.050059 -0.456645 15 16 21
-0.168754 0.070208 -0.453557 12 15 19
-0.156431 0.087973 -0.453093 18 21 25
-0.190960 0.083018 -0.452538 14 22 30
-0.098550 -0.252066 -0.567860 39 32 25
-0.075310 -0.252091 -0.543568 52 42 31
-0.097953 -0.256377 -0.552719 62 50 35
-0.094168 -0.248879 -0.558419 55 43 30
-0.087123 -0.255866 -0.538596 47 38 28
-0.035139 -0.524521 -0.822636 113 77 46
-0.041740 -0.513927 -0.817369 115 79 47
-0.048215 -0.497199 -0.809587 118 82 47
-0.059296 -0.507787 -0.798581 127 87 54
-0.057818 -0.523557 -0.813051 65 51 36
-0.057230 -0.531810 -0.801831 121 83 52
-0.369278 0.237459 -0.510813 10 12 15
-0.381473 0.232766 -0.526401 12 14 19
-0.388261 0.218029 -0.525331 8 12 15
-0.388967 0.231443 -0.533612 11 13 18
-0.386678 0.241090 -0.527817 10 10 14
0.258004 -0.118358 -0.611773 75 66 48
0.243622 -0.112964 -0.624259 77 68 50
0.245556 -0.088486 -0.617375 77 68 49
0.256622 -0.104863 -0.614528 75 66 47
0.244796 -0.101029 -0.623972 77 69 50
0.260328 -0.094245 -0.612035 77 68 47
-0.259698 0.170968 -0.802504 10 12 14
-0.259703 0.182294 -0.797917 16 18 18
-0.247386 0.183015 -0.804909 13 16 17
-0.322781 0.223383 -0.603467 39 50 60
-0.104054 -0.459611 -0.509855 106 87 65
-0.102609 -0.467105 -0.516414 106 86 65
-0.101596 -0.458423 -0.540196 93 75 50
-0.100793 -0.443869 -0.527735 99 80 56
-0.389513 0.094192 -0.513610 14 18 22
-0.381903 0.108087 -0.529069 25 30 36
-0.380888 0.104495 -0.512706 9 15 19
-0.036563 -0.223534 -0.867278 33 32 29
-0.043118 -0.217230 -0.870753 30 31 27
-0.134347 0.085110 -0.452599 23 30 39
-0.123311 0.060732 -0.444426 9 15 18
-0.139324 0.073833 -0.449341 12 16 19
0.303999 -0.232196 -0.854787 18 17 16
0.325535 -0.220590 -0.860241 18 19 17
0.305903 -0.222560 -0.860764 19 19 18
0.287587 -0.228361 -0.858842 19 19 19
0.401845 -0.096281 -0.864308 18 18 19
0.376777 -0.135287 -0.863971 18 18 18
0.395073 -0.112765 -0.863713 19 19 19
0.216954 -0.187666 -0.864200 19 21 20
0.203032 -0.183838 -0.865574 20 22 21
0.211342 -0.204977 -0.861318 19 21 20
-0.416686 -0.157158 -0.883522 40 40 36
-0.393262 -0.162183 -0.884354 40 39 35
-0.343830 0.110590 -0.435358 11 14 18
-0.337153 0.119826 -0.432455 13 15 19
-0.332096 0.133457 -0.432333 12 16 20
-0.057495 -0.465827 -0.804438 65 48 31
-0.057674 -0.428925 -0.802118 69 52 34
-0.058259 -0.451545 -0.811203 70 55 38
-0.075511 -0.453408 -0.823887 56 46 32
0.011038 0.120145 -0.886976 30 27 23
0.038554 -0.180123 -0.869783 27 28 27
0.024957 -0.173623 -0.869215 27 29 26
0.004280 -0.174156 -0.869472 27 29 26
0.006481 0.128878 -0.876392 26 24 19
0.001180 0.119053 -0.877885 25 23 19
-0.011555 0.120779 -0.866379 25 24 19
-0.000797 0.126909 -0.869750 28 26 21
-0.020240 0.123492 -0.859557 15 13 11
-0.111005 -0.301889 -0.609262 112 91 59
-0.110397 -0.318217 -0.635684 114 93 62
-0.378505 0.240827 -0.421168 14 15 18
-0.380303 0.250895 -0.428467 15 19 23
-0.100861 -0.252700 -0.618684 62 49 35
-0.104089 -0.255831 -0.632415 85 69 46
-0.108424 -0.367963 -0.638157 107 87 60
-0.111027 -0.361458 -0.604694 106 87 59
-0.248724 0.068567 -0.883335 16 17 16
-0.231065 0.098825 -0.889467 29 27 23
-0.172650 0.212452 -0.698586 16 25 35
0.336575 -0.178979 -0.864421 19 19 19
0.362975 -0.191362 -0.859650 18 18 18
0.231411 -0.074121 -0.668181 31 29 23
0.239666 -0.076429 -0.659613 31 29 23
0.238617 -0.063004 -0.662041 24 22 20
0.233789 -0.085222 -0.636878 78 68 51
0.236656 -0.058756 -0.645359 78 68 50
0.237496 -0.089392 -0.656523 75 67 53
0.240018 -0.047755 -0.646260 74 67 47
0.225604 0.024403 -0.868026 19 20 22
0.219170 0.041042 -0.869477 18 20 21
0.246726 0.040854 -0.867835 18 19 21
-0.071713 -0.541128 -0.825561 62 49 34
-0.092528 -0.532624 -0.796057 65 49 33
-0.081804 -0.554066 -0.810629 62 49 33
-0.268261 -0.387734 -0.879882 39 37 34
-0.195132 0.212692 -0.827093 18 18 18
-0.187719 0.222315 -0.826432 16 18 17
0.376412 0.008181 -0.664539 81 65 46
0.366259 0.007163 -0.654509 113 87 60
0.366049 0.019718 -0.654287 112 89 60
0.349958 0.004276 -0.644619 104 81 55
-0.331931 -0.092617 -0.880599 38 37 35
-0.305452 -0.097941 -0.880542 36 35 32
-0.151971 -0.295083 -0.875834 35 35 31
-0.278123 -0.314086 -0.882380 37 36 32
-0.297187 -0.321534 -0.882128 37 37 34
-0.278605 -0.334464 -0.880780 36 36 31
-0.292897 -0.344368 -0.879789 38 37 34
-0.218833 -0.035004 -0.877320 31 32 28
-0.320795 0.169406 -0.476619 18 20 25
-0.334920 0.156238 -0.483317 18 20 25
-0.106360 -0.380924 -0.506562 108 89 64
-0.285504 0.114385 -0.860317 13 15 18
-0.314519 0.116220 -0.848727 14 14 18
-0.292300 0.113567 -0.854522 13 16 21
-0.301745 0.111163 -0.844689 17 20 26
-0.279705 0.115660 -0.859020 14 14 18
0.366383 -0.076321 -0.654042 96 76 51
0.354609 -0.082717 -0.646964 96 74 50
0.368972 -0.069236 -0.655658 98 78 52
0.365907 -0.094493 -0.653450 97 75 50
0.351864 -0.071970 -0.645380 85 72 50
-0.017668 -0.087166 -0.870324 26 28 26
0.273949 -0.210096 -0.613823 67 57 42
0.290185 -0.195574 -0.621912 73 60 43
-0.046394 -0.332804 -0.825510 83 65 42
-0.029153 -0.338201 -0.850770 84 66 46
0.212447 0.143444 -0.847931 13 14 16
0.205490 0.154869 -0.842618 13 14 16
0.235489 -0.639705 -0.885705 12 10 10
0.224425 -0.665985 -0.889179 13 13 14
-0.066880 -0.386678 -0.859343 32 33 26
-0.076864 -0.374695 -0.867148 33 33 28
-0.203941 0.085398 -0.455885 16 18 18
-0.188918 0.070837 -0.456163 12 13 15
-0.216271 0.069329 -0.456595 13 16 22
-0.222859 0.084762 -0.461887 11 12 16
-0.301315 0.249660 -0.460111 20 21 21
-0.311566 0.240927 -0.457747 21 21 22
-0.311280 0.264062 -0.460303 14 18 25
-0.321771 0.265281 -0.454993 15 19 25
-0.327190 0.258919 -0.479349 13 14 18
-0.305823 0.255705 -0.476043 16 17 20
-0.306124 0.246011 -0.473203 14 15 19
-0.315914 0.264508 -0.469995 12 13 17
-0.316541 0.247402 -0.449440 19 18 20
-0.315492 0.248270 -0.445493 17 18 22
-0.324992 0.265912 -0.445324 17 20 29
-0.325093 0.257538 -0.446830 15 18 22
-0.296632 0.257374 -0.453117 19 24 33
-0.307836 0.250139 -0.447942 12 19 33
-0.129170 -0.012992 -0.864578 27 29 27
-0.182805 -0.051347 -0.875805 30 31 29
-0.201760 -0.047797 -0.876906 31 33 29
-0.110023 -0.378210 -0.762140 82 67 45
-0.108415 -0.385971 -0.742460 93 77 51
0.301721 0.072187 -0.868327 18 19 21
0.302219 0.056092 -0.866842 19 20 21
-0.035495 0.120159 -0.848794 24 22 19
-0.038833 0.128440 -0.846550 27 24 21
-0.051432 0.117108 -0.829906 25 22 19
-0.048338 0.127261 -0.830625 15 15 16
-0.049289 0.113254 -0.833304 24 23 19
-0.030791 0.107345 -0.832893 25 22 18
-0.037411 0.122462 -0.836326 11 14 13
-0.055428 0.120819 -0.834983 20 19 18
-0.027768 0.133306 -0.840844 11 12 13
-0.387354 -0.228953 -0.883119 37 37 33
-0.410036 -0.245269 -0.884140 41 40 36
-0.274541 -0.010380 -0.877530 35 37 33
-0.090992 0.192324 -0.887159 21 19 17
-0.049443 -0.159201 -0.871600 31 30 29
-0.055188 -0.186526 -0.871917 31 33 30
-0.080323 -0.159865 -0.871222 29 31 28
-0.384568 -0.015580 -0.881032 39 40 36
-0.416252 -0.036880 -0.883841 38 39 35
-0.021715 0.179027 -0.900627 21 21 17
-0.023383 0.199661 -0.902537 30 28 24
-0.039413 0.202057 -0.907892 23 22 18
-0.039243 0.191622 -0.902838 27 27 23
0.021433 0.056228 -0.472678 14 15 16
0.018572 0.050478 -0.462842 19 19 21
0.029532 0.055180 -0.467504 17 19 21
0.016027 0.046980 -0.467070 18 17 17
0.012596 0.049323 -0.473010 20 18 20
0.020826 0.061004 -0.463526 16 16 18
0.362061 -0.011508 -0.730836 21 18 14
-0.108294 -0.534166 -0.711084 79 61 41
-0.106987 -0.551700 -0.682012 79 61 41
0.158669 0.183896 -0.852160 16 19 22
0.153856 0.171470 -0.855026 12 13 15
0.144973 0.155185 -0.851773 11 12 14
0.146808 0.184152 -0.853417 13 14 16
0.155513 0.155479 -0.844190 8 11 12
0.158899 0.179684 -0.847121 13 14 17
0.176515 0.169793 -0.844094 16 18 22
0.167892 0.167412 -0.850149 15 16 19
0.168632 0.155390 -0.843934 12 13 15
-0.105277 -0.534891 -0.477762 85 68 47
-0.003621 -0.231634 -0.469741 22 19 17
0.007948 -0.239212 -0.451660 20 22 19
0.003116 -0.230279 -0.456300 17 18 18
-0.109257 -0.399476 -0.757100 92 76 51
-0.108506 -0.434396 -0.762954 63 48 33
-0.109477 -0.422628 -0.753780 72 55 38
0.022704 -0.251813 -0.549246 82 68 48
0.009594 -0.247697 -0.569535 36 30 23
0.017184 -0.252362 -0.563917 51 43 31
0.021625 -0.251841 -0.537777 79 68 51
-0.140117 0.233750 -0.741886 16 19 18
-0.147963 0.235277 -0.736762 20 22 22
-0.162053 0.224813 -0.729719 18 21 31
-0.231472 -0.103863 -0.876755 37 37 35
-0.253292 -0.075319 -0.879727 37 38 35
-0.108097 -0.450744 -0.710675 90 73 47
-0.108054 -0.462236 -0.712950 89 71 47
-0.108917 -0.428634 -0.719718 87 70 47
-0.109209 -0.438024 -0.731754 89 72 49
-0.277170 0.105548 -0.890777 19 22 28
-0.273555 0.123531 -0.862152 18 22 25
-0.256367 0.125935 -0.867184 18 21 26
-0.267530 0.140488 -0.859949 18 21 23
-0.255142 0.122150 -0.877289 16 18 24
-0.268492 0.116492 -0.870340 17 19 22
0.284522 -0.233034 -0.847973 18 18 18
0.258436 -0.229718 -0.853989 19 19 19
0.275123 -0.229437 -0.854894 19 19 19
0.265555 -0.235687 -0.844715 20 18 16
0.281293 -0.039185 -0.866397 19 21 20
0.244961 -0.032867 -0.864442 20 21 21
0.206661 -0.227148 -0.677402 9 11 9
0.219932 -0.221011 -0.685575 7 12 10
0.223136 -0.218881 -0.673339 14 18 15
0.211184 -0.219438 -0.674998 10 16 14
0.203877 -0.231007 -0.672873 10 14 12
0.298029 0.005661 -0.626173 89 71 50
0.304527 -0.021675 -0.630879 87 72 51
0.287319 -0.002807 -0.622177 85 69 50
0.309399 -0.148206 -0.666512 68 54 38
0.308969 -0.129049 -0.673385 78 64 42
0.306320 -0.135105 -0.647829 80 65 43
0.302919 -0.147697 -0.649835 72 57 39
0.302942 -0.125546 -0.649492 76 61 40
0.310454 -0.129662 -0.659876 76 61 38
0.308289 -0.131162 -0.638280 83 69 49
0.308159 -0.149677 -0.644989 72 59 38
-0.391753 0.253106 -0.435567 13 16 19
-0.394312 0.255928 -0.445876 12 14 16
-0.410658 0.260789 -0.440426 12 15 18
-0.414451 0.257294 -0.427677 13 16 18
-0.410725 0.266787 -0.424194 14 15 20
-0.406870 0.254654 -0.433745 13 17 19
-0.415250 0.252324 -0.420692 12 14 15
-0.021907 -0.652031 -0.871526 33 29 23
-0.028800 -0.635053 -0.866858 37 30 20
0.304771 -0.182778 -0.679035 16 14 10
0.298662 -0.180575 -0.677933 15 13 8
0.301221 -0.171146 -0.683295 14 14 11
0.304960 -0.172898 -0.677433 40 32 23
0.290828 0.064842 -0.648993 41 35 27
0.292671 0.059482 -0.665030 38 31 23
0.288672 0.069280 -0.666052 42 36 32
-0.276875 0.005567 -0.171259 17 24 32
-0.278571 -0.010635 -0.181414 21 23 28
-0.283012 0.002742 -0.158292 20 20 21
-0.284646 -0.009282 -0.168595 19 22 26
-0.287788 0.004868 -0.166973 19 22 29
-0.275107 -0.000388 -0.186356 18 24 32
-0.017058 -0.058590 -0.198400 87 78 62
-0.043714 -0.057700 -0.200907 122 105 73
-0.038542 -0.074277 -0.191612 96 85 67
-0.021650 -0.068663 -0.187560 47 46 45
-0.060067 -0.052868 -0.128858 133 112 76
0.081094 -0.262476 -0.123874 143 154 148
0.081298 -0.281545 -0.123333 144 155 148
-0.031930 -0.520882 -0.125575 138 141 128
-0.105403 -0.598924 -0.311571 75 58 37
-0.105130 -0.620644 -0.331021 89 69 45
-0.099587 -0.614602 -0.354311 85 65 44
-0.100873 -0.597955 -0.349180 90 71 44
-0.101208 -0.627642 -0.349702 83 65 43
-0.034379 0.056042 -0.173427 43 31 27
0.002375 0.038054 -0.176125 35 39 40
-0.008876 0.055118 -0.171284 38 39 40
-0.028147 0.067347 -0.163981 33 32 32
-0.031642 0.051225 -0.165767 96 74 51
-0.028741 0.071007 -0.174677 34 32 32
0.344296 0.165876 -0.122783 125 136 127
0.311429 0.137615 -0.122692 125 135 126
-0.063602 0.015400 -0.237437 25 25 23
-0.070778 0.029674 -0.231892 27 28 28
-0.086420 0.021779 -0.231357 27 27 28
-0.082086 0.028311 -0.226215 25 27 25
-0.099097 0.023176 -0.221975 26 27 27
0.336993 0.132313 -0.122193 125 134 126
-0.081287 0.030827 -0.222467 23 25 24
0.006818 0.004664 -0.127707 143 146 132
0.183297 -0.225378 -0.121691 130 140 132
0.208566 -0.210370 -0.122198 129 140 133
0.213831 -0.226160 -0.120813 129 139 132
-0.192059 -0.642953 0.008195 109 96 70
-0.346912 0.118397 -0.178210 17 21 25
0.331276 -0.382028 -0.150586 84 89 82
0.018213 -0.636746 0.002898 97 86 66
0.060268 -0.641197 0.011498 96 88 65
-0.088972 -0.454536 -0.131762 143 126 94
-0.083985 -0.472949 -0.129668 143 126 94
-0.063409 -0.454280 -0.126930 145 128 98
0.139748 0.145759 -0.126100 141 153 147
-0.372372 0.123994 -0.391928 16 23 30
-0.374414 0.138554 -0.394209 20 28 36
-0.371523 0.140156 -0.378973 26 34 41
-0.369833 0.136336 -0.407582 10 16 22
0.425686 0.053556 -0.121952 118 129 120
0.323868 -0.391444 -0.117498 110 118 107
0.313573 -0.416569 -0.117963 112 119 110
-0.351449 0.264587 -0.093732 31 36 42
-0.333981 0.266108 -0.099939 25 30 35
0.374358 0.170956 -0.122429 122 131 121
0.368233 0.152531 -0.122679 120 130 121
0.013571 -0.635866 -0.005774 98 88 66
0.450717 0.136535 -0.029797 128 144 149
-0.006524 -0.160493 -0.125733 156 165 158
-0.074885 -0.652828 -0.136828 39 32 22
-0.040045 -0.650918 -0.138746 45 36 26
-0.079597 -0.636053 -0.126023 79 68 49
-0.065729 -0.649043 -0.157055 58 48 37
-0.073454 -0.651493 -0.155100 47 40 29
-0.056271 -0.638871 -0.125373 94 78 53
-0.106570 -0.168332 -0.221947 14 17 15
-0.094574 -0.170684 -0.227744 14 15 16
0.424569 -0.102363 -0.119861 109 120 110
0.273796 -0.685948 0.097153 27 32 34
0.309525 -0.675219 0.068982 33 36 33
0.286909 -0.684308 0.090783 24 29 35
0.273105 -0.669143 0.099733 28 30 30
0.283068 -0.682783 0.078005 28 30 35
0.295089 -0.683339 0.096880 24 26 34
0.293712 -0.684074 0.083822 31 32 35
0.278339 -0.684475 0.070403 26 29 34
0.292489 -0.671861 0.080042 28 30 30
0.310459 -0.678684 0.069225 24 29 32
0.145352 -0.749627 0.187035 33 48 61
0.102700 -0.753340 0.186478 32 48 60
-0.421752 -0.641677 -0.025262 107 88 59
-0.407983 -0.642455 0.002934 113 102 76
-0.217376 -0.642963 0.007436 110 98 73
-0.008781 -0.177970 -0.125165 151 164 160
-0.017056 0.023465 -0.243014 16 17 16
-0.023500 0.016836 -0.237707 24 23 21
-0.039540 0.026658 -0.245441 15 15 16
-0.011487 0.010157 -0.241444 25 22 19
-0.337408 0.036116 -0.142062 18 22 28
-0.350989 0.024810 -0.130828 16 20 23
-0.327926 0.022993 -0.151301 18 20 26
-0.337113 0.045432 -0.139371 18 20 25
0.235879 -0.526477 -0.118399 119 126 118
0.281640 -0.643558 0.011404 92 83 65
0.238588 -0.650902 0.015027 98 90 73
0.256793 -0.636059 0.006969 88 76 60
0.261956 -0.657707 0.016493 96 88 71
0.274031 -0.649696 0.015134 93 84 66
0.187795 -0.709396 0.183978 29 39 49
0.156381 -0.703391 0.180429 28 37 49
0.175777 -0.688568 0.171459 25 36 43
0.206575 -0.179126 -0.123363 134 144 137
-0.371454 0.079040 -0.396163 17 23 31
-0.362700 0.076227 -0.383811 16 23 30
-0.363471 0.078036 -0.409526 13 18 23
-0.358252 0.073820 -0.396739 15 20 24
-0.369999 0.083858 -0.411142 11 16 19
-0.349631 0.076855 -0.415159 15 21 25
-0.051789 -0.160355 -0.127131 151 131 98
-0.083067 -0.160576 -0.129835 151 131 95
-0.074441 -0.141051 -0.128070 149 130 94
-0.058708 -0.634592 -0.410458 86 65 43
-0.077273 -0.642110 -0.413783 49 39 29
-0.056840 -0.636405 -0.379101 94 72 48
-0.076803 -0.641425 -0.398887 53 43 33
-0.066509 -0.639021 -0.406823 72 57 37
-0.047365 -0.631549 -0.398675 91 69 45
-0.349507 0.011407 -0.134452 19 20 23
-0.347454 0.007498 -0.124132 14 17 20
-0.334656 -0.003752 -0.139367 18 18 19
-0.333907 -0.005935 -0.154043 14 18 21
-0.334422 0.004069 -0.147398 17 19 23
-0.019850 0.022776 -0.127973 141 143 125
0.358452 -0.249461 -0.157206 100 106 99
0.372426 -0.258337 -0.148310 106 112 105
0.364697 -0.220005 -0.148929 113 112 102
0.361801 -0.251549 -0.146286 116 120 109
0.350597 -0.255302 -0.148256 111 117 109
0.353689 -0.237495 -0.145204 113 119 113
0.377329 -0.230932 -0.146300 109 115 109
0.376208 -0.245955 -0.146789 112 118 111
0.046648 -0.053434 -0.190128 19 20 22
0.049935 -0.036383 -0.192852 20 21 24
0.038034 -0.048942 -0.191340 19 20 24
0.022709 -0.051657 -0.196694 28 32 33
0.026590 -0.027791 -0.199446 28 32 34
0.044135 -0.046136 -0.199563 23 23 28
0.034016 -0.053809 -0.197606 26 30 30
0.051156 -0.036782 -0.201172 25 25 31
0.057309 -0.055989 -0.189495 25 26 29
-0.013937 -0.458194 -0.124222 141 147 136
0.227587 -0.095467 -0.122258 128 139 131
0.276078 -0.078509 -0.120664 123 134 125
0.160833 0.177852 -0.126460 139 149 143
0.425630 -0.170192 -0.147412 112 116 109
0.349375 -0.313329 -0.118237 112 119 111
0.352061 -0.291797 -0.118264 113 121 112
-0.205179 -0.682045 0.054738 21 27 35
0.363207 -0.120919 -0.158208 61 64 63
0.296694 -0.550615 -0.117603 120 128 120
0.302593 -0.573785 -0.118575 118 124 115
-0.092297 -0.022561 -0.229836 11 14 16
-0.004660 0.173551 -0.128083 57 67 65
0.428529 -0.150404 -0.017498 87 97 101
0.430306 -0.152414 -0.013315 117 131 134
0.012698 -0.636619 -0.190168 91 75 52
-0.003013 -0.638666 -0.185520 103 82 56
0.008108 -0.648056 -0.170696 74 62 47
0.011897 -0.653901 -0.161243 82 71 53
-0.011590 -0.651799 -0.155156 83 68 51
0.084606 -0.375758 -0.122962 139 149 143
-0.136362 -0.637873 -0.031262 94 83 65
-0.110383 -0.638430 -0.017262 105 93 69
-0.102386 -0.019042 -0.141098 15 17 18
-0.081351 -0.026610 -0.131177 110 94 63
-0.092123 -0.048978 -0.133033 109 93 62
-0.090380 -0.032344 -0.156391 17 23 25
-0.099668 -0.013477 -0.149990 14 18 20
-0.099689 -0.021413 -0.137267 66 53 36
-0.091332 -0.018380 -0.133372 71 57 46
0.215810 -0.673447 0.153747 25 34 41
0.220188 -0.676969 0.162638 25 34 41
0.379812 0.130628 -0.122111 125 132 125
0.286624 -0.333979 -0.118793 119 129 120
0.080186 -0.139392 -0.124250 143 158 152
0.008148 0.142774 -0.128325 84 94 93
-0.026629 0.168152 -0.129149 25 32 35
0.004706 0.160466 -0.128211 91 101 99
0.055120 -0.645453 -0.049940 83 73 57
0.424555 -0.293736 -0.119889 109 116 108
0.057681 -0.634158 -0.018637 97 87 65
0.066737 -0.634178 -0.008762 92 80 60
0.042760 -0.632677 -0.030318 88 80 61
-0.095413 -0.153367 -0.133413 133 117 86
-0.102013 -0.146185 -0.137520 137 116 86
-0.024701 -0.639001 -0.176619 81 55 32
-0.023884 -0.637032 -0.188510 81 56 34
-0.041018 -0.636186 -0.182815 62 41 23
-0.032523 -0.643520 -0.166366 85 62 41
-0.007272 -0.645360 -0.170249 91 74 54
-0.027471 -0.652158 -0.156206 88 73 54
-0.331053 0.072636 -0.092731 22 22 26
-0.346828 0.075287 -0.079551 19 21 25
-0.342736 0.064756 -0.086378 22 25 28
-0.335500 0.071088 -0.087478 19 21 24
0.272242 -0.735569 0.193897 33 45 59
0.245970 -0.748500 0.191901 34 48 60
-0.100336 -0.422696 -0.363523 122 101 69
-0.258262 0.049546 -0.148314 17 24 33
-0.280015 0.058485 -0.127409 18 24 33
-0.274276 0.065920 -0.128924 17 25 33
-0.273780 0.046583 -0.142289 21 26 32
-0.266601 0.059587 -0.137762 17 25 35
0.397569 -0.221410 -0.146103 98 103 101
0.421919 -0.221990 -0.144034 80 86 84
0.408976 -0.215850 -0.146655 98 102 98
0.410226 -0.224099 -0.145388 95 100 98
0.389114 -0.214875 -0.148564 112 113 102
0.418118 -0.204221 -0.150403 84 88 87
0.414654 -0.212027 -0.151229 86 89 87
0.392391 -0.253280 -0.145775 111 115 106
0.388768 -0.237048 -0.147081 106 112 107
0.381297 -0.262411 -0.145388 116 119 109
0.395113 -0.253919 -0.141782 113 116 108
0.405946 -0.263672 -0.156714 105 110 105
0.421836 -0.243341 -0.147156 111 114 107
0.376728 -0.255042 -0.156610 99 104 97
0.391994 -0.262980 -0.141026 116 119 111
0.410885 -0.250746 -0.140933 116 119 111
0.407770 -0.250634 -0.145648 113 117 110
0.403296 -0.238047 -0.147377 105 111 107
0.418091 0.141818 -0.122324 121 128 120
-0.027112 -0.049952 -0.200934 102 91 68
0.004823 -0.026023 -0.201282 78 72 56
-0.023727 -0.030373 -0.201243 73 67 51
-0.009874 -0.045120 -0.196338 60 58 52
-0.043972 -0.042447 -0.203077 112 95 61
0.439071 -0.094449 -0.025581 93 105 108
-0.324352 -0.700385 0.162915 23 33 42
-0.369075 -0.704937 0.167064 22 32 40
-0.356138 -0.707860 0.170623 24 37 44
-0.332335 -0.712161 0.174832 27 37 46
-0.078528 -0.191453 -0.230467 17 21 22
-0.067003 -0.207392 -0.233361 14 15 13
-0.087138 -0.198574 -0.229306 13 14 12
0.317052 -0.671180 0.090475 28 28 30
0.314642 -0.681831 0.092930 32 33 34
0.336830 -0.673869 0.092517 30 32 30
0.317406 -0.680184 0.075920 25 27 31
0.329717 -0.674755 0.078668 29 29 30
0.050234 -0.280770 -0.123884 148 158 151
-0.371202 -0.683919 -0.002019 123 108 82
-0.396765 -0.690328 -0.002805 117 102 76
-0.393417 -0.673241 -0.000337 117 103 79
-0.359494 -0.675607 -0.000591 114 102 77
-0.390766 0.211865 -0.055044 30 35 34
-0.385359 0.189779 -0.052972 19 27 33
-0.398623 0.190985 -0.051141 21 28 31
-0.372496 0.194877 -0.060373 19 26 30
-0.405228 0.133812 -0.126842 17 21 25
-0.108703 -0.382280 -0.304811 128 107 74
-0.353925 -0.695641 0.144738 24 32 41
-0.323406 -0.695104 0.148739 24 32 40
-0.110744 -0.315746 -0.310695 127 105 73
-0.026228 -0.629745 -0.390580 118 81 47
-0.021469 -0.629476 -0.402789 118 83 51
-0.041145 -0.631095 -0.407118 108 74 44
-0.028339 -0.626611 -0.413802 112 78 44
-0.366726 0.219917 -0.209532 20 25 31
-0.382542 0.242260 -0.170226 21 22 25
-0.377564 0.225285 -0.183264 19 23 28
-0.375522 0.233430 -0.190392 19 23 29
-0.371499 0.219567 -0.171157 21 21 26
-0.370038 0.210518 -0.177007 19 22 27
0.104974 0.195030 -0.127008 146 156 151
-0.152013 -0.692457 0.012174 70 62 45
-0.176198 -0.689931 0.025082 56 51 38
-0.194924 -0.692299 0.006570 90 78 57
-0.175662 -0.689372 0.005096 83 73 53
-0.184947 -0.693772 0.010265 76 66 48
-0.167378 -0.682511 0.003348 99 87 63
-0.387620 -0.702802 0.162985 24 34 43
-0.382689 -0.714014 0.174608 26 35 45
-0.106275 -0.283741 -0.414638 122 101 68
-0.104273 -0.271786 -0.415211 101 82 55
-0.106593 -0.295803 -0.391333 122 100 67
-0.106993 -0.282211 -0.390347 102 82 54
-0.108018 -0.297479 -0.422982 124 102 71
0.370178 -0.679144 0.167077 72 82 87
0.012074 -0.063013 -0.181821 35 34 34
-0.010989 -0.063315 -0.187629 27 31 33
-0.001606 -0.055705 -0.173798 84 75 60
-0.005498 -0.069569 -0.176582 72 58 51
0.008397 -0.068138 -0.166912 122 114 96
0.003937 -0.067381 -0.183703 46 44 40
-0.016688 -0.074411 -0.176371 41 30 29
0.004698 -0.052834 -0.168709 82 75 62
0.004880 -0.060214 -0.177115 68 57 50
0.018275 -0.055028 -0.164385 111 105 89
0.264889 0.115445 -0.123168 131 143 134
0.240583 0.124790 -0.123982 129 141 132
0.226285 0.107457 -0.123963 134 145 137
-0.360294 0.147020 -0.162340 17 22 26
-0.361942 0.180745 -0.174215 21 24 28
-0.350290 0.157918 -0.187329 17 22 25
-0.362347 0.164099 -0.171567 17 22 26
-0.359270 0.176716 -0.182308 18 23 27
-0.366759 0.155990 -0.151055 17 22 26
-0.351320 0.142226 -0.178430 17 22 26
-0.424037 0.262671 -0.118986 23 23 26
0.205121 0.135828 -0.125068 137 147 141
0.193065 -0.672138 0.067613 29 31 28
-0.077296 0.072947 -0.181075 28 27 30
-0.074194 0.061205 -0.164082 22 21 16
-0.086339 0.071994 -0.161707 19 21 20
-0.088290 0.078597 -0.165045 18 18 19
-0.079041 0.062263 -0.183674 19 19 20
-0.071936 0.084043 -0.173828 29 29 25
0.326960 -0.673488 0.161739 52 61 67
0.336498 -0.687797 0.138083 34 44 50
