ply
format ascii 1.0
element vertex 1287
property float x
property float y
property float z
property uchar red
property uchar green
property uchar blue
end_header
-1.215044 -0.013907 -0.528842 255 0 255
-1.198887 -0.101427 -0.542843 255 0 255
-1.195228 -0.007256 -0.498842 255 0 255
-1.231525 -0.086321 -0.550843 255 0 255
-1.165883 -0.049157 -0.506842 255 0 255
-1.197349 -0.103809 -0.551062 255 0 255
-1.235618 -0.091462 -0.502842 255 0 255
-1.174789 -0.026532 -0.510843 255 0 255
-1.174431 -0.024848 -0.465524 255 0 255
-1.189096 -0.016885 -0.500843 255 0 255
-1.181943 -0.012089 -0.544842 255 0 255
-1.183980 -0.021671 -0.482843 255 0 255
-1.247188 -0.054366 -0.492842 255 0 255
-1.223302 -0.091233 -0.556842 255 0 255
-1.209336 -0.006294 -0.530842 255 0 255
-1.222982 -0.099347 -0.536842 255 0 255
-1.196704 -0.136661 -0.514843 255 0 255
-1.157251 -0.055081 -0.472842 255 0 255
-1.211162 -0.101457 -0.526842 255 0 255
-1.179974 -0.012447 -0.508842 255 0 255
-1.241438 -0.033097 -0.480842 255 0 255
-1.207284 -0.102454 -0.538842 255 0 255
-1.211177 -0.101529 -0.498842 255 0 255
-1.211279 -0.005815 -0.486843 255 0 255
-1.207647 -0.094539 -0.512842 255 0 255
-1.204995 -0.005108 -0.504842 255 0 255
-1.159598 -0.062761 -0.498842 255 0 255
-1.209330 -0.006262 -0.510843 255 0 255
-1.166980 -0.042790 -0.524843 255 0 255
-1.195226 -0.007244 -0.532843 255 0 255
-1.213509 -0.093262 -0.500843 255 0 255
-1.256123 -0.058601 -0.484842 255 0 255
-1.203043 -0.005543 -0.552842 255 0 255
-1.198979 -0.101857 -0.506842 255 0 255
-1.256494 -0.050344 -0.476842 255 0 255
-1.195227 -0.007252 -0.544842 255 0 255
-1.211553 -0.093679 -0.542843 255 0 255
-1.221338 -0.091617 -0.492842 255 0 255
-1.203732 -0.095359 -0.534842 255 0 255
-1.167444 -0.048825 -0.474842 255 0 255
-1.222320 -0.009658 -0.524843 255 0 255
-1.243033 -0.036847 -0.506842 255 0 255
-1.237709 -0.082061 -0.506842 255 0 255
-1.252491 -0.051194 -0.540842 255 0 255
-1.190507 -0.100479 -0.484842 255 0 255
-1.189024 -0.016543 -0.548842 255 0 255
-1.160764 -0.042066 -0.520842 255 0 255
-1.167467 -0.081535 -0.542843 255 0 255
-1.213122 -0.110680 -0.555830 255 0 255
-1.249086 -0.072365 -0.538842 255 0 255
-1.159315 -0.050553 -0.480842 255 0 255
-1.250387 -0.045508 -0.527508 255 0 255
-1.237459 -0.027809 -0.508842 255 0 255
-1.167484 -0.024280 -0.470842 255 0 255
-1.181037 -0.084785 -0.471503 255 0 255
-1.257415 -0.059335 -0.504842 255 0 255
-1.215639 -0.014045 -0.540842 255 0 255
-1.160817 -0.042055 -0.508842 255 0 255
-1.176271 -0.091218 -0.532843 255 0 255
-1.168468 -0.083367 -0.559050 255 0 255
-1.246707 -0.046290 -0.490842 255 0 255
-1.252310 -0.073794 -0.504842 255 0 255
-1.194618 -0.100578 -0.534842 255 0 255
-1.245444 -0.079970 -0.512842 255 0 255
-1.217991 -0.008532 -0.484842 255 0 255
-1.177155 -0.081520 -0.508842 255 0 255
-1.192073 -0.006786 -0.510843 255 0 255
-1.176240 -0.091076 -0.514843 255 0 255
-1.198563 -0.095372 -0.560843 255 0 255
-1.244051 -0.038676 -0.512842 255 0 255
-1.212845 -0.003560 -0.470842 255 0 255
-1.247146 -0.025750 -0.512842 255 0 255
-0.884650 0.338039 -0.500843 0 255 0
-1.111840 0.038755 -0.548842 0 255 0
-0.804110 0.053206 -0.552842 0 255 0
-1.135419 0.298098 -0.550843 0 255 0
-0.964025 0.166620 -0.548842 0 255 0
-0.799510 0.214430 -0.556842 0 255 0
-1.094707 0.177074 -0.482843 0 255 0
-1.013894 0.374501 -0.549810 0 255 0
-0.986223 0.042948 -0.548842 0 255 0
-1.027814 0.260913 -0.541844 0 255 0
-0.869751 0.129171 -0.498178 0 255 0
-0.896751 0.247367 -0.548842 0 255 0
-0.809264 0.380078 -0.552842 0 255 0
-1.048932 0.118185 -0.548842 0 255 0
-0.895750 0.054954 -0.559790 0 255 0
-0.827242 0.271442 -0.496746 0 255 0
-1.067630 0.326627 -0.500843 0 255 0
-1.126073 0.212279 -0.555804 0 255 0
-0.953447 0.312580 -0.547750 0 255 0
-0.797165 0.133980 -0.544842 0 255 0
-1.128832 0.126989 -0.548842 0 255 0
-0.825942 0.193467 -0.482843 0 255 0
-1.098487 0.255488 -0.496092 0 255 0
-1.110637 0.371475 -0.548842 0 255 0
-1.079055 0.077560 -0.492774 0 255 0
-0.924576 0.381070 -0.548842 0 255 0
-0.809560 0.306532 -0.559837 0 255 0
-1.052767 0.191618 -0.542843 0 255 0
-0.864808 0.181282 -0.549828 0 255 0
-0.945413 0.100270 -0.542499 0 255 0
-0.963795 0.235037 -0.542274 0 255 0
-0.817701 0.085465 -0.494842 0 255 0
-1.049332 0.053864 -0.550843 0 255 0
-0.849725 0.098333 -0.549753 0 255 0
-0.871576 0.303357 -0.549801 0 255 0
-0.872435 0.231975 -0.495678 0 255 0
-1.043278 0.149698 -0.498842 0 255 0
-0.866510 0.365665 -0.549766 0 255 0
-1.034736 0.319635 -0.548842 0 255 0
-0.897555 0.133036 -0.549801 0 255 0
-1.080096 0.284294 -0.542028 0 255 0
-1.049409 0.226654 -0.498507 0 255 0
-0.836438 0.257039 -0.549773 0 255 0
-0.829865 0.343563 -0.500843 0 255 0
-0.917836 0.196643 -0.548842 0 255 0
-0.999603 0.095431 -0.542609 0 255 0
-1.086548 0.152761 -0.530842 0 255 0
-1.093042 0.088712 -0.547719 0 255 0
-0.868474 0.077460 -0.504842 0 255 0
-1.015260 0.156444 -0.542843 0 255 0
-0.876503 0.281912 -0.502842 0 255 0
-1.004739 0.205944 -0.548842 0 255 0
-1.082666 0.233723 -0.541770 0 255 0
-1.061506 0.362130 -0.543998 0 255 0
-0.829756 0.153804 -0.512842 0 255 0
-0.968132 0.358925 -0.542843 0 255 0
-0.910040 0.334024 -0.542558 0 255 0
-1.105452 0.328532 -0.530589 0 255 0
-0.939767 0.049879 -0.544842 0 255 0
-0.850156 0.051397 -0.546842 0 255 0
-0.985239 0.278444 -0.547699 0 255 0
-0.826521 0.228350 -0.514843 0 255 0
-1.038894 0.083336 -0.514843 0 255 0
-0.869779 0.186428 -0.502842 0 255 0
-0.915673 0.288194 -0.542843 0 255 0
-1.093512 0.119482 -0.500843 0 255 0
-0.819398 0.173674 -0.551776 0 255 0
-1.104159 0.299632 -0.496843 0 255 0
-1.120837 0.256149 -0.549703 0 255 0
-1.056470 0.270390 -0.500843 0 255 0
-1.099394 0.212742 -0.507555 0 255 0
-0.838196 0.306485 -0.521921 0 255 0
-1.120911 0.169226 -0.552842 0 255 0
-0.849799 0.141287 -0.548842 0 255 0
-0.861945 0.223612 -0.541857 0 255 0
-0.830711 0.341698 -0.549830 0 255 0
-0.993698 0.325225 -0.542416 0 255 0
-0.793509 0.093465 -0.556842 0 255 0
-0.904219 0.092066 -0.542843 0 255 0
-0.974512 0.126902 -0.549807 0 255 0
-1.059682 0.187944 -0.499938 0 255 0
-0.829916 0.114570 -0.518896 0 255 0
-0.937097 0.139396 -0.542228 0 255 0
-0.799962 0.269732 -0.550843 0 255 0
-1.092666 0.196297 -0.544842 0 255 0
-0.836050 0.191527 -0.520985 0 255 0
-1.102957 0.340270 -0.494089 0 255 0
-0.947508 0.268379 -0.548842 0 255 0
-1.072195 0.321463 -0.547706 0 255 0
-1.046063 0.227988 -0.548842 0 255 0
-1.055089 0.113359 -0.499905 0 255 0
-0.876242 0.156351 -0.524843 0 255 0
-0.868692 0.268827 -0.536842 0 255 0
-1.051073 0.300616 -0.520842 0 255 0
-1.051627 0.153517 -0.540842 0 255 0
-0.821865 0.082188 -0.532843 0 255 0
-0.969257 0.074668 -0.549796 0 255 0
-0.952842 0.199994 -0.542596 0 255 0
-0.998030 0.242314 -0.548842 0 255 0
-1.016454 0.064254 -0.542534 0 255 0
-0.927750 0.231465 -0.542660 0 255 0
-0.872246 0.117433 -0.531008 0 255 0
-0.871008 0.335951 -0.532843 0 255 0
-1.093799 0.123632 -0.547697 0 255 0
-1.082776 0.055859 -0.542843 0 255 0
-1.126923 0.092848 -0.548842 0 255 0
-0.900480 0.167372 -0.548842 0 255 0
-0.832308 0.209133 -0.549778 0 255 0
-0.875109 0.075103 -0.542355 0 255 0
-1.077523 0.148798 -0.498842 0 255 0
-1.133469 0.331398 -0.548842 0 255 0
-1.061056 0.258437 -0.532843 0 255 0
-1.014876 0.292922 -0.542460 0 255 0
-1.016133 0.123481 -0.549794 0 255 0
-1.058740 0.086562 -0.546842 0 255 0
-0.884554 0.309634 -0.518842 0 255 0
-0.835654 0.289587 -0.549801 0 255 0
-0.940925 0.342633 -0.549809 0 255 0
-1.097949 0.181063 -0.514843 0 255 0
-0.892244 0.215739 -0.547716 0 255 0
-0.820135 0.112491 -0.549760 0 255 0
-1.095524 0.259808 -0.528842 0 255 0
-0.897518 0.364077 -0.543553 0 255 0
-1.045727 0.287212 -0.548842 0 255 0
-0.840220 0.383535 -0.548842 0 255 0
-1.104573 0.303809 -0.549837 0 255 0
-0.992336 0.177719 -0.542284 0 255 0
-0.932816 0.169157 -0.549801 0 255 0
-1.018175 0.344741 -0.541551 0 255 0
-0.809172 0.241020 -0.544289 0 255 0
-1.089140 0.347557 -0.547722 0 255 0
-1.078271 0.110108 -0.525407 0 255 0
-1.055373 0.336290 -0.526842 0 255 0
-1.029071 0.091471 -0.549794 0 255 0
-0.845515 0.353024 -0.524843 0 255 0
-1.061853 0.219076 -0.524843 0 255 0
-0.842847 0.276803 -0.522842 0 255 0
-1.078971 0.077955 -0.522842 0 255 0
-0.861487 0.158085 -0.498842 0 255 0
-0.841277 0.311229 -0.492828 0 255 0
-0.879013 0.239508 -0.523531 0 255 0
-0.876153 0.202095 -0.526842 0 255 0
-0.921692 0.115675 -0.549778 0 255 0
-1.024645 0.184586 -0.548842 0 255 0
-0.928052 0.076133 -0.549776 0 255 0
-0.830502 0.131052 -0.494608 0 255 0
-1.090047 0.304811 -0.521809 0 255 0
-1.118209 0.066508 -0.556842 0 255 0
-1.075162 0.172832 -0.547719 0 255 0
-0.803350 0.333838 -0.548842 0 255 0
-0.849532 0.320487 -0.544842 0 255 0
-0.921929 0.258853 -0.542624 0 255 0
-0.987960 0.150208 -0.542208 0 255 0
-0.791514 0.160566 -0.550843 0 255 0
-0.823263 0.145870 -0.542283 0 255 0
-0.986594 0.377885 -0.550843 0 255 0
-0.891507 0.276923 -0.549842 0 255 0
-0.795819 0.188410 -0.548842 0 255 0
-0.977443 0.209312 -0.549832 0 255 0
-0.898964 0.309178 -0.547686 0 255 0
-1.109761 0.231304 -0.543173 0 255 0
-1.066103 0.295632 -0.498842 0 255 0
-0.858382 0.096084 -0.521823 0 255 0
-1.109619 0.145397 -0.544482 0 255 0
-0.951463 0.379633 -0.549833 0 255 0
-0.962093 0.050654 -0.559711 0 255 0
-0.926768 0.313043 -0.542452 0 255 0
-0.993185 0.351697 -0.548842 0 255 0
-1.041805 0.116670 -0.522842 0 255 0
-0.977877 0.303460 -0.542285 0 255 0
-1.020358 0.228658 -0.542427 0 255 0
-0.972092 0.099807 -0.542130 0 255 0
-0.841899 0.207083 -0.498842 0 255 0
-0.828158 0.065124 -0.551836 0 255 0
-1.070132 0.134959 -0.542843 0 255 0
-0.838861 0.168682 -0.534842 0 255 0
-1.109845 0.279005 -0.542843 0 255 0
-0.837515 0.232732 -0.539819 0 255 0
-0.838224 0.239016 -0.494087 0 255 0
-1.071175 0.210834 -0.547759 0 255 0
-0.875790 0.148857 -0.549804 0 255 0
-1.025031 0.043139 -0.554842 0 255 0
-0.875988 0.099826 -0.549801 0 255 0
-0.969683 0.332389 -0.547697 0 255 0
-1.042898 0.343862 -0.547758 0 255 0
-1.043200 0.188530 -0.519424 0 255 0
-1.132703 0.358861 -0.548842 0 255 0
-1.057163 0.142076 -0.518842 0 255 0
-0.889409 0.190600 -0.549840 0 255 0
-1.086829 0.233376 -0.516842 0 255 0
-0.872284 0.309641 -0.496790 0 255 0
-0.859843 0.247701 -0.548842 0 255 0
-0.835438 0.175167 -0.500843 0 255 0
-0.921532 0.356913 -0.542002 0 255 0
-1.039033 0.371666 -0.549716 0 255 0
-0.870774 0.355224 -0.516842 0 255 0
-0.840761 0.094383 -0.498842 0 255 0
-1.118078 0.192178 -0.543461 0 255 0
-0.823547 0.317684 -0.542545 0 255 0
-0.881758 0.385263 -0.548842 0 255 0
-0.971168 0.258067 -0.548842 0 255 0
-0.870244 0.260135 -0.512842 0 255 0
-0.915020 0.050872 -0.544797 0 255 0
-1.033173 0.206845 -0.542177 0 255 0
-0.869608 0.057577 -0.560843 0 255 0
-0.941539 0.291647 -0.542095 0 255 0
-0.811318 0.355978 -0.557819 0 255 0
-0.992440 0.071417 -0.542027 0 255 0
-1.039514 0.071200 -0.536489 0 255 0
-1.053623 0.072154 -0.498724 0 255 0
-0.853829 0.346612 -0.496843 0 255 0
-1.067177 0.037247 -0.552842 0 255 0
-1.090705 0.327443 -0.510843 0 255 0
-0.854350 0.125897 -0.516842 0 255 0
-1.102530 0.284564 -0.516842 0 255 0
-1.085000 0.193882 -0.498842 0 255 0
-1.032785 0.141333 -0.549793 0 255 0
-0.914623 0.148932 -0.542374 0 255 0
-1.113302 0.344514 -0.548842 0 255 0
-0.848430 0.075567 -0.542771 0 255 0
-1.099885 0.171953 -0.541957 0 255 0
-1.077756 0.101820 -0.502842 0 255 0
-0.789122 0.071139 -0.548842 0 255 0
-1.096738 0.215616 -0.530842 0 255 0
-1.006740 0.268702 -0.548842 0 255 0
-0.951036 0.121912 -0.549820 0 255 0
-0.887689 0.333363 -0.549815 0 255 0
-1.097889 0.157216 -0.506842 0 255 0
-0.963181 0.286024 -0.549814 0 255 0
-0.841210 0.186489 -0.549839 0 255 0
-0.960572 0.144386 -0.542423 0 255 0
-0.798909 0.116157 -0.559753 0 255 0
-0.827946 0.363602 -0.542843 0 255 0
-0.813303 0.288926 -0.544042 0 255 0
-1.064200 0.301362 -0.539830 0 255 0
-1.112776 0.111308 -0.543460 0 255 0
-0.856541 0.200937 -0.540842 0 255 0
-0.848891 0.278088 -0.500843 0 255 0
-0.994614 0.118907 -0.542455 0 255 0
-0.898708 0.069896 -0.542614 0 255 0
-0.869092 0.209227 -0.502842 0 255 0
-1.052316 0.251457 -0.512842 0 255 0
-1.097362 0.251160 -0.549833 0 255 0
-0.859676 0.118851 -0.549837 0 255 0
-0.971819 0.187670 -0.541830 0 255 0
-0.840895 0.245687 -0.516842 0 255 0
-0.945234 0.245405 -0.549830 0 255 0
-1.086737 0.285705 -0.500843 0 255 0
-0.817096 0.194121 -0.542843 0 255 0
-0.947335 0.221315 -0.548842 0 255 0
-0.857296 0.283964 -0.549770 0 255 0
-1.101529 0.068024 -0.542118 0 255 0
-0.893888 0.111810 -0.542318 0 255 0
-1.128230 0.235229 -0.554842 0 255 0
-1.076651 0.103630 -0.546842 0 255 0
-0.810722 0.079820 -0.551817 0 255 0
-0.836378 0.132268 -0.530842 0 255 0
-1.089983 0.228159 -0.494842 0 255 0
-0.859681 0.161790 -0.540842 0 255 0
-1.046375 0.250545 -0.547741 0 255 0
-0.862567 0.172590 -0.518842 0 255 0
-1.014215 0.315273 -0.542055 0 255 0
-1.050040 0.339118 -0.504842 0 255 0
-0.947738 0.070094 -0.542540 0 255 0
-0.862762 0.227875 -0.514843 0 255 0
-0.822666 0.198905 -0.504842 0 255 0
-1.042614 0.172048 -0.547652 0 255 0
-0.826572 0.271299 -0.536842 0 255 0
-0.819817 0.133223 -0.514843 0 255 0
-0.830226 0.081921 -0.512842 0 255 0
-0.880261 0.233639 -0.547756 0 255 0
-1.062889 0.196804 -0.520842 0 255 0
-1.050949 0.065504 -0.518842 0 255 0
-1.089796 0.139139 -0.514843 0 255 0
-1.086748 0.368433 -0.550843 0 255 0
-0.992970 0.222836 -0.542112 0 255 0
-1.130578 0.277662 -0.548842 0 255 0
-0.880197 0.168195 -0.542843 0 255 0
-1.094130 0.324081 -0.547722 0 255 0
-1.089580 0.037663 -0.550843 0 255 0
-1.069782 0.342435 -0.540842 0 255 0
-0.912639 0.215985 -0.542506 0 255 0
-1.004875 0.047479 -0.558842 0 255 0
-1.066940 0.269229 -0.549807 0 255 0
-0.869219 0.112434 -0.510843 0 255 0
-0.881640 0.054000 -0.544205 0 255 0
-0.847967 0.356708 -0.546842 0 255 0
-0.852600 0.315680 -0.509681 0 255 0
-0.815703 0.219917 -0.543458 0 255 0
-1.075559 0.074772 -0.549824 0 255 0
-1.122889 0.313837 -0.545995 0 255 0
-1.085085 0.260818 -0.510921 0 255 0
-1.049069 0.160917 -0.516842 0 255 0
-0.870432 0.315381 -0.532843 0 255 0
-1.083798 0.186936 -0.528842 0 255 0
-0.881159 0.354466 -0.535710 0 255 0
-1.062980 0.239762 -0.542418 0 255 0
-0.998272 0.303706 -0.547724 0 255 0
-0.802660 0.146606 -0.560843 0 255 0
-0.849640 0.300739 -0.537820 0 255 0
-0.825133 0.307798 -0.504842 0 255 0
-0.889523 0.343976 -0.519753 0 255 0
-0.830994 0.090262 -0.549827 0 255 0
-0.903772 0.382752 -0.548842 0 255 0
-1.031197 0.110326 -0.542446 0 255 0
-0.948895 0.180091 -0.542843 0 255 0
-0.945160 0.361186 -0.542843 0 255 0
-0.840114 0.114692 -0.542691 0 255 0
-0.878608 0.125978 -0.548842 0 255 0
-0.868668 0.297796 -0.514843 0 255 0
-1.087684 0.142779 -0.549770 0 255 0
-1.105893 0.211023 -0.548842 0 255 0
-1.054823 0.104987 -0.534842 0 255 0
-0.858029 0.338232 -0.548842 0 255 0
-0.862471 0.134561 -0.534842 0 255 0
-0.840199 0.335536 -0.533023 0 255 0
-0.923894 0.095696 -0.542401 0 255 0
-0.859478 0.194462 -0.518842 0 255 0
-1.001068 0.136636 -0.549832 0 255 0
-1.065197 0.287052 -0.524843 0 255 0
-0.873290 0.208718 -0.548842 0 255 0
-1.092186 0.063881 -0.498842 0 255 0
-0.932324 0.209946 -0.542455 0 255 0
-0.879353 0.276384 -0.521876 0 255 0
-0.816586 0.258953 -0.550843 0 255 0
-0.916627 0.177983 -0.542436 0 255 0
-1.093627 0.105200 -0.536842 0 255 0
-1.053341 0.323590 -0.541844 0 255 0
-0.841670 0.116991 -0.502842 0 255 0
-0.880202 0.258162 -0.548842 0 255 0
-1.098874 0.321000 -0.493322 0 255 0
-1.094122 0.105299 -0.514843 0 255 0
-0.878584 0.163763 -0.506842 0 255 0
-1.073030 0.331864 -0.518842 0 255 0
-0.808936 0.097842 -0.543455 0 255 0
-0.989397 0.258881 -0.542043 0 255 0
-0.887765 0.294530 -0.541551 0 255 0
-0.821818 0.161921 -0.496843 0 255 0
-0.828700 0.206865 -0.530842 0 255 0
-1.033608 0.300993 -0.542614 0 255 0
-0.874986 0.085301 -0.521307 0 255 0
-1.027985 0.279351 -0.547724 0 255 0
-0.862451 0.096176 -0.502842 0 255 0
-1.052736 0.211004 -0.542105 0 255 0
-1.046546 0.268984 -0.542104 0 255 0
-1.050199 0.232557 -0.516842 0 255 0
-0.927173 0.051410 -0.559680 0 255 0
-0.846323 0.297109 -0.504842 0 255 0
-0.893813 0.150643 -0.542189 0 255 0
-0.874407 0.130160 -0.516842 0 255 0
-1.053501 0.082351 -0.527604 0 255 0
-0.843728 0.338173 -0.512842 0 255 0
-0.818700 0.126498 -0.536842 0 255 0
-1.011791 0.081665 -0.548842 0 255 0
-0.930340 0.276998 -0.547680 0 255 0
-1.017591 0.246472 -0.548842 0 255 0
-1.086004 0.304594 -0.502842 0 255 0
-0.971459 0.054690 -0.543698 0 255 0
-0.839233 0.263129 -0.508842 0 255 0
-1.068071 0.345123 -0.504842 0 255 0
-0.821655 0.161886 -0.530842 0 255 0
-0.839191 0.359519 -0.496843 0 255 0
-1.070663 0.155519 -0.541626 0 255 0
-1.059617 0.178630 -0.516842 0 255 0
-1.078736 0.252212 -0.546842 0 255 0
-1.066233 0.267034 -0.516842 0 255 0
-0.945924 0.155585 -0.549824 0 255 0
-0.909854 0.233795 -0.548842 0 255 0
-1.104705 0.295659 -0.532843 0 255 0
-1.009650 0.173220 -0.549827 0 255 0
-1.086308 0.175202 -0.500843 0 255 0
-1.071169 0.191619 -0.546842 0 255 0
-1.109155 0.330351 -0.508842 0 255 0
-0.904199 0.265308 -0.542378 0 255 0
-0.869374 0.323335 -0.549842 0 255 0
-0.819330 0.118453 -0.502842 0 255 0
-1.074106 0.120090 -0.500843 0 255 0
-1.061156 0.065576 -0.542159 0 255 0
-1.094520 0.341486 -0.522842 0 255 0
-0.870791 0.335905 -0.513111 0 255 0
-1.092982 0.271764 -0.546842 0 255 0
-1.052055 0.137250 -0.549825 0 255 0
-1.090987 0.080096 -0.508842 0 255 0
-1.065371 0.221868 -0.506842 0 255 0
-0.801959 0.174057 -0.558842 0 255 0
-1.014006 0.104627 -0.549773 0 255 0
-0.808615 0.157070 -0.544053 0 255 0
-0.841254 0.157424 -0.498842 0 255 0
-0.845047 0.226154 -0.505415 0 255 0
-0.980570 0.242692 -0.542164 0 255 0
-0.845818 0.263122 -0.534842 0 255 0
-0.954609 0.085867 -0.549788 0 255 0
-0.860981 0.088458 -0.538842 0 255 0
-1.122189 0.143979 -0.557838 0 255 0
-0.927150 0.330485 -0.548842 0 255 0
-0.936067 0.192339 -0.547657 0 255 0
-1.082727 0.215334 -0.514843 0 255 0
-1.110356 0.084213 -0.551803 0 255 0
-0.833891 0.095870 -0.530842 0 255 0
-1.032936 0.063667 -0.551819 0 255 0
-1.088156 0.217517 -0.548842 0 255 0
-1.098297 0.140946 -0.498574 0 255 0
-1.060659 0.154488 -0.502842 0 255 0
-0.985201 0.086236 -0.549821 0 255 0
-0.988800 0.194356 -0.548842 0 255 0
-1.058292 0.107906 -0.517197 0 255 0
-0.914396 0.130762 -0.542843 0 255 0
-0.830502 0.131052 -0.549827 0 255 0
-1.083545 0.191112 -0.480842 0 255 0
-0.839963 0.204626 -0.480842 0 255 0
-0.889512 0.084299 -0.549786 0 255 0
-1.057669 0.322465 -0.515253 0 255 0
-0.869846 0.186442 -0.533353 0 255 0
-0.951661 0.330603 -0.541925 0 255 0
-0.860182 0.154950 -0.516842 0 255 0
-1.025046 0.360514 -0.549760 0 255 0
-0.871793 0.350431 -0.499649 0 255 0
-1.098571 0.053082 -0.551808 0 255 0
-1.033371 0.157815 -0.542153 0 255 0
-1.006323 0.188870 -0.541937 0 255 0
-0.805525 0.315898 -0.545259 0 255 0
-1.111205 0.128316 -0.550843 0 255 0
-0.901439 0.201336 -0.542336 0 255 0
-1.065896 0.117701 -0.542843 0 255 0
-1.049646 0.292873 -0.504842 0 255 0
-1.118243 0.292402 -0.550843 0 255 0
-0.800626 0.252369 -0.554842 0 255 0
-0.875564 0.265355 -0.496678 0 255 0
-1.079217 0.047940 -0.560843 0 255 0
-1.085082 0.308934 -0.546842 0 255 0
-0.880425 0.223246 -0.516842 0 255 0
-0.968776 0.375134 -0.549739 0 255 0
-0.843931 0.058253 -0.561824 0 255 0
-0.833817 0.158337 -0.548842 0 255 0
-1.059829 0.177631 -0.534842 0 255 0
-0.981698 0.165234 -0.548842 0 255 0
-0.872804 0.297577 -0.532843 0 255 0
-1.067254 0.306100 -0.516842 0 255 0
-1.105909 0.302049 -0.514843 0 255 0
-1.044488 0.100883 -0.548842 0 255 0
-1.063198 0.286836 -0.549832 0 255 0
-1.049834 0.215036 -0.512842 0 255 0
-0.859076 0.381399 -0.550843 0 255 0
-0.864318 0.238429 -0.532843 0 255 0
-0.999075 0.367262 -0.543700 0 255 0
-1.102286 0.258340 -0.512842 0 255 0
-0.963625 0.216599 -0.542144 0 255 0
-0.877999 0.244279 -0.506842 0 255 0
-1.095341 0.138272 -0.534842 0 255 0
-1.005728 0.335961 -0.549835 0 255 0
-0.875318 0.285750 -0.549801 0 255 0
-0.825654 0.240434 -0.549776 0 255 0
-1.042453 0.038131 -0.552842 0 255 0
-0.863494 0.062411 -0.543957 0 255 0
-0.813189 0.135550 -0.551800 0 255 0
-0.873999 0.344765 -0.548842 0 255 0
-1.100373 0.186370 -0.496843 0 255 0
-0.998138 0.054226 -0.543604 0 255 0
-0.796243 0.109457 -0.543958 0 255 0
-0.913649 0.066938 -0.551803 0 255 0
-0.987327 0.105090 -0.549788 0 255 0
-0.897348 0.345639 -0.542647 0 255 0
-1.048427 0.308233 -0.547737 0 255 0
-1.087854 0.161217 -0.547840 0 255 0
-0.837576 0.169360 -0.516842 0 255 0
-0.830786 0.302865 -0.536963 0 255 0
-0.846710 0.218329 -0.547706 0 255 0
-0.868922 0.315840 -0.514843 0 255 0
-1.095330 0.289577 -0.547715 0 255 0
-0.884731 0.318421 -0.541685 0 255 0
-0.836291 0.151916 -0.532843 0 255 0
-1.114221 0.056409 -0.543680 0 255 0
-0.815354 0.346613 -0.544141 0 255 0
-0.803937 0.284890 -0.557719 0 255 0
-0.958740 0.345394 -0.548842 0 255 0
-0.824741 0.100441 -0.498842 0 255 0
-0.884441 0.299957 -0.504842 0 255 0
-1.033400 0.239609 -0.548842 0 255 0
-0.797635 0.230389 -0.550843 0 255 0
-1.063891 0.254717 -0.500843 0 255 0
-0.855387 0.264085 -0.548842 0 255 0
-1.088158 0.121311 -0.516842 0 255 0
-0.840581 0.190445 -0.490842 0 255 0
-1.086759 0.332738 -0.494842 0 255 0
-1.096973 0.272227 -0.500843 0 255 0
-1.000474 0.283727 -0.542665 0 255 0
-0.944141 0.052972 -0.560843 0 255 0
-1.043407 0.147680 -0.526842 0 255 0
-0.842529 0.334194 -0.494842 0 255 0
-1.039752 0.118175 -0.504842 0 255 0
-1.111737 0.327824 -0.547734 0 255 0
-1.101171 0.358293 -0.543131 0 255 0
-1.043089 0.186462 -0.502842 0 255 0
-1.045912 0.223866 -0.532653 0 255 0
-1.119892 0.106687 -0.557812 0 255 0
-1.100906 0.229421 -0.508842 0 255 0
-0.802963 0.202896 -0.543759 0 255 0
-0.821073 0.050358 -0.554842 0 255 0
-0.879179 0.198649 -0.510843 0 255 0
-0.979342 0.344665 -0.541952 0 255 0
-0.842259 0.229651 -0.521405 0 255 0
-0.876123 0.224247 -0.532843 0 255 0
-1.016719 0.139963 -0.542331 0 255 0
-0.809239 0.365760 -0.544549 0 255 0
-0.840284 0.133131 -0.507780 0 255 0
-0.829727 0.276059 -0.512842 0 255 0
-0.849357 0.171864 -0.548842 0 255 0
-0.820126 0.276063 -0.551790 0 255 0
-0.964853 0.114626 -0.542194 0 255 0
-0.938174 0.115089 -0.542082 0 255 0
-1.078569 0.069278 -0.508842 0 255 0
-1.089045 0.290285 -0.529570 0 255 0
-1.083128 0.154592 -0.514843 0 255 0
-0.833270 0.079552 -0.496843 0 255 0
-0.835533 0.319014 -0.510843 0 255 0
-1.080182 0.186167 -0.512842 0 255 0
-0.999033 0.160740 -0.548842 0 255 0
-0.970004 0.273161 -0.542257 0 255 0
-0.978879 0.317986 -0.549827 0 255 0
-0.854422 0.082974 -0.512842 0 255 0
-1.089163 0.327115 -0.530842 0 255 0
-1.031783 0.126808 -0.542368 0 255 0
-1.019356 0.214132 -0.549839 0 255 0
-1.107436 0.261480 -0.542050 0 255 0
-0.834889 0.206610 -0.514843 0 255 0
-0.984737 0.059557 -0.551829 0 255 0
-0.884993 0.269404 -0.536842 0 255 0
-1.083837 0.122401 -0.534842 0 255 0
-0.973435 0.151209 -0.549819 0 255 0
-0.977030 0.225582 -0.548842 0 255 0
-1.021501 0.329090 -0.547711 0 255 0
-0.955309 0.255725 -0.542148 0 255 0
-0.824729 0.379458 -0.544842 0 255 0
-0.828992 0.239099 -0.526842 0 255 0
-0.821960 0.300989 -0.550843 0 255 0
-1.042301 0.082015 -0.548842 0 255 0
-0.914530 0.303280 -0.548842 0 255 0
-1.067208 0.325685 -0.532843 0 255 0
-0.907289 0.106480 -0.549766 0 255 0
-0.832549 0.350268 -0.534842 0 255 0
-1.049626 0.264111 -0.522842 0 255 0
-0.804211 0.197027 -0.559709 0 255 0
-0.814048 0.064169 -0.543926 0 255 0
-1.052687 0.086177 -0.506842 0 255 0
-1.108003 0.181858 -0.551840 0 255 0
-1.100744 0.186449 -0.534842 0 255 0
-1.085115 0.072714 -0.536842 0 255 0
-1.067777 0.053665 -0.550843 0 255 0
-1.013912 0.047356 -0.543903 0 255 0
-0.912753 0.369360 -0.549752 0 255 0
-0.954977 0.055276 -0.544299 0 255 0
-1.018354 0.199606 -0.542579 0 255 0
-1.097401 0.231735 -0.530842 0 255 0
-0.882161 0.368992 -0.544042 0 255 0
-0.929858 0.154215 -0.542802 0 255 0
-1.076864 0.357215 -0.543640 0 255 0
-0.911410 0.317958 -0.542287 0 255 0
-1.059927 0.167549 -0.547734 0 255 0
-1.055926 0.123760 -0.518842 0 255 0
-1.101310 0.102737 -0.550843 0 255 0
-1.056706 0.307757 -0.504842 0 255 0
-1.009577 0.356334 -0.548842 0 255 0
-0.962227 0.300134 -0.542213 0 255 0
-0.983425 0.363935 -0.543677 0 255 0
-0.895197 0.230704 -0.542843 0 255 0
-0.832179 0.188659 -0.536842 0 255 0
-0.940499 0.084913 -0.542382 0 255 0
-0.938628 0.305341 -0.549842 0 255 0
-0.904766 0.185686 -0.549815 0 255 0
-0.828133 0.208246 -0.490842 0 255 0
-0.837153 0.311390 -0.548842 0 255 0
-0.898122 0.053414 -0.544171 0 255 0
-0.922883 0.244743 -0.549837 0 255 0
-1.065554 0.223952 -0.540842 0 255 0
-0.798275 0.071040 -0.561791 0 255 0
-0.927050 0.061608 -0.543576 0 255 0
-0.987374 0.133726 -0.542540 0 255 0
-1.035847 0.049973 -0.543620 0 255 0
-1.045856 0.358803 -0.543631 0 255 0
-0.863749 0.272844 -0.504842 0 255 0
-1.121650 0.156133 -0.544087 0 255 0
-1.061080 0.104409 -0.549770 0 255 0
-1.038250 0.192578 -0.548842 0 255 0
-1.039162 0.071125 -0.504842 0 255 0
-0.862587 0.105157 -0.542660 0 255 0
-1.057590 0.140069 -0.534842 0 255 0
-1.052287 0.290070 -0.534842 0 255 0
-0.916565 0.163658 -0.548842 0 255 0
-0.829066 0.243204 -0.506842 0 255 0
-1.123578 0.224017 -0.544318 0 255 0
-0.839924 0.317594 -0.532843 0 255 0
-0.821809 0.092400 -0.520842 0 255 0
-0.818680 0.330962 -0.549719 0 255 0
-1.026113 0.076530 -0.542463 0 255 0
-1.088519 0.181805 -0.548842 0 255 0
-0.931772 0.366456 -0.548842 0 255 0
-0.801763 0.298741 -0.548842 0 255 0
-1.074604 0.088882 -0.542422 0 255 0
-0.844802 0.246549 -0.541950 0 255 0
-1.111556 0.049708 -0.559829 0 255 0
-0.797321 0.085150 -0.544320 0 255 0
-0.885014 0.066985 -0.551794 0 255 0
-0.841662 0.193983 -0.506842 0 255 0
-0.828981 0.224784 -0.549778 0 255 0
-1.089846 0.248040 -0.536842 0 255 0
-0.865871 0.243618 -0.516842 0 255 0
-0.901166 0.289199 -0.547607 0 255 0
-1.022635 0.169846 -0.542468 0 255 0
-0.915067 0.079507 -0.542422 0 255 0
-0.803332 0.172304 -0.543711 0 255 0
-0.885830 0.339101 -0.534842 0 255 0
-0.938411 0.258267 -0.541878 0 255 0
-1.044718 0.181386 -0.534842 0 255 0
-0.810370 0.321963 -0.558842 0 255 0
-0.865073 0.208896 -0.518842 0 255 0
-0.847296 0.353402 -0.508842 0 255 0
-0.871462 0.149981 -0.507869 0 255 0
-0.874467 0.193558 -0.549806 0 255 0
-0.939214 0.321823 -0.542536 0 255 0
-0.857364 0.120108 -0.534842 0 255 0
-1.003884 0.065671 -0.551830 0 255 0
-0.835075 0.051820 -0.548842 0 255 0
-1.108249 0.161463 -0.549680 0 255 0
-1.044075 0.104884 -0.512842 0 255 0
-0.834812 0.283926 -0.500843 0 255 0
-0.838408 0.271770 -0.546842 0 255 0
-0.835994 0.326464 -0.549766 0 255 0
-1.085778 0.291636 -0.514843 0 255 0
-1.053279 0.121871 -0.534842 0 255 0
-0.858220 0.120586 -0.502842 0 255 0
-1.004755 0.253967 -0.541981 0 255 0
-1.062027 0.253872 -0.547697 0 255 0
-1.006248 0.227703 -0.547699 0 255 0
-0.864352 0.275240 -0.520842 0 255 0
-0.883636 0.269116 -0.508842 0 255 0
-1.123868 0.184175 -0.554842 0 255 0
-1.091672 0.104778 -0.497903 0 255 0
-0.805902 0.121733 -0.544199 0 255 0
-0.873845 0.186865 -0.518842 0 255 0
-1.094534 0.341420 -0.506842 0 255 0
-0.884154 0.138366 -0.542400 0 255 0
-1.137539 0.316951 -0.548842 0 255 0
-0.831948 0.076153 -0.542409 0 255 0
-0.848781 0.372120 -0.544240 0 255 0
-1.106359 0.285787 -0.502151 0 255 0
-0.878352 0.261859 -0.525427 0 255 0
-0.912232 0.054368 -0.559822 0 255 0
-0.876908 0.245194 -0.538842 0 255 0
-0.862635 0.133792 -0.549773 0 255 0
-0.833749 0.348478 -0.516842 0 255 0
-1.133675 0.248655 -0.548842 0 255 0
-0.959107 0.103181 -0.549744 0 255 0
-0.931351 0.127951 -0.549771 0 255 0
-1.086824 0.214160 -0.499761 0 255 0
-0.862124 0.078477 -0.549784 0 255 0
-0.882994 0.316007 -0.504842 0 255 0
-0.928970 0.293065 -0.549815 0 255 0
-0.909898 0.248117 -0.542060 0 255 0
-1.066557 0.250746 -0.516842 0 255 0
-0.912317 0.275212 -0.549810 0 255 0
-1.117653 0.357707 -0.543798 0 255 0
-1.111424 0.245970 -0.542843 0 255 0
-1.083780 0.256451 -0.496843 0 255 0
-0.918158 0.343928 -0.549837 0 255 0
-1.032218 0.220955 -0.547724 0 255 0
-1.096360 0.236634 -0.547794 0 255 0
-0.892470 0.099240 -0.549809 0 255 0
-0.877918 0.283138 -0.534842 0 255 0
-0.810316 0.341453 -0.559777 0 255 0
-0.861793 0.080033 -0.526842 0 255 0
-0.883748 0.351904 -0.508842 0 255 0
-0.949667 0.137979 -0.549828 0 255 0
-1.056715 0.336575 -0.547702 0 255 0
-1.055892 0.042241 -0.544842 0 255 0
-1.086666 0.089850 -0.498842 0 255 0
-0.867224 0.150685 -0.534842 0 255 0
-0.831237 0.227308 -0.500843 0 255 0
-0.990011 0.207895 -0.542563 0 255 0
-0.897593 0.325244 -0.542373 0 255 0
-0.959249 0.189088 -0.549829 0 255 0
-1.119080 0.206703 -0.543993 0 255 0
-1.053340 0.140826 -0.504842 0 255 0
-0.834809 0.172861 -0.548842 0 255 0
-1.104708 0.341651 -0.536842 0 255 0
-0.879362 0.112812 -0.542732 0 255 0
-1.057530 0.154772 -0.526842 0 255 0
-0.830056 0.104294 -0.542843 0 255 0
-0.966309 0.319404 -0.542284 0 255 0
-0.841852 0.207073 -0.536842 0 255 0
-0.986241 0.292970 -0.547660 0 255 0
-0.973973 0.139056 -0.542068 0 255 0
-0.806536 0.238415 -0.558842 0 255 0
-1.067053 0.374513 -0.548842 0 255 0
-1.093344 0.077673 -0.494842 0 255 0
-0.797094 0.148487 -0.544842 0 255 0
-1.062265 0.288683 -0.510843 0 255 0
-0.907838 0.354003 -0.547823 0 255 0
-0.809220 0.269656 -0.561839 0 255 0
-1.089375 0.067485 -0.549773 0 255 0
-0.886801 0.202867 -0.542843 0 255 0
-1.048170 0.068950 -0.549837 0 255 0
-1.098453 0.153247 -0.538842 0 255 0
-0.817647 0.206017 -0.550843 0 255 0
-0.951346 0.043500 -0.552842 0 255 0
-1.060929 0.182075 -0.549819 0 255 0
-0.989246 0.336547 -0.549829 0 255 0
-0.893860 0.179278 -0.542436 0 255 0
-0.824799 0.167504 -0.510843 0 255 0
-0.827568 0.115996 -0.532843 0 255 0
-0.834715 0.265145 -0.522842 0 255 0
-0.957870 0.368727 -0.543332 0 255 0
-1.041087 0.149232 -0.512842 0 255 0
-0.966762 0.086406 -0.542274 0 255 0
-0.906750 0.118633 -0.542537 0 255 0
-1.113730 0.097198 -0.543926 0 255 0
-0.980532 0.050484 -0.561836 0 255 0
-0.966952 0.200949 -0.542257 0 255 0
-0.949685 0.234083 -0.542563 0 255 0
-0.978963 0.115580 -0.542431 0 255 0
-0.961527 0.130276 -0.542264 0 255 0
-0.827100 0.185535 -0.549794 0 255 0
-1.053351 0.371640 -0.550843 0 255 0
-0.853364 0.187028 -0.542647 0 255 0
-1.091314 0.250755 -0.518842 0 255 0
-1.096879 0.195716 -0.506842 0 255 0
-1.037152 0.332417 -0.541801 0 255 0
-1.057274 0.045358 -0.558842 0 255 0
-0.865735 0.234641 -0.549819 0 255 0
-1.086900 0.175327 -0.536241 0 255 0
-0.859792 0.198618 -0.502842 0 255 0
-0.951859 0.281572 -0.542673 0 255 0
-0.840728 0.063706 -0.543784 0 255 0
-0.979767 0.179136 -0.549816 0 255 0
-0.868162 0.050071 -0.548842 0 255 0
-0.884062 0.306011 -0.532843 0 255 0
-0.835832 0.144453 -0.549819 0 255 0
-1.114807 0.072891 -0.544767 0 255 0
-0.930321 0.180894 -0.541891 0 255 0
-1.117927 0.269844 -0.549753 0 255 0
-0.849737 0.128575 -0.542976 0 255 0
-1.031453 0.349608 -0.542118 0 255 0
-1.052008 0.195190 -0.510843 0 255 0
-1.106110 0.315816 -0.542843 0 255 0
-0.879334 0.180280 -0.549801 0 255 0
-1.074337 0.043842 -0.542843 0 255 0
-0.939011 0.063056 -0.550843 0 255 0
-0.810008 0.183947 -0.550843 0 255 0
-1.049041 0.257246 -0.500620 0 255 0
-1.085127 0.222147 -0.526842 0 255 0
-0.833726 0.298656 -0.510843 0 255 0
-0.877768 0.091456 -0.538842 0 255 0
-0.975335 0.286562 -0.541942 0 255 0
-0.802188 0.071872 -0.544231 0 255 0
-0.861264 0.149858 -0.547733 0 255 0
-1.125798 0.197908 -0.554842 0 255 0
-1.088468 0.110231 -0.549810 0 255 0
-1.020623 0.304367 -0.547750 0 255 0
-0.820352 0.159564 -0.551836 0 255 0
-0.839718 0.124832 -0.518842 0 255 0
-0.922571 0.140398 -0.549816 0 255 0
-1.073943 0.111233 -0.512230 0 255 0
-1.077317 0.124218 -0.547756 0 255 0
-1.084570 0.160519 -0.500843 0 255 0
-1.043303 0.082229 -0.497496 0 255 0
-0.971773 0.043591 -0.552842 0 255 0
-1.052651 0.192164 -0.528842 0 255 0
-0.839689 0.280221 -0.535830 0 255 0
-0.924376 0.218480 -0.549825 0 255 0
-0.790554 0.122560 -0.548842 0 255 0
-0.932428 0.103644 -0.549757 0 255 0
-1.089064 0.069464 -0.518842 0 255 0
-1.016501 0.092889 -0.542385 0 255 0
-1.004726 0.321435 -0.549824 0 255 0
-0.863042 0.295409 -0.542575 0 255 0
-0.830573 0.188436 -0.500843 0 255 0
-0.862947 0.238137 -0.503408 0 255 0
-0.978746 0.068506 -0.542069 0 255 0
-1.097062 0.191800 -0.482843 0 255 0
-1.120814 0.137553 -0.544842 0 255 0
-1.081781 0.180170 -0.488842 0 255 0
-1.014419 0.280557 -0.548842 0 255 0
-0.799910 0.130683 -0.557797 0 255 0
-0.852465 0.066201 -0.551837 0 255 0
-0.801593 0.218962 -0.544142 0 255 0
-1.002486 0.149206 -0.542434 0 255 0
-1.097050 0.146814 -0.523470 0 255 0
-0.820756 0.096265 -0.536842 0 255 0
-1.081078 0.202715 -0.541628 0 255 0
-1.048952 0.161468 -0.502842 0 255 0
-0.871142 0.166271 -0.532843 0 255 0
-0.844821 0.342653 -0.543683 0 255 0
-1.063708 0.342151 -0.517814 0 255 0
-1.062545 0.145614 -0.547620 0 255 0
-0.874053 0.089694 -0.506842 0 255 0
-0.952086 0.165074 -0.542321 0 255 0
-0.958767 0.066305 -0.551822 0 255 0
-0.883777 0.332531 -0.515115 0 255 0
-0.887444 0.353757 -0.547707 0 255 0
-1.091504 0.296942 -0.492842 0 255 0
-0.852920 0.307570 -0.498842 0 255 0
-1.063563 0.231707 -0.518842 0 255 0
-1.099353 0.135977 -0.548842 0 255 0
-1.106194 0.195786 -0.548842 0 255 0
-0.868786 0.172189 -0.502842 0 255 0
-1.060262 0.271792 -0.534842 0 255 0
-1.060627 0.337407 -0.496603 0 255 0
-0.885270 0.306267 -0.547768 0 255 0
-0.860678 0.133376 -0.507544 0 255 0
-1.058133 0.349145 -0.541718 0 255 0
-0.858920 0.083930 -0.497912 0 255 0
-1.043937 0.141659 -0.538842 0 255 0
-1.101203 0.040699 -0.556842 0 255 0
-0.929896 0.346423 -0.541727 0 255 0
-1.002977 0.108417 -0.542226 0 255 0
-0.988367 0.311824 -0.542364 0 255 0
-0.848932 0.294454 -0.549796 0 255 0
-0.998186 0.082862 -0.549840 0 255 0
-1.061705 0.313100 -0.547702 0 255 0
-0.876384 0.343228 -0.522842 0 255 0
-1.051662 0.235291 -0.536842 0 255 0
-0.823888 0.354561 -0.551839 0 255 0
-0.848423 0.298435 -0.518842 0 255 0
-0.825116 0.252588 -0.542743 0 255 0
-0.858571 0.210626 -0.549828 0 255 0
-0.875510 0.169244 -0.518842 0 255 0
-1.058663 0.077304 -0.514843 0 255 0
-1.044428 0.086557 -0.536440 0 255 0
-0.840228 0.268068 -0.496495 0 255 0
-0.882696 0.231802 -0.506842 0 255 0
-0.843563 0.088845 -0.542711 0 255 0
-0.866137 0.348180 -0.534842 0 255 0
-1.052179 0.069331 -0.532843 0 255 0
-1.060132 0.233924 -0.504842 0 255 0
-0.869279 0.266064 -0.549832 0 255 0
-1.040599 0.118458 -0.536842 0 255 0
-1.124164 0.240499 -0.543353 0 255 0
-0.820894 0.090160 -0.506842 0 255 0
-1.048013 0.257028 -0.534842 0 255 0
-0.805430 0.258627 -0.543666 0 255 0
-0.835531 0.299784 -0.497630 0 255 0
-0.863480 0.312586 -0.544842 0 255 0
-0.902497 0.080925 -0.549776 0 255 0
-1.122227 0.336187 -0.543746 0 255 0
-1.120894 0.121212 -0.557693 0 255 0
-0.961300 0.246775 -0.549804 0 255 0
-0.881187 0.296617 -0.518842 0 255 0
-0.873636 0.197471 -0.496750 0 255 0
-0.815580 0.230114 -0.551812 0 255 0
-1.099297 0.270913 -0.534842 0 255 0
-0.905134 0.155094 -0.549810 0 255 0
-0.856701 0.055894 -0.558842 0 255 0
-1.096455 0.293905 -0.505835 0 255 0
-1.054657 0.325914 -0.502842 0 255 0
-1.061100 0.200513 -0.547756 0 255 0
-0.877371 0.122178 -0.506842 0 255 0
-0.826034 0.171314 -0.538842 0 255 0
-1.123622 0.368102 -0.550843 0 255 0
-1.098871 0.306687 -0.536842 0 255 0
-0.892461 0.262813 -0.547633 0 255 0
-1.096899 0.224480 -0.541734 0 255 0
-0.807359 0.109775 -0.550843 0 255 0
-1.099963 0.219684 -0.518842 0 255 0
-0.892651 0.377355 -0.544593 0 255 0
-0.829696 0.151327 -0.498842 0 255 0
-1.055282 0.275978 -0.548842 0 255 0
-1.083597 0.085053 -0.532843 0 255 0
-0.942937 0.208112 -0.549839 0 255 0
-1.100103 0.219027 -0.496134 0 255 0
-0.937353 0.378678 -0.549796 0 255 0
-1.015871 0.259385 -0.548842 0 255 0
-1.078754 0.271365 -0.542843 0 255 0
-0.846107 0.317363 -0.520842 0 255 0
-0.951857 0.295885 -0.548842 0 255 0
-1.085759 0.138280 -0.500843 0 255 0
-0.862121 0.116968 -0.522842 0 255 0
-1.055926 0.215231 -0.500843 0 255 0
-0.810344 0.273984 -0.543495 0 255 0
-0.871137 0.161129 -0.548842 0 255 0
-1.022446 0.055304 -0.549742 0 255 0
-1.100650 0.043301 -0.543564 0 255 0
-1.083680 0.225760 -0.506842 0 255 0
-1.072441 0.301069 -0.549824 0 255 0
-1.082231 0.139575 -0.538461 0 255 0
-0.877821 0.220852 -0.548842 0 255 0
-0.933718 0.242957 -0.542843 0 255 0
-0.872200 0.223465 -0.506842 0 255 0
-0.881640 0.054000 -0.557683 0 255 0
-0.817436 0.091470 -0.550843 0 255 0
-1.093921 0.113435 -0.525337 0 255 0
-0.803669 0.348218 -0.550843 0 255 0
-0.826705 0.283595 -0.542663 0 255 0
-0.980712 0.328599 -0.542153 0 255 0
-0.837043 0.369625 -0.549719 0 255 0
-0.869890 0.094441 -0.528842 0 255 0
-1.053694 0.177636 -0.504842 0 255 0
-0.867445 0.255451 -0.541893 0 255 0
-1.055818 0.297535 -0.548842 0 255 0
-1.101079 0.325558 -0.518842 0 255 0
-0.872256 0.377110 -0.551834 0 255 0
-0.832941 0.094766 -0.514843 0 255 0
-0.810967 0.059425 -0.561757 0 255 0
-1.080227 0.110524 -0.493725 0 255 0
-1.043275 0.149697 -0.549820 0 255 0
-0.802841 0.159932 -0.556842 0 255 0
-0.995143 0.270326 -0.542771 0 255 0
-1.040335 0.073419 -0.522842 0 255 0
-1.067110 0.287668 -0.537651 0 255 0
-1.083101 0.327871 -0.542414 0 255 0
-0.963701 0.177766 -0.542148 0 255 0
-0.867870 0.089922 -0.549837 0 255 0
-0.961264 0.266182 -0.548842 0 255 0
-0.873940 0.128703 -0.536842 0 255 0
-1.109365 0.329364 -0.496063 0 255 0
-0.813676 0.368747 -0.556842 0 255 0
-1.043998 0.204012 -0.548842 0 255 0
-1.026463 0.373083 -0.547851 0 255 0
-0.827421 0.126307 -0.523935 0 255 0
-1.005104 0.127271 -0.542148 0 255 0
-0.824246 0.234001 -0.538842 0 255 0
-1.098485 0.077600 -0.550843 0 255 0
-0.811932 0.304992 -0.543656 0 255 0
-1.054330 0.305398 -0.532843 0 255 0
-0.866492 0.206176 -0.534842 0 255 0
-1.117076 0.177652 -0.543993 0 255 0
-1.091612 0.249351 -0.504842 0 255 0
-0.839921 0.346468 -0.492842 0 255 0
-1.042226 0.106536 -0.532766 0 255 0
-1.008743 0.215965 -0.542143 0 255 0
-0.825854 0.199583 -0.520842 0 255 0
-1.086484 0.177284 -0.519347 0 255 0
-0.795114 0.060145 -0.546842 0 255 0
-1.005606 0.346158 -0.542030 0 255 0
-0.878323 0.329327 -0.542069 0 255 0
-0.903717 0.142525 -0.542642 0 255 0
-1.044182 0.106952 -0.499911 0 255 0
-0.814606 0.148120 -0.551801 0 255 0
-1.084868 0.213744 -0.536739 0 255 0
-1.041149 0.130843 -0.549840 0 255 0
-1.033125 0.178210 -0.541968 0 255 0
-0.872930 0.306603 -0.522842 0 255 0
-1.082228 0.101113 -0.514843 0 255 0
-1.034222 0.250007 -0.541788 0 255 0
-0.914944 0.089705 -0.549801 0 255 0
-0.806422 0.225102 -0.558842 0 255 0
-0.979521 0.199531 -0.542104 0 255 0
-0.831128 0.118489 -0.494842 0 255 0
-0.988518 0.234158 -0.547719 0 255 0
-0.860301 0.327541 -0.542217 0 255 0
-1.002659 0.042580 -0.546842 0 255 0
-1.063399 0.189694 -0.534842 0 255 0
-1.103439 0.251426 -0.534842 0 255 0
-0.917486 0.106602 -0.542197 0 255 0
-0.872332 0.297383 -0.502842 0 255 0
-0.831835 0.196765 -0.546842 0 255 0
-0.959590 0.225964 -0.549835 0 255 0
-0.878259 0.156478 -0.538842 0 255 0
-0.832684 0.084488 -0.524843 0 255 0
-1.050639 0.124673 -0.502842 0 255 0
-1.010037 0.238732 -0.542572 0 255 0
-1.123374 0.157641 -0.556842 0 255 0
-0.939488 0.233960 -0.549789 0 255 0
-1.022881 0.149451 -0.549837 0 255 0
-0.880788 0.192682 -0.538842 0 255 0
-0.958644 0.076502 -0.542584 0 255 0
-0.891809 0.121591 -0.549780 0 255 0
-0.859437 0.165828 -0.508842 0 255 0
-0.870324 0.338105 -0.500843 0 255 0
-1.018212 0.113700 -0.542331 0 255 0
-1.095963 0.190406 -0.522842 0 255 0
-0.903150 0.222147 -0.547711 0 255 0
-0.844782 0.150444 -0.542068 0 255 0
-1.058463 0.126344 -0.547832 0 255 0
-1.088487 0.085699 -0.520842 0 255 0
-0.958493 0.154168 -0.549794 0 255 0
-0.931426 0.089119 -0.549767 0 255 0
-1.026063 0.293256 -0.548842 0 255 0
-0.859185 0.159640 -0.528298 0 255 0
-0.836457 0.353143 -0.549796 0 255 0
-0.878828 0.274228 -0.546842 0 255 0
-0.951170 0.111666 -0.542843 0 255 0
-0.819889 0.132885 -0.502450 0 255 0
-0.859933 0.358133 -0.542459 0 255 0
-0.830428 0.121780 -0.508842 0 255 0
-0.992919 0.049923 -0.556842 0 255 0
-1.090185 0.150253 -0.496843 0 255 0
-0.941662 0.281450 -0.549832 0 255 0
-0.930879 0.264845 -0.549824 0 255 0
-0.959419 0.207526 -0.549842 0 255 0
-0.822875 0.080358 -0.549791 0 255 0
-1.106690 0.263366 -0.500843 0 255 0
-1.097297 0.078316 -0.536842 0 255 0
-1.073725 0.064159 -0.542004 0 255 0
-0.904955 0.300228 -0.541762 0 255 0
-0.998750 0.378412 -0.548842 0 255 0
-0.848525 0.339351 -0.524843 0 255 0
-0.871584 0.139784 -0.542699 0 255 0
-1.060964 0.230009 -0.530842 0 255 0
-1.104686 0.120505 -0.542843 0 255 0
-1.019451 0.271403 -0.542426 0 255 0
-0.979493 0.266999 -0.547750 0 255 0
-0.840189 0.075860 -0.551842 0 255 0
-0.833064 0.244054 -0.538383 0 255 0
-0.943487 0.128572 -0.542843 0 255 0
-1.080388 0.065575 -0.494842 0 255 0
-0.841443 0.281588 -0.510843 0 255 0
-1.006550 0.072372 -0.541984 0 255 0
-0.842208 0.243953 -0.504842 0 255 0
-1.054757 0.268830 -0.512842 0 255 0
-0.927589 0.049454 -0.544956 0 255 0
-0.870137 0.096538 -0.516842 0 255 0
-1.054211 0.252161 -0.524843 0 255 0
-1.093537 0.259535 -0.540842 0 255 0
-0.849186 0.110487 -0.549810 0 255 0
-0.831041 0.118898 -0.549828 0 255 0
-0.796782 0.097303 -0.544158 0 255 0
-0.872860 0.066447 -0.551799 0 255 0
-0.902327 0.062487 -0.551800 0 255 0
-0.799447 0.104004 -0.559842 0 255 0
-0.819596 0.124644 -0.549781 0 255 0
-1.098483 0.370936 -0.548842 0 255 0
-0.840725 0.241593 -0.528842 0 255 0
-1.095897 0.209955 -0.542038 0 255 0
-1.113646 0.299604 -0.542238 0 255 0
-0.872034 0.082628 -0.532843 0 255 0
-1.098751 0.331197 -0.501895 0 255 0
-0.889362 0.161965 -0.547733 0 255 0
-1.053180 0.288796 -0.518842 0 255 0
-1.114383 0.238420 -0.551827 0 255 0
-1.048890 0.334912 -0.516723 0 255 0
-1.106689 0.062987 -0.551826 0 255 0
-1.043455 0.216187 -0.548842 0 255 0
-1.065398 0.299572 -0.526842 0 255 0
-0.921390 0.271007 -0.542251 0 255 0
-1.098287 0.285287 -0.536842 0 255 0
-1.061339 0.153537 -0.514843 0 255 0
-1.067260 0.338816 -0.528842 0 255 0
-0.823121 0.059964 -0.561829 0 255 0
-1.089933 0.266872 -0.520842 0 255 0
-1.118890 0.092161 -0.557788 0 255 0
-1.036262 0.048017 -0.555836 0 255 0
-0.861898 0.194976 -0.549824 0 255 0
-0.840289 0.202651 -0.524843 0 255 0
-1.128294 0.288405 -0.543922 0 255 0
-1.086306 0.110783 -0.506842 0 255 0
-0.866368 0.279758 -0.541264 0 255 0
-0.791307 0.081827 -0.554842 0 255 0
-0.956452 0.356157 -0.542388 0 255 0
-0.936719 0.333561 -0.542076 0 255 0
-0.901704 0.277046 -0.542457 0 255 0
-0.827631 0.134940 -0.538842 0 255 0
-1.083590 0.142801 -0.524843 0 255 0
-1.082184 0.110940 -0.537813 0 255 0
-1.121951 0.048900 -0.548842 0 255 0
-0.823910 0.056250 -0.544842 0 255 0
-0.802396 0.282518 -0.546090 0 255 0
-0.807613 0.142544 -0.543893 0 255 0
-1.098230 0.295176 -0.522842 0 255 0
-0.828462 0.333041 -0.541955 0 255 0
-0.843526 0.319886 -0.502047 0 255 0
-1.111840 0.221522 -0.549652 0 255 0
-0.970685 0.346914 -0.549815 0 255 0
-1.036103 0.289256 -0.542163 0 255 0
-0.838575 0.160408 -0.524843 0 255 0
-0.866963 0.171146 -0.542843 0 255 0
-0.829025 0.089902 -0.492842 0 255 0
-0.861660 0.196093 -0.530842 0 255 0
-0.839868 0.135087 -0.541992 0 255 0
-1.046404 0.183077 -0.549824 0 255 0
-1.066486 0.078977 -0.542030 0 255 0
-0.831699 0.276479 -0.526842 0 255 0
-0.820272 0.120698 -0.514843 0 255 0
-0.912147 0.256774 -0.549821 0 255 0
-1.034658 0.362557 -0.542843 0 255 0
-1.090903 0.185350 -0.504842 0 255 0
-1.121412 0.082474 -0.546842 0 255 0
-1.054985 0.219661 -0.549830 0 255 0
-0.888795 0.241587 -0.542287 0 255 0
-0.864976 0.308088 -0.506842 0 255 0
-0.846564 0.283727 -0.544842 0 255 0
-1.100312 0.110704 -0.504842 0 255 0
-1.047448 0.178162 -0.514843 0 255 0
-1.038012 0.261036 -0.547737 0 255 0
-0.814524 0.167745 -0.542843 0 255 0
-1.097674 0.307410 -0.502842 0 255 0
-0.973577 0.237116 -0.549814 0 255 0
-0.826533 0.265157 -0.549820 0 255 0
-0.944553 0.171651 -0.549797 0 255 0
-1.026784 0.313856 -0.542377 0 255 0
-0.889355 0.046561 -0.552842 0 255 0
-1.079521 0.081748 -0.510843 0 255 0
-0.818510 0.312524 -0.551818 0 255 0
-1.103626 0.337122 -0.516842 0 255 0
-0.847316 0.330915 -0.549770 0 255 0
-0.840227 0.300783 -0.544842 0 255 0
-1.104561 0.089115 -0.542843 0 255 0
-1.096904 0.320648 -0.536842 0 255 0
-0.836513 0.218206 -0.541897 0 255 0
-0.866672 0.076320 -0.516842 0 255 0
-0.937655 0.223347 -0.542560 0 255 0
-0.921002 0.205494 -0.541849 0 255 0
-1.005227 0.117073 -0.549793 0 255 0
-0.910598 0.206347 -0.548842 0 255 0
-0.874240 0.233105 -0.514843 0 255 0
-1.039996 0.061079 -0.542843 0 255 0
-0.830671 0.207214 -0.502842 0 255 0
-0.962925 0.046742 -0.545337 0 255 0
-0.969220 0.305709 -0.549838 0 255 0
-0.867987 0.195187 -0.510843 0 255 0
-0.817735 0.181499 -0.542406 0 255 0
-0.936474 0.353955 -0.547796 0 255 0
-1.054963 0.075473 -0.542843 0 255 0
-1.126999 0.265638 -0.543697 0 255 0
-1.075134 0.240301 -0.547825 0 255 0
-0.903282 0.048377 -0.553371 0 255 0
-1.063657 0.332774 -0.510843 0 255 0
-0.938392 0.162163 -0.542161 0 255 0
-1.048175 0.117025 -0.512842 0 255 0
-1.038598 0.277518 -0.542562 0 255 0
-1.044637 0.297204 -0.541834 0 255 0
-1.066656 0.097416 -0.542120 0 255 0
-0.804314 0.090726 -0.551808 0 255 0
-0.866605 0.228691 -0.526842 0 255 0
-1.100503 0.332575 -0.542843 0 255 0
-0.983121 0.096017 -0.542265 0 255 0
-0.998375 0.197404 -0.542046 0 255 0
-0.947918 0.348209 -0.542298 0 255 0
-0.936709 0.073884 -0.542292 0 255 0
-1.010425 0.304244 -0.542063 0 255 0
-0.854176 0.087011 -0.549730 0 255 0
-0.985541 0.123112 -0.549804 0 255 0
-1.015973 0.364719 -0.543759 0 255 0
-1.024251 0.133385 -0.549832 0 255 0
-0.973708 0.063346 -0.551811 0 255 0
-1.098590 0.149187 -0.549770 0 255 0
-1.037359 0.119814 -0.549842 0 255 0
-0.831627 0.135380 -0.515242 0 255 0
-0.952303 0.212148 -0.541896 0 255 0
-1.050846 0.335328 -0.537748 0 255 0
-0.923204 0.185516 -0.549833 0 255 0
-0.823651 0.211383 -0.542370 0 255 0
-1.011143 0.146957 -0.549832 0 255 0
-1.029620 0.338995 -0.547689 0 255 0
-0.978207 0.080660 -0.542441 0 255 0
-1.006220 0.295172 -0.549840 0 255 0
-1.024147 0.239687 -0.541855 0 255 0
-0.967008 0.066011 -0.542421 0 255 0
-0.849423 0.253665 -0.549828 0 255 0
-0.836908 0.235588 -0.510843 0 255 0
-1.000106 0.314319 -0.541956 0 255 0
-1.088610 0.196138 -0.533937 0 255 0
-1.085094 0.097246 -0.542180 0 255 0
-0.833601 0.227810 -0.528842 0 255 0
-0.843682 0.352634 -0.536842 0 255 0
-1.029383 0.195817 -0.542193 0 255 0
-0.832611 0.198087 -0.494842 0 255 0
-1.010083 0.055749 -0.550843 0 255 0
-0.975145 0.172020 -0.541989 0 255 0
-1.066203 0.330413 -0.543555 0 255 0
-0.832204 0.315435 -0.499853 0 255 0
-0.835829 0.163708 -0.506842 0 255 0
-0.844276 0.306738 -0.510843 0 255 0
-0.841068 0.100583 -0.542480 0 255 0
-1.054078 0.262406 -0.547837 0 255 0
-1.050827 0.239223 -0.547640 0 255 0
-0.916428 0.227014 -0.542247 0 255 0
-0.841531 0.127262 -0.497633 0 255 0
-1.011304 0.328967 -0.542368 0 255 0
-1.074274 0.311682 -0.542028 0 255 0
-1.118522 0.122753 -0.543947 0 255 0
-0.834179 0.262693 -0.536842 0 255 0
-1.000086 0.218215 -0.549827 0 255 0
-1.050066 0.216570 -0.524843 0 255 0
-1.056891 0.114496 -0.526842 0 255 0
-0.956858 0.094524 -0.542579 0 255 0
-0.873627 0.361044 -0.542076 0 255 0
-0.887301 0.075465 -0.542843 0 255 0
-0.969541 0.246482 -0.541873 0 255 0
-0.846210 0.271384 -0.512842 0 255 0
-1.084244 0.082006 -0.544842 0 255 0
-0.869581 0.110733 -0.549770 0 255 0
-0.939413 0.272793 -0.542092 0 255 0
-0.839731 0.299266 -0.530842 0 255 0
-0.830717 0.168521 -0.526842 0 255 0
-1.095796 0.173129 -0.506842 0 255 0
-0.909387 0.192802 -0.542180 0 255 0
-0.872485 0.274924 -0.512842 0 255 0
-0.904889 0.175489 -0.542140 0 255 0
-1.107484 0.290115 -0.547802 0 255 0
-0.798796 0.241741 -0.550843 0 255 0
-1.054418 0.299283 -0.496711 0 255 0
-0.998914 0.185251 -0.549806 0 255 0
-0.990918 0.165149 -0.542141 0 255 0
-1.093939 0.117528 -0.536842 0 255 0
-0.836303 0.338797 -0.522842 0 255 0
-1.080821 0.294671 -0.504842 0 255 0
-1.067914 0.351224 -0.547812 0 255 0
-0.983339 0.143091 -0.549773 0 255 0
-0.876568 0.260632 -0.536842 0 255 0
-0.829123 0.310691 -0.515171 0 255 0
-0.872020 0.233932 -0.539878 0 255 0
-0.959193 0.324025 -0.549837 0 255 0
-0.971356 0.160991 -0.542239 0 255 0
-1.051006 0.094089 -0.541821 0 255 0
-1.036064 0.097047 -0.542267 0 255 0
-0.923394 0.300058 -0.542521 0 255 0
-0.989104 0.250640 -0.549842 0 255 0
-0.972193 0.108954 -0.548842 0 255 0
-1.066404 0.265026 -0.504842 0 255 0
-1.061638 0.188360 -0.511388 0 255 0
-0.888256 0.253740 -0.542218 0 255 0
-0.843259 0.191014 -0.536842 0 255 0
-0.807755 0.228451 -0.543625 0 255 0
-1.118843 0.077838 -0.556842 0 255 0
-1.025036 0.100837 -0.542719 0 255 0
-1.095367 0.058536 -0.541853 0 255 0
