ply
format ascii 1.0
element vertex 1238
property float x
property float y
property float z
property uchar red
property uchar green
property uchar blue
end_header
0.099802 0.629720 0.442438 67 62 58
0.107670 0.641333 0.440080 48 45 38
0.105852 0.652221 0.439753 43 42 38
0.084046 0.637004 0.438650 66 59 53
0.088065 0.631368 0.443471 63 54 47
0.099453 0.631237 0.446161 59 51 43
0.538268 0.256452 0.174622 69 56 45
0.545292 0.239549 0.191006 68 57 41
0.544268 0.241953 0.174267 58 47 36
0.238526 0.341735 -0.328766 41 36 30
0.246892 0.371827 -0.331049 76 69 52
0.472709 0.481429 0.038810 60 42 34
0.486309 0.453183 0.017997 61 44 34
0.237621 0.363681 -0.329009 66 58 52
0.232181 0.353378 -0.331767 41 33 30
0.218181 0.353075 -0.332685 36 29 28
0.232388 0.371895 -0.323946 78 69 58
0.473405 0.402524 0.599678 91 72 65
0.472973 0.404537 0.574436 91 71 63
-0.105508 0.336492 -0.147458 195 184 162
-0.102369 0.346387 -0.147541 198 185 165
-0.052173 0.264408 -0.197087 184 180 167
-0.069370 0.258967 -0.199801 117 111 98
-0.049509 0.239838 -0.196176 157 153 140
0.484773 0.381731 0.081872 53 43 33
0.384674 0.677858 -0.078408 75 56 47
0.394446 0.656099 -0.063128 73 51 40
0.409203 0.623481 -0.085065 77 56 38
0.385153 0.675509 -0.053253 70 51 38
0.141426 0.560259 0.522533 40 38 45
0.125362 0.530061 0.504528 38 38 38
0.129426 0.557645 0.492693 38 38 37
0.493714 0.425733 0.228815 70 53 46
0.498960 0.412610 0.251388 72 55 42
0.483803 0.445125 0.240050 71 53 41
0.035455 0.797338 -0.018349 173 155 129
0.073072 0.795454 0.001012 182 161 133
0.059486 0.799366 -0.019488 183 164 141
0.476880 0.396217 0.506373 71 55 40
0.489594 0.411949 0.549685 82 59 49
0.402650 0.567613 0.205957 58 46 38
0.226017 0.757580 -0.193016 70 65 53
0.231654 0.758229 -0.179693 71 66 49
0.238685 0.762130 -0.218230 100 89 71
0.257410 0.762222 -0.226748 70 67 55
0.254428 0.761985 -0.212826 86 78 56
0.235150 0.759034 -0.202662 72 69 56
0.250729 0.761890 -0.200791 99 88 67
0.581193 0.249149 0.022810 50 40 29
0.576082 0.258791 0.053912 50 38 27
0.035840 0.546063 0.632657 96 92 84
0.045221 0.547517 0.655757 75 73 77
0.029291 0.546077 0.643056 63 63 66
0.156005 0.555885 0.679421 98 97 94
0.155678 0.564264 0.698590 114 109 109
-0.043275 0.553987 0.665654 51 50 55
-0.022262 0.549352 0.656743 36 38 41
-0.022106 0.550680 0.649225 35 38 35
0.479387 0.432810 0.649294 103 85 75
0.449389 0.459308 0.677373 109 91 77
0.452916 0.452540 0.666622 109 91 78
-0.139573 0.567860 0.704874 89 87 90
-0.125764 0.579100 0.728544 98 96 103
-0.143902 0.575212 0.723473 76 77 82
-0.091502 0.551309 0.658907 58 59 50
-0.090455 0.550200 0.645323 54 53 54
-0.076607 0.551852 0.643493 52 51 49
0.159233 0.571363 0.640432 34 32 36
0.143138 0.592800 0.681987 41 40 42
0.470993 0.409427 0.674123 102 88 72
0.471963 0.405650 0.642796 100 83 74
0.539221 0.246775 0.645622 93 71 61
0.068928 0.541539 0.640598 43 42 48
0.078112 0.543347 0.652593 37 37 43
0.046623 0.550521 0.670271 66 68 67
0.049058 0.546437 0.642202 46 46 50
0.065614 0.547725 0.668117 48 49 51
0.060792 0.546501 0.655174 101 98 92
0.078850 0.544520 0.666712 41 42 48
0.557362 0.251812 0.702123 103 83 75
-0.103400 0.584125 0.643359 60 58 55
-0.079484 0.584540 0.658493 47 47 51
0.507844 0.367298 0.642122 93 76 63
0.523231 0.332496 0.638506 95 80 67
0.523382 0.331508 0.661872 102 80 71
0.490367 0.361717 0.677142 104 85 75
0.499367 0.340725 0.691372 102 85 75
0.155860 0.565650 0.650334 32 31 37
0.091782 0.565330 0.707085 77 77 84
0.440390 0.479770 0.667872 106 85 72
-0.054232 0.582058 0.739910 195 191 198
0.495248 0.395825 0.661622 101 87 71
-0.082893 0.554615 0.678420 81 79 82
-0.105630 0.557159 0.676319 76 74 74
-0.107904 0.563361 0.695736 100 99 101
0.435007 0.492157 0.632873 107 88 76
0.430779 0.502475 0.650961 106 89 74
0.428119 0.509380 0.661079 107 83 77
-0.152608 0.564748 0.702883 95 84 78
-0.153918 0.572588 0.722390 110 104 95
-0.153103 0.569750 0.713821 100 94 80
0.534256 0.257443 0.706122 100 83 68
0.537927 0.247131 0.740987 99 84 72
0.532545 0.260444 0.738123 98 80 66
0.158573 0.577530 0.714626 76 74 72
0.155076 0.572623 0.709198 88 86 86
0.160753 0.679163 0.623185 102 92 84
0.538085 0.247753 0.695651 103 82 65
0.543374 0.234507 0.715154 100 82 71
0.014429 0.543300 0.650999 36 39 41
0.021248 0.542359 0.636970 36 39 41
0.005011 0.549888 0.674998 61 62 65
-0.009604 0.554767 0.657938 58 57 62
-0.006703 0.549468 0.665044 56 55 60
0.001474 0.552221 0.645295 44 44 49
0.006387 0.542011 0.657821 42 42 44
0.021929 0.547741 0.659743 71 70 67
0.460700 0.432895 0.693598 106 86 75
0.565075 0.234760 0.681400 97 82 68
0.546242 0.278237 0.689936 101 84 71
0.463029 0.426482 0.641872 97 80 72
-0.153128 0.560237 0.687306 70 67 66
-0.160892 0.566143 0.687463 68 63 58
-0.163026 0.581850 0.690345 92 87 79
-0.160883 0.571270 0.696258 92 86 81
-0.140178 0.559036 0.681287 90 86 86
-0.160755 0.568101 0.674241 92 84 77
0.070750 0.549714 0.683964 64 63 69
0.054146 0.553651 0.681588 139 135 142
0.004742 0.579437 0.656228 90 90 90
-0.010879 0.580381 0.657338 66 65 61
0.002087 0.583292 0.672800 85 90 84
-0.002689 0.575762 0.662433 82 87 81
-0.009271 0.564981 0.660357 48 47 52
-0.004762 0.555581 0.658256 92 94 92
0.003766 0.571098 0.646465 104 104 93
-0.004820 0.583904 0.672227 105 105 103
0.453751 0.448517 0.652897 100 85 71
0.457506 0.440764 0.672872 104 86 73
0.465662 0.421138 0.673482 100 85 72
0.458638 0.437088 0.649772 101 85 66
0.461153 0.432577 0.656627 104 88 71
0.137012 0.563661 0.663979 77 77 74
0.142531 0.586687 0.666097 35 34 39
0.141345 0.566902 0.659283 51 49 49
0.132869 0.591885 0.651581 37 34 40
0.134804 0.565571 0.648740 98 95 89
0.137648 0.587678 0.642047 32 32 37
0.146959 0.567727 0.648535 41 37 42
0.474252 0.401587 0.692123 104 85 75
0.469400 0.412227 0.697417 106 88 75
-0.117328 0.558170 0.676886 101 99 89
-0.118860 0.566309 0.703047 96 93 95
0.007691 0.581914 0.742243 153 155 166
-0.013815 0.582396 0.741664 193 192 201
0.481648 0.382011 0.658122 104 84 74
0.477185 0.392989 0.649113 92 77 65
0.485232 0.373927 0.649616 101 82 68
0.489430 0.364330 0.641747 102 84 72
0.511813 0.357492 0.658122 97 82 71
0.509733 0.361315 0.692998 100 83 72
0.001044 0.571502 0.724989 149 149 157
0.006723 0.564323 0.709980 158 157 167
-0.012908 0.575537 0.730102 164 163 173
0.155848 0.596137 0.703716 116 111 112
0.161133 0.580916 0.680018 79 73 63
0.159614 0.586676 0.706731 63 62 57
0.160011 0.590477 0.690886 91 84 73
0.150363 0.587229 0.670457 49 46 49
0.159402 0.587833 0.674268 49 46 49
0.028747 0.555312 0.688979 87 87 89
-0.004021 0.558876 0.695281 108 105 108
-0.056351 0.550681 0.656564 64 62 59
-0.045286 0.563995 0.650552 47 46 52
-0.058593 0.571335 0.651533 47 47 52
-0.074437 0.576272 0.645794 45 44 48
-0.061622 0.557295 0.647180 66 64 60
-0.066112 0.578642 0.649324 46 46 46
-0.079383 0.576462 0.636854 44 44 46
0.134056 0.556002 0.661758 57 56 61
0.142949 0.556422 0.673985 50 49 54
0.113889 0.545802 0.648941 85 88 95
0.127810 0.548200 0.643005 77 79 85
0.126166 0.550701 0.675665 74 71 78
0.132213 0.551692 0.669075 74 72 77
-0.120085 0.554606 0.656872 66 62 58
0.546319 0.280542 0.640872 90 73 66
0.108548 0.568105 0.717072 147 143 146
0.110809 0.576316 0.725769 143 138 148
0.095523 0.569723 0.717254 150 147 155
0.094670 0.575322 0.727403 114 112 125
0.483177 0.422967 0.681248 108 89 74
0.566004 0.234764 0.651277 95 75 67
0.564897 0.239034 0.643102 95 74 63
0.551634 0.267640 0.658122 95 77 64
0.040093 0.565652 0.710849 109 109 118
0.410478 0.550453 0.639872 108 88 75
0.502985 0.332292 0.665873 98 79 68
0.499820 0.338938 0.650622 98 81 70
0.496261 0.348599 0.650007 102 82 72
-0.022917 0.551825 0.675683 82 85 87
-0.022962 0.558739 0.695038 79 80 78
0.524407 0.281405 0.689231 99 84 64
0.527947 0.272542 0.693036 100 84 74
0.519443 0.293729 0.679622 103 83 71
0.511363 0.312663 0.704747 104 87 74
0.499741 0.339929 0.715669 105 86 71
0.493668 0.354430 0.695721 103 89 81
0.438817 0.484805 0.663310 109 91 74
0.434284 0.495624 0.669372 107 91 82
0.435317 0.491672 0.670122 109 94 80
-0.049301 0.559926 0.657245 51 50 55
-0.014635 0.560789 0.646583 43 45 48
-0.028361 0.557284 0.637942 44 43 45
-0.021740 0.581972 0.654525 73 70 66
-0.018909 0.578801 0.643266 56 57 56
-0.022793 0.556234 0.639198 44 45 51
0.133260 0.593310 0.670361 36 36 40
0.125475 0.626756 0.662446 39 41 44
0.124382 0.627924 0.673976 36 36 39
0.130721 0.613786 0.662952 42 44 44
0.131148 0.608347 0.674129 39 37 39
0.132139 0.610173 0.653171 35 33 34
0.140274 0.607879 0.641682 40 37 40
0.136721 0.553229 0.683258 74 72 74
0.139790 0.565422 0.699850 70 64 71
0.143835 0.558706 0.686463 102 97 100
0.129376 0.559194 0.702202 84 83 90
0.525020 0.280137 0.721122 102 85 74
0.528278 0.271268 0.730123 102 83 77
0.531231 0.265361 0.726335 98 81 67
0.527676 0.274395 0.654831 93 74 65
0.534049 0.258734 0.664810 94 77 73
0.521364 0.289344 0.651622 95 77 65
0.533835 0.308055 0.649998 95 75 72
0.111533 0.557445 0.688793 93 93 93
0.088127 0.549924 0.676229 50 53 56
0.103737 0.564303 0.705908 115 114 121
0.092711 0.554023 0.687541 55 56 60
0.505847 0.325047 0.734953 101 83 69
0.517018 0.299095 0.708736 100 84 70
0.482187 0.381698 0.701101 105 84 74
0.503855 0.374526 0.707936 105 88 72
0.527309 0.321641 0.678248 101 85 73
0.523331 0.329802 0.705989 101 85 75
-0.047533 0.553566 0.676151 84 81 78
-0.068525 0.559599 0.694604 93 93 88
0.508420 0.319430 0.641075 96 76 66
0.512806 0.309291 0.670677 93 77 68
0.507175 0.323202 0.670122 101 81 71
0.120523 0.567112 0.713196 139 137 149
0.134481 0.574470 0.708565 72 71 75
0.423277 0.521000 0.649813 104 86 71
-0.050730 0.551534 0.664258 62 62 59
-0.040327 0.558055 0.691966 112 109 109
-0.056718 0.565986 0.711122 162 156 165
-0.073334 0.566158 0.712259 110 107 114
-0.061304 0.571392 0.721507 165 162 173
0.442686 0.476037 0.639623 108 87 73
0.444705 0.470145 0.639921 103 86 65
0.464034 0.468370 0.646123 104 84 68
0.443600 0.474082 0.673873 107 87 73
0.448023 0.463299 0.649872 102 87 70
0.119439 0.548687 0.662924 76 77 84
0.098133 0.545866 0.660971 66 67 72
0.105188 0.551144 0.673791 75 77 82
-0.028935 0.566111 0.711520 143 141 146
-0.016484 0.567087 0.715785 164 158 165
-0.039528 0.576743 0.732207 179 176 183
0.459375 0.478344 0.659373 106 85 74
0.416327 0.536858 0.634232 106 92 73
-0.084894 0.581702 0.645824 46 45 48
-0.107106 0.552984 0.643414 57 59 52
-0.151879 0.553947 0.627896 95 87 72
0.155443 0.564355 0.663791 43 37 46
0.159702 0.566481 0.680275 45 44 47
0.145708 0.588733 0.652389 35 33 35
0.158031 0.586742 0.658279 39 37 40
0.159956 0.575475 0.650829 33 34 39
-0.162065 0.569619 0.657746 115 101 84
-0.152454 0.556700 0.673734 93 86 77
-0.145758 0.555402 0.661190 89 81 67
-0.163892 0.572257 0.642791 120 107 97
-0.152747 0.554532 0.651347 108 99 90
0.079252 0.553012 0.695433 66 66 74
0.065387 0.565213 0.717391 85 85 94
0.077640 0.568351 0.722823 86 85 93
0.062279 0.575078 0.733069 138 137 147
0.058404 0.561829 0.705289 119 118 124
0.021009 0.564676 0.708366 152 151 159
0.015100 0.577184 0.732830 158 158 169
0.031475 0.570356 0.722256 152 149 160
0.042586 0.576545 0.730843 160 158 167
0.399271 0.574592 0.628962 109 87 75
0.475510 0.397412 0.703623 105 87 71
0.504528 0.327585 0.690122 102 86 70
-0.056492 0.578223 0.637145 44 44 48
-0.050958 0.581652 0.637189 53 52 55
-0.044144 0.583019 0.642582 79 78 78
0.477194 0.393730 0.686122 105 86 74
0.487432 0.369450 0.683825 99 84 72
0.478908 0.389814 0.704122 109 88 72
0.483905 0.378060 0.681872 102 86 68
0.487324 0.369092 0.709091 101 86 70
0.137670 0.604211 0.707419 88 82 81
0.144206 0.595260 0.691042 102 93 95
-0.162404 0.585145 0.708111 166 149 126
-0.159014 0.584725 0.723970 175 158 135
-0.163777 0.599995 0.711286 167 151 126
-0.104111 0.568863 0.709828 110 107 114
-0.105236 0.573619 0.719140 90 92 99
-0.093247 0.559563 0.694408 154 150 155
-0.091694 0.571449 0.720583 158 154 157
-0.077387 0.578840 0.733317 171 167 174
0.012851 0.554685 0.686047 105 107 101
-0.012786 0.549133 0.672809 74 76 80
0.004424 0.554994 0.689668 73 71 78
-0.276227 -0.762603 -0.076398 180 164 146
-0.273428 -0.760702 -0.067296 178 164 143
-0.293665 -0.760651 -0.071337 127 115 97
-0.281783 -0.754515 -0.061898 207 188 171
-0.342698 0.136276 0.116938 173 166 138
-0.585987 0.108722 0.521244 72 68 58
-0.580771 0.114849 0.539931 74 69 65
-0.378208 -0.597853 0.549398 200 185 158
-0.382225 -0.594139 0.527212 208 193 178
-0.367982 -0.603320 0.522600 215 200 179
-0.255127 0.101716 -0.062371 209 201 174
-0.341710 -0.651844 0.315858 182 169 135
-0.351738 -0.648790 0.342807 187 170 131
-0.534058 -0.348262 0.509677 46 47 44
-0.557858 -0.344183 0.494811 72 70 62
-0.208785 -0.477065 -0.041986 225 216 203
-0.201433 -0.499314 -0.042359 222 215 194
-0.214889 -0.491871 -0.045129 221 212 195
-0.505205 -0.296257 0.586518 63 61 60
-0.498314 -0.297104 0.589369 64 62 63
-0.503179 -0.299731 0.612451 66 63 65
-0.252954 -0.466405 -0.057008 193 185 171
-0.255140 -0.451737 -0.056382 193 183 170
-0.261250 -0.471091 -0.058537 189 179 165
-0.468882 0.048406 0.345864 43 40 41
-0.485570 0.035636 0.343947 37 41 35
-0.481269 0.027259 0.344966 40 39 41
-0.466561 0.033216 0.344822 37 38 38
-0.486246 0.023690 0.345946 38 37 41
-0.489733 0.041201 0.352683 34 34 33
-0.183082 -0.416110 0.010281 203 193 180
-0.310964 -0.830767 -0.022878 159 141 113
-0.308340 -0.820017 -0.011244 159 145 117
-0.301868 -0.399890 0.452882 194 178 151
-0.301986 -0.399733 0.480203 194 179 154
-0.310266 -0.405350 0.470949 199 188 166
-0.284294 -0.405227 0.458003 210 197 171
-0.283673 -0.405995 0.477745 203 190 164
-0.417737 0.188717 0.315455 78 105 88
-0.465716 -0.196868 0.453685 48 42 41
-0.464165 -0.203181 0.416529 44 45 47
-0.465905 -0.196723 0.433217 41 42 40
-0.465866 -0.183102 0.432018 44 44 40
-0.466125 -0.201934 0.438121 46 47 47
-0.504594 -0.019399 0.423227 40 39 40
-0.513344 -0.015608 0.415713 37 36 39
-0.496950 -0.018059 0.439731 40 41 37
-0.510122 -0.019685 0.444079 44 44 46
-0.511011 -0.016488 0.434759 37 34 39
-0.508015 0.013448 0.534919 40 41 40
-0.505074 0.016949 0.529517 40 41 41
-0.514526 0.003434 0.517669 45 47 48
-0.516864 -0.006733 0.517914 45 46 47
-0.502824 0.008402 0.518277 46 44 46
-0.503153 0.001143 0.519329 45 46 47
-0.516454 0.017489 0.525472 40 40 39
-0.504985 0.014801 0.541174 42 41 46
-0.521848 0.005879 0.520104 37 39 41
-0.521752 -0.002586 0.522610 44 47 49
-0.519609 -0.012791 0.516267 42 44 43
-0.502199 -0.011276 0.517521 42 44 43
-0.500988 0.016395 0.519774 43 40 46
-0.520689 -0.002148 0.534249 40 40 40
-0.519093 0.012000 0.528203 45 46 38
-0.510642 -0.004563 0.541910 44 43 43
-0.525212 -0.009430 0.533657 30 29 32
-0.599762 0.051856 0.322165 36 36 38
-0.610002 0.060683 0.428820 39 41 42
-0.597010 0.078514 0.414667 54 53 50
-0.598592 0.074796 0.436966 56 56 52
-0.596962 0.068061 0.428249 46 45 41
-0.609364 0.056217 0.447694 45 44 42
-0.611647 0.052914 0.432157 41 40 42
-0.545235 -0.345576 0.605828 43 42 39
-0.556294 -0.345597 0.605522 39 40 35
-0.550130 -0.346509 0.583758 49 50 45
-0.567249 -0.343722 0.584660 71 71 63
-0.153967 -0.480041 -0.045276 231 224 211
-0.595083 0.074271 0.311125 37 34 30
-0.580742 0.092091 0.318147 46 44 38
-0.580460 0.104783 0.312734 28 24 23
-0.588410 0.080638 0.306792 45 44 36
-0.579462 0.092422 0.296257 42 41 37
-0.460916 -0.132289 0.292944 42 41 34
-0.473518 -0.128332 0.299319 42 41 34
-0.458674 -0.114925 0.297603 43 38 33
-0.480997 -0.134539 0.298352 59 54 49
-0.487131 -0.124118 0.289108 47 44 36
-0.457518 -0.134598 0.401787 38 39 38
-0.458429 -0.116059 0.422881 39 39 38
-0.458803 -0.138157 0.414312 37 38 33
-0.488906 -0.127955 0.509299 52 49 51
-0.485122 -0.105996 0.512945 47 43 54
-0.470689 -0.127028 0.514376 47 48 47
-0.484335 -0.114626 0.484071 41 42 43
-0.477750 -0.145137 0.484256 52 49 54
-0.486172 -0.129360 0.488805 49 44 44
-0.480775 -0.126136 0.488059 47 43 46
-0.463183 0.101489 0.324625 26 26 23
-0.446684 0.105411 0.326979 26 26 25
-0.447989 0.103077 0.340411 26 26 24
-0.455695 0.099112 0.345636 22 23 19
-0.466714 0.099567 0.337426 27 28 25
-0.577934 0.110122 0.377130 38 33 31
-0.587707 0.089006 0.368038 43 41 34
-0.579647 0.109307 0.362001 52 47 42
-0.586181 0.098825 0.365133 32 31 27
-0.582849 0.091437 0.356958 21 20 18
-0.587455 0.092568 0.388774 18 16 15
-0.587354 0.094828 0.376751 29 27 25
-0.595154 0.077024 0.377438 45 43 39
-0.617071 -0.229959 0.493301 67 65 71
-0.616094 -0.212189 0.495651 50 54 53
-0.618845 -0.222370 0.495236 42 43 48
-0.615267 -0.239092 0.500128 40 45 49
-0.633123 -0.226426 0.502043 49 46 58
-0.624799 -0.231816 0.506290 23 23 27
-0.616675 -0.220486 0.504233 52 47 58
-0.618019 -0.238083 0.510426 37 37 41
-0.619657 -0.224201 0.510455 52 50 66
-0.619309 -0.244658 0.494175 55 53 55
-0.612666 -0.230619 0.514016 40 44 48
-0.474661 -0.210162 0.553384 62 60 66
-0.479129 -0.227864 0.557150 63 61 64
-0.476530 -0.213312 0.557772 63 60 64
-0.454982 -0.105543 0.376211 35 31 33
-0.456880 -0.106895 0.353671 38 40 39
-0.527622 0.111515 0.276069 46 43 32
-0.567960 0.112727 0.276679 27 25 24
-0.552621 0.111112 0.272387 29 26 25
-0.412447 0.066199 0.265591 183 165 148
-0.433356 0.082852 0.272333 165 152 144
-0.421571 0.087654 0.268894 171 155 146
-0.226265 -0.676733 -0.060194 222 205 189
-0.213668 -0.702766 -0.060918 223 207 189
-0.596834 0.094757 0.629754 41 38 31
-0.598682 0.081694 0.625974 27 25 27
-0.467374 -0.345388 0.276843 53 51 49
-0.463746 -0.340939 0.278856 50 44 43
-0.461596 -0.349211 0.273324 99 91 78
-0.457738 -0.335556 0.279190 48 42 40
-0.457349 -0.354918 0.281560 85 80 67
-0.243164 0.129538 -0.059806 209 203 174
-0.491680 -0.321313 0.422366 40 41 39
-0.497833 -0.309821 0.410603 55 51 51
-0.491238 -0.317379 0.381564 41 37 39
-0.490858 -0.327367 0.395938 44 44 43
-0.501892 -0.306660 0.409998 42 45 41
-0.593420 -0.339004 0.623156 77 75 68
-0.618466 -0.119456 0.474557 52 49 47
-0.610137 -0.114765 0.467135 48 47 46
-0.611580 -0.126979 0.459369 46 47 44
-0.576652 0.113648 0.506028 87 77 74
-0.568665 0.114325 0.502006 81 77 72
-0.337345 0.114732 0.251785 168 155 122
-0.338842 0.111715 0.241633 159 148 115
-0.596239 0.109912 0.630473 38 36 35
-0.596017 0.104597 0.619340 50 47 48
-0.490116 -0.168246 0.511209 52 49 48
-0.498990 -0.161171 0.536074 43 45 41
-0.499556 -0.171346 0.545040 42 48 42
-0.491656 -0.157363 0.549213 50 47 45
-0.508143 -0.167545 0.521041 48 45 45
-0.498466 -0.159190 0.520912 49 50 41
-0.499417 -0.148650 0.519069 54 52 50
-0.496658 -0.150746 0.547064 45 44 52
-0.510350 -0.178025 0.523331 49 44 46
-0.504385 -0.140816 0.518915 44 45 49
-0.345368 -0.286131 0.248803 200 181 155
-0.344007 -0.249358 0.255006 228 211 183
-0.347121 -0.291482 0.258623 227 207 182
-0.456182 -0.200032 0.275946 135 113 100
-0.457640 -0.181853 0.289721 28 24 19
-0.455543 -0.184507 0.278436 51 39 33
-0.498079 -0.149205 0.478031 52 49 53
-0.497883 -0.166077 0.469961 50 47 46
-0.497057 -0.154174 0.452661 50 47 43
-0.502118 -0.178914 0.464097 47 45 55
-0.507054 -0.146901 0.454885 34 37 37
-0.493363 -0.230321 0.502981 69 65 64
-0.506722 -0.223699 0.481121 50 48 52
-0.505020 -0.232497 0.489626 54 51 55
-0.504886 -0.235329 0.514618 51 54 53
-0.497536 -0.218623 0.510084 56 56 65
-0.498308 -0.220304 0.493627 69 66 61
-0.487008 -0.228768 0.499173 63 64 59
-0.496097 -0.232964 0.498192 60 59 55
-0.491335 -0.207158 0.511733 68 67 67
-0.496065 -0.208266 0.492572 56 57 59
-0.338164 -0.153543 -0.062242 206 188 155
-0.348835 -0.162263 -0.030128 182 160 134
-0.343317 -0.127972 -0.059878 203 181 156
-0.348619 -0.137373 -0.046107 177 161 129
-0.344357 -0.144762 -0.057857 183 166 136
-0.612451 0.042850 0.550934 31 30 30
-0.609342 0.016732 0.549658 31 29 30
-0.609948 0.036179 0.576567 23 22 23
-0.612420 0.025296 0.554591 31 29 30
-0.613272 0.029116 0.569084 31 29 29
-0.609542 0.040862 0.561379 30 29 29
-0.369276 -0.521619 0.251850 205 174 82
-0.364145 -0.486530 0.235548 178 160 132
-0.365108 -0.511957 0.234797 198 168 88
-0.368433 -0.499262 0.256543 203 171 97
-0.289985 -0.404271 0.439223 202 189 166
-0.282318 -0.412034 0.445718 206 195 170
-0.284953 -0.413061 0.424546 205 189 165
-0.299700 -0.399990 0.431459 198 182 160
-0.297433 -0.399870 0.461608 200 185 161
-0.171188 0.197342 -0.037534 170 162 139
-0.162333 0.189105 -0.043812 189 181 154
-0.364294 -0.635168 0.119996 193 172 153
-0.366028 -0.631875 0.102758 187 169 147
-0.346358 -0.533920 0.606673 248 237 222
-0.363708 -0.533474 0.609685 251 243 227
-0.350139 -0.527435 0.599104 199 194 182
-0.287164 -0.504505 0.564122 213 202 191
-0.394042 0.172803 0.386028 159 153 131
-0.411602 0.181319 0.390490 151 145 125
-0.362762 -0.613473 0.030122 186 170 149
-0.619278 -0.108831 0.605375 22 20 21
-0.621174 -0.091378 0.619296 27 28 28
-0.620017 -0.101796 0.626108 42 41 38
-0.394758 0.186069 0.487953 144 136 115
-0.393822 0.188915 0.479873 144 134 115
-0.447609 0.142923 0.498244 185 173 143
-0.448430 0.145296 0.522287 189 175 151
-0.452408 0.134536 0.598131 178 166 144
-0.451131 0.141898 0.590638 195 185 165
-0.452581 0.112291 0.614134 35 33 35
-0.449817 0.133133 0.567654 181 168 146
-0.470983 -0.231841 0.529064 60 58 61
-0.469603 -0.200565 0.527188 60 59 63
-0.472768 -0.219866 0.520254 60 56 58
-0.470908 -0.203452 0.537353 61 61 69
-0.473217 -0.226085 0.540467 62 61 65
-0.472545 -0.235136 0.519924 58 58 63
-0.482036 -0.233057 0.511909 59 55 62
-0.590288 -0.335237 0.410621 55 56 48
-0.594267 -0.333454 0.390434 57 56 50
-0.356036 -0.324580 0.233149 205 185 163
-0.358436 -0.327313 0.226830 191 174 155
-0.358029 -0.359605 0.232500 195 175 154
-0.356268 -0.436894 0.145011 205 189 170
-0.478772 -0.182590 0.291840 40 37 33
-0.462314 -0.185105 0.294726 55 49 42
-0.245272 -0.177495 -0.066021 220 202 182
-0.209515 -0.167980 -0.065409 221 203 185
-0.497261 -0.102227 0.582154 43 46 48
-0.491960 -0.083592 0.583921 47 53 49
-0.490732 -0.092917 0.597202 53 51 51
-0.352446 -0.333216 0.049673 164 154 136
-0.353750 -0.361884 0.054678 166 155 141
-0.352520 -0.326704 0.066150 164 153 141
-0.455630 -0.112420 0.443920 36 38 38
-0.447444 -0.021268 0.389628 38 40 39
-0.453429 -0.015444 0.360030 32 32 37
-0.450218 -0.016989 0.372310 34 34 37
-0.460338 -0.027067 0.372420 32 36 40
-0.456286 -0.038834 0.387834 38 42 38
-0.448550 -0.043971 0.374471 35 36 29
-0.463717 -0.028295 0.383306 36 38 36
-0.354000 -0.082040 0.073750 184 167 141
-0.354300 -0.094011 0.100759 182 165 134
-0.480092 0.078866 0.359305 35 35 29
-0.471679 0.083250 0.372379 35 36 30
-0.487837 0.057029 0.373581 38 39 38
-0.481231 0.075335 0.370501 39 32 31
-0.488696 0.067614 0.378553 40 36 33
-0.472755 0.081461 0.361356 37 37 31
-0.485934 0.063837 0.361597 44 40 34
-0.482178 0.067861 0.354659 41 41 29
-0.470043 0.073830 0.353885 39 33 30
-0.354782 -0.531879 0.612511 248 238 222
-0.345497 -0.524714 0.613892 252 242 227
-0.390392 0.176794 0.464876 146 138 113
-0.391457 0.170293 0.465903 153 144 123
-0.389571 0.177651 0.478795 154 147 124
-0.397790 0.167525 0.457268 159 150 128
-0.394491 0.175010 0.454555 171 162 137
-0.167034 -0.039243 -0.067050 232 213 196
-0.150480 -0.056609 -0.067139 244 227 207
-0.304189 -0.473824 0.602432 253 248 224
-0.288051 -0.475261 0.584872 217 204 189
-0.294613 -0.473571 0.598386 252 245 225
-0.615136 -0.084050 0.473373 51 47 50
-0.614085 -0.062714 0.455633 63 64 62
-0.606746 -0.073082 0.458127 51 53 49
-0.613942 -0.061727 0.467524 60 60 60
-0.616933 -0.071641 0.474894 48 45 44
-0.213645 -0.644529 -0.060421 224 208 191
-0.226640 0.040010 -0.064782 219 199 181
-0.209455 0.041060 -0.062837 219 205 182
-0.350348 -0.136773 0.009773 177 159 140
-0.351208 -0.142707 0.026363 178 159 138
-0.352486 -0.165425 0.021891 178 164 144
-0.181507 0.042775 -0.057481 222 210 191
-0.194395 0.061389 -0.056825 221 209 189
-0.345790 0.071264 -0.019929 177 159 134
-0.346974 0.064884 0.005468 177 161 133
-0.343772 0.081816 -0.001878 174 162 134
-0.597759 -0.197155 0.282898 39 37 26
-0.595487 -0.189773 0.270964 62 58 53
-0.591456 -0.213712 0.270148 58 53 43
-0.499713 -0.279406 0.353291 52 50 51
-0.499759 -0.288783 0.347751 55 51 63
-0.485932 -0.274972 0.343023 57 53 54
-0.487196 -0.296834 0.342278 67 58 58
-0.487086 -0.280803 0.341706 57 62 55
-0.469458 -0.280920 0.351008 58 58 53
-0.473344 -0.129841 0.581133 48 49 53
-0.471782 -0.132285 0.597439 42 44 48
-0.475711 -0.115732 0.592363 44 44 47
-0.472843 -0.112430 0.580441 48 48 48
-0.481949 -0.113635 0.601909 52 49 49
-0.484366 -0.146878 0.605478 45 47 46
-0.354883 0.029041 0.165959 179 159 142
-0.355048 -0.006768 0.151169 179 162 143
-0.457432 0.063082 0.352104 35 32 39
-0.454350 0.069760 0.369597 33 33 32
-0.452588 0.075016 0.381942 37 38 34
-0.454582 0.061070 0.380879 43 40 35
-0.453880 0.071395 0.356490 39 38 30
-0.455808 0.077354 0.388084 34 34 29
-0.456074 0.076336 0.366669 39 37 31
-0.460959 0.083594 0.394490 34 34 29
-0.627870 -0.238947 0.618473 71 66 72
-0.627707 -0.221023 0.624448 71 74 68
-0.176754 -0.420578 -0.014031 144 141 138
-0.173769 -0.407153 -0.024862 128 127 124
-0.176313 -0.425110 -0.029443 106 105 96
-0.181116 -0.414838 -0.003125 125 121 113
-0.185637 -0.426404 -0.003006 143 139 125
-0.621736 -0.222442 0.448804 45 44 45
-0.619194 -0.217683 0.445152 44 40 47
-0.625892 -0.223890 0.437119 33 25 33
-0.511949 -0.016561 0.402065 36 33 38
-0.504498 -0.022881 0.397731 41 36 44
-0.505770 -0.019680 0.406738 38 38 40
-0.494561 -0.022298 0.398478 35 35 35
-0.499349 -0.328297 0.577522 53 53 42
-0.500322 -0.331508 0.548750 48 42 47
-0.498410 -0.321325 0.576501 44 39 37
-0.505497 -0.304640 0.579184 44 43 47
-0.477256 -0.308347 0.572730 60 58 60
-0.496707 -0.324691 0.555608 45 41 45
-0.360855 -0.008932 0.261891 196 173 149
-0.319528 -0.407077 0.556035 218 205 184
-0.330639 -0.406579 0.566930 190 179 154
-0.311651 -0.399975 0.570759 213 200 183
-0.261924 -0.056371 -0.065091 218 199 175
-0.280024 -0.428026 0.506060 218 203 187
-0.192531 -0.416144 0.009406 203 190 177
-0.191078 -0.424254 0.011365 177 164 157
-0.460528 0.091157 0.556315 46 46 42
-0.458402 0.102711 0.557280 30 29 28
-0.463037 0.085503 0.573512 49 46 43
-0.457003 0.105875 0.571721 32 30 34
-0.367365 -0.686091 0.053373 190 173 157
-0.367711 -0.687932 0.100650 182 167 149
-0.611704 -0.021595 0.638197 16 16 16
-0.610088 0.009635 0.621880 46 47 44
-0.613746 -0.002684 0.616980 22 22 22
-0.614991 -0.013162 0.626944 16 16 16
-0.611873 -0.006600 0.636474 49 45 50
-0.162203 0.174098 -0.045763 215 209 180
-0.463947 -0.260105 0.363700 57 51 57
-0.463430 -0.245435 0.354370 53 53 55
-0.463018 -0.252358 0.372433 54 49 57
-0.485334 -0.112129 0.612029 47 48 49
-0.310713 -0.815163 0.050122 183 165 143
-0.311067 -0.806921 0.061559 189 167 142
-0.312113 -0.815530 0.062748 187 163 142
-0.345099 0.057936 -0.031543 173 158 132
-0.342844 0.080635 -0.029764 173 160 129
-0.342245 0.088453 -0.037504 175 160 134
-0.343621 0.071014 -0.049182 172 156 132
-0.546481 0.000337 0.266554 46 42 39
-0.525613 0.019302 0.265038 51 49 44
-0.539864 -0.006374 0.266873 61 61 53
-0.519185 -0.004847 0.266532 51 49 45
-0.560025 0.009719 0.265971 67 63 57
-0.168524 -0.437133 -0.044523 214 206 196
-0.154500 -0.421782 -0.045470 206 199 190
-0.194892 -0.438198 -0.042834 141 135 126
-0.173262 -0.430245 -0.040539 136 131 122
-0.377646 -0.709650 0.251327 195 184 164
-0.376720 -0.675937 0.274947 202 185 167
-0.354138 -0.371306 0.102425 195 180 165
-0.354055 -0.361060 0.115316 197 183 166
-0.355085 -0.389945 0.123197 192 175 158
-0.355603 -0.573800 -0.052399 201 189 173
-0.357270 -0.554323 -0.048586 175 163 153
-0.601822 0.002440 0.344356 42 47 48
-0.601434 0.005721 0.323992 46 45 51
-0.603202 -0.004834 0.331302 40 40 48
-0.596627 0.002384 0.323162 42 48 52
-0.606446 0.011622 0.337617 38 38 43
-0.595472 0.014484 0.325738 53 52 61
-0.264753 -0.285713 -0.061532 219 202 174
-0.422903 -0.046477 0.265882 179 161 146
-0.425888 -0.075711 0.266347 170 151 134
-0.457882 0.049568 0.351047 40 37 37
-0.453495 0.037561 0.351997 41 38 41
-0.372580 -0.492068 0.365632 157 154 144
-0.307344 -0.709612 -0.058736 206 188 171
-0.355470 0.074617 0.196416 177 161 139
-0.356282 0.080952 0.209743 179 161 140
-0.308795 -0.398648 0.428186 198 182 159
-0.301703 -0.402332 0.406028 202 185 166
-0.290709 -0.411483 0.407562 206 191 169
-0.295715 -0.411977 0.401921 202 189 166
-0.309705 -0.410256 0.393967 204 189 169
-0.279634 -0.416935 0.405897 197 184 158
-0.331116 -0.313756 -0.063476 211 191 160
-0.425386 -0.364087 0.542006 151 141 119
-0.434357 -0.363194 0.527981 153 139 122
-0.267562 0.002384 -0.065314 215 197 175
-0.554185 0.115258 0.516015 83 77 69
-0.473755 -0.136989 0.576709 50 45 48
-0.467063 -0.132204 0.549232 46 44 48
-0.463616 -0.115692 0.549144 48 43 48
-0.462245 -0.106577 0.547661 44 48 44
-0.464959 -0.137510 0.561756 44 43 49
-0.472112 -0.111650 0.567005 46 47 50
-0.469317 -0.123717 0.563101 47 46 49
-0.448109 0.125211 0.544304 35 32 34
-0.444300 0.123513 0.518705 58 50 43
-0.350226 -0.745071 -0.054810 193 175 158
-0.341908 -0.748564 -0.060919 196 177 158
-0.328402 -0.745102 -0.053921 198 179 167
-0.597957 -0.081269 0.329463 35 34 39
-0.350187 0.043871 0.042724 156 139 113
-0.348516 0.051046 0.012122 154 134 107
-0.348170 0.068679 0.024331 158 139 114
-0.349206 0.025780 0.016925 157 136 106
-0.353440 -0.208021 0.241400 164 148 123
-0.353136 -0.181080 0.240588 154 134 105
-0.351142 -0.180081 0.248290 152 134 109
-0.353080 -0.176542 0.254770 170 149 124
-0.356127 -0.164332 0.236781 162 144 119
-0.365108 -0.537815 0.209935 188 172 149
-0.367400 -0.791692 0.000170 130 122 108
-0.358760 -0.793347 0.013519 117 101 86
-0.369222 -0.782657 0.010513 146 131 112
-0.370505 -0.783276 0.029850 148 133 117
-0.366898 -0.789317 0.015929 141 128 107
-0.357955 -0.174617 0.125880 172 157 130
-0.358525 -0.194503 0.117122 168 151 125
-0.356226 -0.158389 0.096657 170 151 125
-0.360721 -0.231317 0.182720 175 149 129
-0.360723 -0.203617 0.182854 182 164 139
-0.362045 -0.232599 0.198849 165 143 121
-0.362462 -0.194175 0.208639 186 167 146
-0.462253 -0.005045 0.575415 44 43 46
-0.462671 0.020144 0.549635 44 42 46
-0.460415 0.009751 0.554110 43 45 43
-0.461052 -0.003731 0.560126 42 42 43
-0.356825 -0.789824 0.104157 96 84 71
-0.328556 -0.788467 0.103167 152 136 108
-0.338307 -0.786762 0.110123 141 127 101
-0.346321 -0.786698 0.107122 103 89 76
-0.204127 -0.383522 -0.041223 102 101 88
-0.165154 -0.365896 -0.033364 88 87 82
-0.162515 -0.361728 -0.042800 83 82 73
-0.158391 -0.374355 -0.045032 98 94 87
-0.161471 -0.349722 -0.039426 86 85 76
-0.572909 -0.341562 0.568844 72 69 62
-0.567483 -0.343245 0.548299 68 66 57
-0.329442 -0.645609 0.357727 183 171 144
-0.340518 -0.652312 0.351198 188 176 146
-0.503615 -0.342703 0.390210 40 40 38
-0.497026 -0.338190 0.391371 41 39 37
-0.499263 -0.340797 0.406576 42 42 37
-0.467834 0.019973 0.566660 39 45 46
-0.386105 -0.641127 0.578016 215 203 189
-0.368993 -0.616155 0.560721 223 207 192
-0.387282 -0.644772 0.575481 213 201 190
-0.381161 -0.633121 0.562195 215 201 190
-0.372141 -0.620172 0.580477 223 210 192
-0.613205 -0.296133 0.556656 56 59 65
-0.624021 -0.278330 0.568996 60 60 58
-0.616065 -0.290049 0.567872 64 60 61
-0.612393 -0.291106 0.548726 52 54 53
-0.616247 -0.299790 0.577250 50 54 51
-0.360290 -0.609162 0.624129 205 192 172
-0.357763 -0.587142 0.635702 201 189 166
-0.360675 -0.577897 0.628254 200 190 168
-0.365923 -0.598310 0.617848 221 211 191
-0.244693 -0.737982 -0.059478 217 200 183
-0.210690 -0.753158 -0.057906 218 200 186
-0.377875 -0.772620 0.192123 181 161 142
-0.377020 -0.748542 0.222122 178 161 141
-0.352277 0.031436 0.073833 175 160 138
-0.280478 -0.417014 -0.062817 214 199 186
-0.268732 -0.179533 -0.065343 217 198 174
-0.609076 -0.289356 0.456770 47 49 43
-0.609188 -0.295824 0.468247 49 50 54
-0.613451 -0.281958 0.473242 58 56 56
-0.622674 -0.232554 0.541799 63 59 68
-0.623801 -0.241917 0.551869 61 56 58
-0.623607 -0.235977 0.564740 58 57 62
-0.624662 -0.222333 0.559606 62 56 64
-0.358396 -0.472142 0.157333 202 184 167
-0.357860 -0.452536 0.131622 194 181 166
-0.272652 -0.676771 -0.059349 217 199 182
-0.245218 -0.691621 -0.060165 217 202 179
-0.354519 -0.032547 0.110816 181 164 140
-0.355588 -0.052853 0.111756 180 164 144
-0.491431 -0.081718 0.518112 47 49 52
-0.499269 -0.107309 0.531968 45 43 43
-0.493379 -0.091042 0.525346 46 46 48
-0.494864 -0.091616 0.545582 45 46 44
-0.492165 -0.102604 0.517717 43 45 49
-0.198514 -0.373706 -0.039843 177 172 159
-0.182361 -0.366525 -0.029607 161 154 143
-0.216454 -0.374475 -0.049775 214 205 197
-0.211918 -0.350437 -0.049920 145 138 128
-0.202584 -0.357036 -0.043344 125 124 112
-0.208606 -0.361813 -0.053932 201 191 179
-0.216868 -0.360836 -0.051382 198 188 181
-0.208444 -0.377447 -0.050839 165 160 148
-0.465509 -0.158787 0.294939 49 46 39
-0.457846 -0.171579 0.294154 35 31 26
-0.489449 -0.150523 0.286604 55 48 41
-0.476847 -0.158843 0.295042 47 43 38
-0.352243 -0.356960 -0.000195 180 165 143
-0.352398 -0.373356 -0.021925 177 163 148
-0.244096 -0.215104 -0.064412 219 201 180
-0.254592 -0.203513 -0.065702 219 201 174
-0.323118 -0.598568 0.371641 163 142 113
-0.324485 -0.608907 0.383461 147 135 93
-0.493251 -0.292826 0.284420 94 88 82
-0.491680 -0.273932 0.283722 92 88 83
-0.374609 -0.369598 0.282221 199 180 160
-0.366540 -0.377492 0.277103 207 187 164
-0.369470 -0.368827 0.272592 211 192 169
-0.362637 -0.377304 0.268835 200 178 154
-0.350918 -0.378849 0.259247 217 200 174
-0.360253 -0.388477 0.263079 211 193 165
-0.350112 -0.355329 0.260722 231 210 188
-0.355953 -0.091384 0.137257 184 167 148
-0.356192 -0.068093 0.138505 182 164 148
-0.229158 -0.223083 -0.060766 221 201 175
-0.244801 -0.248333 -0.060845 218 198 173
-0.416715 -0.363644 0.289425 151 141 121
-0.409118 -0.196353 0.263622 190 171 148
-0.423680 -0.221830 0.264508 189 168 149
-0.376118 -0.229701 0.265521 188 167 141
-0.151385 -0.555795 -0.043142 234 225 215
-0.183107 -0.541427 -0.046594 222 212 194
-0.167738 -0.560377 -0.048822 227 218 202
-0.610284 -0.011684 0.529610 31 29 31
-0.607623 0.007295 0.534048 34 32 34
-0.612127 0.003795 0.522078 25 24 27
-0.602861 0.010352 0.525078 29 28 29
-0.611248 0.007239 0.517966 15 14 16
-0.605337 -0.001747 0.541411 31 29 31
-0.607748 -0.004539 0.520979 28 27 29
-0.467489 -0.286297 0.433044 55 57 59
-0.469455 -0.283852 0.458957 52 57 59
-0.469565 -0.296856 0.441737 59 53 61
-0.493127 -0.308992 0.286079 78 73 70
-0.325028 -0.831443 0.346247 193 174 157
-0.356880 -0.791676 0.306747 124 109 93
-0.382002 -0.798279 0.337785 145 132 118
-0.383107 -0.795105 0.316377 157 145 133
-0.384468 -0.786734 0.327123 169 154 137
-0.377695 -0.800279 0.342265 130 119 102
-0.371401 -0.797929 0.344436 127 114 96
-0.617101 -0.145607 0.482524 54 50 50
-0.616275 -0.140834 0.492480 52 51 48
-0.613551 -0.112794 0.511630 28 30 28
-0.622552 -0.146510 0.496569 46 45 46
-0.619523 -0.126924 0.498309 46 45 47
-0.180371 -0.736775 -0.060904 222 206 192
-0.188372 -0.756236 -0.057668 210 196 180
-0.178296 -0.750693 -0.059345 224 206 192
-0.176473 -0.761537 -0.061648 107 95 83
-0.215160 -0.760175 -0.062250 157 146 128
-0.210530 -0.741550 -0.060221 223 204 193
-0.595919 0.092601 0.579987 29 27 25
-0.602327 0.071874 0.591078 45 43 42
-0.595424 0.087624 0.615192 44 45 37
-0.598052 0.093936 0.603492 23 22 22
-0.597146 0.082492 0.600406 36 31 33
-0.598034 0.090140 0.591606 28 25 24
-0.374610 -0.792856 0.184951 151 138 119
-0.377140 -0.788625 0.176275 161 146 130
-0.363595 -0.792847 0.184872 120 104 90
-0.620554 -0.192709 0.480355 49 48 38
-0.617125 -0.186481 0.455093 53 45 53
-0.615920 -0.186790 0.462584 48 48 45
-0.619041 -0.205216 0.467288 43 42 44
-0.617020 -0.206559 0.478911 48 49 45
-0.623306 -0.205017 0.457609 44 44 47
-0.617281 -0.182233 0.472380 52 52 45
-0.271534 0.116177 -0.061528 207 200 172
-0.293648 0.110993 -0.061157 205 194 165
-0.312897 0.092434 -0.061668 205 194 165
-0.171063 -0.197731 -0.051388 216 201 176
-0.348407 -0.404968 0.589734 185 173 146
-0.376130 -0.395146 0.541710 189 179 158
-0.378785 -0.389106 0.563151 199 183 168
-0.464028 -0.116987 0.518869 41 46 50
-0.466413 -0.126790 0.539805 45 43 46
-0.461238 -0.126908 0.527395 47 44 46
-0.462999 -0.136880 0.533110 42 41 42
-0.461164 -0.114892 0.536882 46 46 54
-0.466273 -0.139478 0.516998 47 47 45
-0.346403 -0.332230 -0.058121 203 182 156
-0.343532 -0.351381 -0.059185 195 180 153
-0.334575 -0.353720 -0.060787 210 193 164
-0.345011 -0.792598 0.423622 178 160 137
-0.354027 -0.792521 0.440122 154 138 120
-0.325977 -0.807755 0.440731 206 188 165
-0.336144 -0.233394 -0.064363 211 192 162
-0.329136 -0.195298 -0.064191 210 190 160
-0.385849 -0.675905 0.503998 210 197 183
-0.384948 -0.651379 0.510652 210 199 183
-0.340607 0.117247 0.258313 190 182 151
-0.340238 0.134702 0.260179 189 178 147
-0.489643 -0.131300 0.614433 53 49 51
-0.481063 -0.122584 0.608890 46 43 49
-0.566375 0.114455 0.328533 51 44 40
-0.544300 0.114762 0.331598 50 45 41
-0.561074 0.115329 0.361414 52 48 40
-0.550060 0.115616 0.341624 53 49 42
-0.379515 0.162464 0.316028 81 103 93
-0.381852 0.158760 0.294123 61 90 83
-0.392836 0.185311 0.305476 53 90 79
-0.384292 0.176693 0.320191 74 105 92
-0.407859 0.182531 0.314188 86 107 90
-0.573989 0.111349 0.289612 26 24 21
-0.566776 0.114077 0.311855 33 30 27
-0.626294 -0.262573 0.571058 62 58 61
-0.627604 -0.261974 0.595367 65 62 72
-0.628049 -0.258912 0.609503 68 66 66
-0.627089 -0.280012 0.609410 65 69 65
-0.346848 0.049747 -0.029200 172 155 132
-0.342919 0.052438 -0.054262 184 167 142
-0.341344 0.038904 -0.057819 196 180 152
-0.344891 0.051372 -0.047567 173 157 130
-0.486633 -0.065665 0.286821 34 29 24
-0.275153 -0.553898 -0.059595 223 206 188
-0.227075 -0.612160 -0.060109 223 207 189
-0.211628 -0.620260 -0.060885 226 211 194
-0.460511 -0.016502 0.522798 43 45 44
-0.456964 -0.012814 0.528668 41 44 44
-0.316117 -0.756565 -0.065143 135 123 106
-0.313951 -0.760257 -0.077837 147 137 114
-0.305030 -0.761750 -0.072061 133 121 103
-0.298824 -0.755445 -0.062199 197 181 165
-0.383745 -0.646254 0.480372 194 183 166
-0.381039 -0.637354 0.457017 202 189 170
-0.222357 -0.729409 -0.060470 222 201 187
-0.600783 -0.303072 0.326469 42 46 46
-0.599253 -0.293747 0.338278 42 47 42
-0.605557 -0.300535 0.336703 34 36 37
-0.595914 -0.292276 0.330571 39 38 44
-0.609188 -0.288370 0.335831 39 38 44
-0.284087 -0.447506 0.385943 221 208 181
-0.295775 -0.428758 0.401470 158 148 130
-0.311879 -0.434053 0.394693 150 143 123
-0.284793 -0.425292 0.397817 222 207 179
-0.291762 -0.440715 0.400280 222 209 182
-0.276119 -0.426548 0.401952 226 212 184
-0.303685 -0.438222 0.400495 141 135 115
-0.384148 -0.636580 0.595859 221 208 193
-0.388653 -0.646906 0.608895 208 199 191
-0.383125 -0.634289 0.607475 201 191 181
-0.370710 -0.617433 0.607050 213 201 188
-0.492350 0.043111 0.594604 45 45 46
-0.473229 0.022927 0.590056 48 46 45
-0.480669 0.029247 0.593836 44 43 42
-0.482917 0.040528 0.596906 44 43 42
-0.471196 0.037566 0.587357 44 44 45
-0.468745 0.021818 0.577720 46 43 44
-0.467792 0.059536 0.581789 43 48 41
-0.465430 0.042098 0.578220 43 46 41
-0.496769 0.053601 0.588970 45 47 43
-0.489964 0.028173 0.606497 50 44 48
-0.474561 0.021620 0.602697 47 45 42
-0.474816 0.051138 0.600227 45 46 45
-0.482427 0.033423 0.602131 49 46 45
-0.499430 0.031273 0.601886 50 52 48
-0.507742 -0.208454 0.438001 50 43 50
-0.504711 -0.210404 0.451425 44 44 43
-0.506929 -0.222615 0.441877 45 48 49
-0.505620 -0.233618 0.446328 46 47 51
-0.505372 -0.219384 0.429609 40 41 39
-0.503703 -0.211070 0.423508 43 43 42
-0.458398 0.012154 0.523009 44 42 46
-0.460881 0.010958 0.517605 44 46 46
-0.462399 0.015528 0.537016 43 45 43
-0.461879 -0.013245 0.550049 39 41 42
-0.459244 0.001184 0.544213 38 42 41
-0.455841 0.003023 0.521300 44 43 48
-0.374002 -0.716340 0.202372 186 168 150
-0.543872 -0.043405 0.268398 50 45 39
-0.532189 -0.074579 0.268033 50 47 39
-0.537122 -0.058769 0.270146 37 34 31
-0.538093 -0.092429 0.270424 35 32 28
-0.524715 -0.069947 0.269397 39 34 31
-0.526877 -0.082988 0.269415 48 43 38
-0.362101 -0.401390 0.486822 183 175 155
-0.372927 -0.395776 0.478543 199 185 165
-0.370115 -0.399662 0.488296 188 179 162
-0.374749 -0.396139 0.499561 199 186 166
-0.351711 -0.286374 -0.050465 168 152 118
-0.409829 0.155592 0.279100 55 84 76
-0.435993 -0.364371 0.618295 160 149 132
-0.421386 -0.365817 0.610233 165 152 135
-0.420334 -0.363760 0.635867 175 164 148
-0.617858 -0.088431 0.591415 53 49 51
-0.617130 -0.076583 0.589117 46 44 49
-0.255450 -0.577961 -0.059827 222 206 194
-0.333398 -0.577911 0.299347 182 160 124
-0.357483 -0.589728 0.294718 125 114 91
-0.371629 -0.599979 0.291264 131 120 96
-0.356862 -0.601502 0.293338 159 148 131
-0.368275 -0.587964 0.288481 140 128 109
-0.615478 -0.254371 0.517343 44 46 52
-0.622447 -0.254218 0.538513 57 58 59
-0.619958 -0.260643 0.521033 56 55 58
-0.616660 -0.272437 0.510444 57 57 60
-0.624041 -0.246093 0.531200 60 62 62
-0.623894 -0.264603 0.536527 56 57 59
-0.620424 -0.270552 0.527291 55 53 60
-0.622245 -0.129421 0.588602 29 29 30
-0.620530 -0.134113 0.599747 27 26 26
-0.534284 0.111788 0.508817 76 71 65
-0.363792 -0.657663 -0.006253 157 145 121
-0.456626 -0.332081 0.310026 47 42 44
-0.472686 -0.320198 0.313968 78 71 69
-0.459777 -0.298458 0.298892 97 87 79
-0.468616 -0.308990 0.301002 98 89 78
-0.484038 -0.309515 0.305577 91 85 71
-0.457880 -0.325960 0.306168 84 76 71
-0.490295 -0.110036 0.346227 40 39 32
-0.494447 -0.131116 0.347916 37 36 23
-0.500456 -0.117182 0.344966 38 34 38
-0.496220 -0.140901 0.346632 40 34 33
-0.512385 -0.105211 0.345314 37 36 35
-0.509824 -0.123866 0.349051 33 30 34
-0.611231 0.053712 0.619479 54 52 56
-0.604746 0.072392 0.611570 51 47 41
-0.609007 0.069077 0.633714 60 58 62
-0.613322 0.053072 0.641259 50 50 55
-0.498002 0.107437 0.386929 43 39 37
-0.492673 0.105889 0.400969 26 24 27
-0.473498 0.083474 0.388241 39 32 35
-0.481844 0.094055 0.402104 34 35 30
-0.524570 -0.094270 0.269947 68 62 59
-0.509877 -0.095272 0.272681 68 63 57
-0.507985 -0.104732 0.277121 45 41 36
-0.508887 -0.088539 0.271684 39 36 27
-0.494841 -0.094762 0.283894 42 35 28
-0.361383 -0.553281 0.130516 172 156 141
-0.452290 0.094205 0.482863 40 38 37
-0.444730 0.119329 0.497117 26 26 27
-0.457630 0.087771 0.489678 42 41 35
-0.447686 0.112361 0.511329 28 27 29
-0.450621 0.106211 0.500436 30 30 29
-0.455654 0.092934 0.502348 39 37 39
-0.596227 -0.324208 0.275505 39 40 34
-0.582983 -0.315126 0.270310 48 46 42
-0.595546 -0.299141 0.277698 37 38 35
-0.588807 -0.334542 0.274401 42 41 39
-0.599843 -0.324173 0.284258 35 34 30
-0.598189 -0.326450 0.290263 36 34 30
-0.578603 -0.021905 0.342084 39 40 43
-0.573491 -0.047351 0.338682 39 39 34
-0.560262 -0.033530 0.333916 37 41 45
-0.572079 -0.034153 0.343067 41 39 48
-0.574210 -0.053121 0.333005 39 37 31
-0.562505 -0.028969 0.328592 43 45 47
-0.574075 -0.025439 0.334083 40 42 48
-0.567252 -0.043071 0.333644 40 44 39
-0.593431 -0.039387 0.343988 37 37 41
-0.586679 -0.027928 0.349701 40 42 40
-0.231664 -0.366259 -0.043508 227 219 202
-0.236972 -0.362872 -0.042586 225 213 196
-0.490669 -0.106407 0.476713 44 41 45
-0.493026 -0.099928 0.455096 38 41 43
-0.494551 -0.084418 0.465890 48 42 49
-0.491976 -0.098629 0.469034 44 49 41
-0.500940 -0.110022 0.453022 37 39 41
-0.492581 -0.092396 0.451586 43 44 43
-0.540066 -0.349222 0.387001 47 47 43
-0.454758 -0.232509 0.275732 139 129 110
-0.473918 -0.220438 0.291058 30 25 28
-0.478189 -0.242561 0.292660 39 31 28
-0.459679 -0.216738 0.284576 31 28 18
-0.621035 -0.200756 0.527139 60 56 63
-0.622432 -0.191166 0.523543 63 61 66
-0.623798 -0.205653 0.526481 53 49 55
-0.619167 -0.176759 0.508229 50 46 50
-0.622930 -0.207345 0.541174 58 58 60
-0.622854 -0.195118 0.535801 59 57 63
-0.338263 -0.794949 0.440623 194 176 154
-0.345965 -0.793494 0.472622 157 142 122
-0.329532 -0.801938 0.450122 209 192 166
-0.334154 -0.798409 0.472122 207 189 165
-0.501747 -0.312168 0.552625 49 48 43
-0.494542 -0.326414 0.517667 43 38 37
-0.495562 -0.317875 0.519239 44 45 43
-0.496459 -0.320395 0.539357 40 44 44
-0.495680 -0.326324 0.532076 45 41 42
-0.340059 0.106872 -0.040407 174 162 133
-0.341525 0.094573 -0.005344 173 162 135
-0.456106 -0.110798 0.408560 40 37 35
-0.477727 -0.321819 0.640065 47 46 49
-0.475150 -0.322597 0.608520 45 43 47
-0.470057 -0.328446 0.627961 44 44 50
-0.388114 -0.694704 0.557590 219 209 198
-0.370624 -0.424017 0.340913 202 192 181
-0.369987 -0.403599 0.340564 202 188 175
-0.334947 0.189492 -0.042392 173 159 133
-0.354684 -0.318317 0.056867 166 148 127
-0.355493 0.058628 0.188930 179 161 142
-0.354309 0.047085 0.181369 180 163 142
-0.322683 -0.184583 -0.064988 213 194 169
-0.595103 0.075727 0.324508 43 40 37
-0.589800 0.054820 0.301956 38 34 22
-0.583178 0.073750 0.292690 40 36 31
-0.590871 0.049660 0.291949 40 35 25
-0.348418 -0.028383 -0.028598 174 158 133
-0.347706 -0.019124 -0.003996 178 162 137
-0.348477 -0.034044 -0.012416 174 154 130
-0.264896 -0.343941 -0.057728 191 177 160
-0.273833 -0.328780 -0.061496 211 194 173
-0.466553 0.080237 0.582986 46 47 44
-0.389909 -0.364691 0.342622 146 131 113
-0.400543 -0.361387 0.345622 150 133 117
-0.383538 -0.368071 0.364418 184 165 141
-0.597486 -0.150535 0.330373 23 22 20
-0.606603 -0.174404 0.326367 41 43 32
-0.598598 -0.161137 0.327740 46 42 44
-0.615391 -0.155956 0.344758 27 25 32
-0.585764 -0.154151 0.326024 46 43 41
-0.589700 -0.166510 0.322897 46 42 46
-0.613600 -0.167157 0.345203 40 41 41
-0.614089 -0.168989 0.337251 44 41 43
-0.613301 -0.173300 0.355988 41 44 38
-0.614334 -0.162212 0.336600 44 44 45
-0.459634 -0.002116 0.514664 46 48 48
-0.607337 -0.293478 0.480290 53 54 52
-0.361424 -0.596903 0.003778 182 165 149
-0.361007 -0.576053 0.026341 184 169 153
-0.362918 -0.209193 0.203899 182 165 142
-0.361600 -0.237275 0.216279 182 163 138
-0.360910 -0.232362 0.226757 179 161 136
-0.591549 -0.303256 0.273619 51 47 40
-0.588655 -0.280044 0.270261 64 56 48
-0.597583 -0.307304 0.287309 42 40 37
-0.595299 -0.291817 0.274592 58 55 43
-0.598719 -0.303051 0.298065 57 50 46
-0.372851 -0.754454 0.102872 178 165 139
-0.373273 -0.771188 0.102135 174 160 137
-0.373883 -0.787463 0.102602 175 155 130
-0.373081 -0.736759 0.145122 184 164 152
-0.368908 -0.798001 0.517255 137 122 108
-0.310553 -0.830831 -0.301206 38 32 23
-0.265509 -0.449583 0.423861 219 207 185
-0.280330 -0.430762 0.444030 222 211 193
-0.280944 -0.420086 0.439318 229 219 191
-0.267055 -0.429511 0.427765 244 231 209
-0.255926 -0.690309 -0.059384 215 195 176
-0.275009 -0.696938 -0.059241 209 189 170
-0.291066 -0.734039 -0.059289 207 187 174
-0.280281 -0.724854 -0.059160 207 187 172
-0.452136 -0.360047 0.468746 141 131 114
-0.421388 -0.363355 0.478988 145 133 116
-0.169114 -0.320381 -0.041839 224 211 192
-0.166199 -0.336711 -0.040925 133 124 111
-0.620266 -0.092479 0.560571 31 34 30
-0.615911 -0.120341 0.553266 24 23 23
-0.318292 -0.809552 0.225872 199 179 159
-0.317230 -0.813502 0.212122 200 178 156
-0.203047 0.201172 0.004609 181 166 139
-0.388392 -0.765388 0.504122 197 185 167
-0.445848 0.112268 0.482429 29 28 34
-0.440068 0.127386 0.444959 44 39 32
-0.442173 0.126062 0.482647 44 39 32
-0.446296 0.147131 0.484999 175 163 138
-0.445197 0.141319 0.464396 159 149 126
-0.442390 0.129767 0.464622 139 130 113
-0.351407 -0.268488 0.263066 239 221 195
-0.350137 -0.247631 0.262999 236 221 193
-0.374279 -0.590200 0.416588 184 166 144
-0.457520 0.081588 0.408135 38 39 35
-0.452731 0.069582 0.415686 47 44 46
-0.456553 0.061817 0.398020 35 35 31
-0.453935 0.073600 0.399726 44 36 36
-0.453626 0.082223 0.421925 35 36 32
-0.357940 -0.073815 0.209097 186 170 149
-0.357238 -0.076788 0.220914 188 171 153
-0.186655 0.142134 -0.045222 221 218 194
-0.327250 -0.477269 -0.058440 219 204 184
-0.339634 -0.458957 -0.058712 210 197 180
-0.340733 -0.480031 -0.058394 211 197 180
-0.353966 -0.004329 0.139846 176 159 139
-0.355303 -0.029391 0.157592 179 160 144
-0.476250 0.080174 0.401473 41 37 30
-0.480784 0.072604 0.383521 41 36 32
-0.495534 0.047498 0.418930 38 38 39
-0.488918 0.070437 0.407549 45 43 42
-0.490532 0.068061 0.387479 45 44 39
-0.490743 0.052169 0.385701 35 34 30
-0.480410 0.081362 0.410649 45 41 39
-0.350098 -0.785037 -0.120522 48 41 32
-0.360414 -0.779434 -0.141454 55 47 35
-0.355589 -0.788867 -0.106316 55 49 34
-0.362806 -0.626717 0.000497 179 164 146
-0.339385 -0.785301 -0.116878 47 39 35
-0.325443 -0.785952 -0.108711 45 37 30
-0.321266 -0.598391 0.334853 179 160 120
-0.322558 -0.613540 0.322287 182 159 128
-0.323725 -0.617323 0.356185 167 147 112
-0.323125 -0.585298 0.341222 187 165 132
