ply
format ascii 1.0
element vertex 1216
property float x
property float y
property float z
property uchar red
property uchar green
property uchar blue
end_header
0.776649 -0.027726 -1.051560 131 92 50
0.763488 -0.032976 -1.050432 124 90 47
0.534060 0.270444 -0.957578 17 12 29
0.526495 0.268960 -0.965828 15 13 29
0.532000 0.273427 -0.943502 18 17 25
0.541044 0.276926 -0.964691 13 13 28
0.728334 0.201432 -0.737469 143 127 96
0.719029 0.181591 -0.736404 126 111 85
0.731266 0.199810 -0.746341 147 129 105
0.723974 0.177969 -0.738577 79 73 66
0.703248 0.005841 -0.848131 22 23 55
0.391873 -0.060676 -0.733360 103 74 40
0.375717 -0.059993 -0.743691 185 152 94
0.701594 -0.013093 -0.852964 23 22 57
0.700178 -0.008267 -0.880778 23 20 59
0.031926 -0.052530 -0.846763 240 199 110
0.037007 -0.156099 -1.060056 248 207 108
0.023493 -0.198785 -1.061821 248 209 113
0.070651 -0.043062 -0.710169 241 201 117
0.056246 -0.043064 -0.701313 241 202 116
0.076239 -0.040522 -0.692218 240 201 118
0.057658 -0.040820 -0.678354 239 202 117
0.624837 -0.388567 -1.060625 170 129 67
0.624467 -0.369355 -1.059740 178 130 58
0.600704 -0.378135 -1.060797 156 117 56
0.137318 -0.021002 -0.774410 235 197 106
0.131745 -0.022554 -0.784510 239 195 113
0.145405 -0.022070 -0.799205 236 194 109
0.123550 -0.020467 -0.800667 237 194 111
0.601045 -0.001799 -0.926812 60 49 50
0.615805 -0.004368 -0.910335 62 47 43
0.054912 -0.359587 -1.065205 253 220 119
-0.113805 -0.107600 -0.729775 241 203 124
0.428553 -0.602320 -1.067666 241 208 117
0.019556 -0.598649 -1.065329 252 224 135
0.250093 -0.034982 -1.001917 160 124 59
0.231411 -0.053878 -0.973677 154 120 58
0.212366 -0.037977 -0.996074 161 126 58
0.168898 0.011726 -1.034040 142 107 48
0.562645 -0.406542 -1.066510 233 197 109
0.519384 -0.016935 -1.043947 205 162 94
0.521773 -0.034428 -1.047879 210 167 97
0.184105 -0.328271 -1.065961 248 214 126
0.676944 -0.243531 -1.057388 93 65 30
0.690332 -0.236767 -1.057311 99 66 32
0.657304 -0.258934 -1.054524 139 107 65
0.641739 0.079476 -1.013817 33 25 55
0.651316 0.064716 -1.007716 34 28 54
0.665423 0.056633 -1.002070 31 25 49
0.654518 0.068602 -1.005513 37 36 62
0.663325 0.040832 -0.996449 37 31 58
0.664463 0.055923 -0.995488 28 22 53
0.513506 0.263483 -0.747150 38 37 44
0.510215 0.277474 -0.740894 44 42 47
-0.173574 -0.536729 -1.061502 253 221 146
-0.188707 -0.540784 -1.062117 253 222 139
-0.172855 -0.562066 -1.062029 253 225 135
0.696879 0.140400 -0.906020 20 23 48
0.698723 0.133383 -0.892821 19 19 52
0.697978 0.136643 -0.881288 22 19 51
0.695073 0.120802 -0.898405 24 23 46
-0.027885 -0.010894 -0.956703 198 150 73
0.458546 -0.039208 -0.786554 63 39 23
0.071370 -0.475745 -1.066288 250 220 127
0.105331 -0.435157 -1.068854 252 218 128
0.100304 -0.458499 -1.066279 251 219 125
-0.085381 -0.350232 -1.063528 253 223 132
-0.117942 -0.346278 -1.060151 253 222 134
0.543184 0.277421 -0.923591 12 15 31
0.526801 0.266323 -0.923726 18 16 30
0.537200 0.274700 -0.912562 16 16 37
0.419169 -0.005322 -1.007345 75 52 32
-0.136649 -0.095183 -1.060447 244 205 112
-0.150407 -0.248182 -1.059233 246 209 128
0.675260 0.244824 -0.976121 29 23 56
0.668886 0.215007 -0.974319 31 27 49
0.666245 0.213071 -0.994322 29 25 50
0.657259 0.221306 -0.992319 31 29 49
0.666923 0.232883 -0.992037 28 25 60
0.657233 0.244304 -0.996590 33 31 41
0.662743 0.231695 -0.965782 34 32 46
0.658535 0.227984 -1.000153 33 26 50
0.683668 0.104898 -1.023606 31 30 43
0.679060 0.108494 -1.001584 27 23 46
0.685728 0.095662 -1.033189 29 30 36
0.674637 0.082127 -1.024713 28 29 35
0.514834 0.259032 -0.758395 17 15 44
0.521264 0.275200 -0.766843 13 15 36
0.631093 -0.161589 -1.054008 153 119 48
0.612218 -0.138637 -1.055125 98 72 31
0.601750 -0.149839 -1.056230 96 68 40
0.617605 -0.171380 -1.056843 93 67 33
0.534296 0.281240 -0.767749 16 13 42
0.664964 0.258156 -0.910062 27 23 53
0.661388 0.263432 -0.882477 46 36 46
0.657280 0.275220 -0.876987 39 33 45
0.656815 0.255403 -0.892010 29 29 38
0.662702 0.253997 -0.891800 29 23 55
0.669285 0.261439 -0.884888 25 23 52
0.657817 0.249672 -0.883706 36 32 50
0.672373 0.269369 -0.898826 26 24 52
0.540279 -0.122225 -1.061329 90 69 33
0.234387 -0.019905 -0.722503 232 194 100
0.244229 -0.024392 -0.718720 234 193 103
0.248032 -0.020654 -0.741615 232 191 108
0.663253 -0.020160 -0.846437 20 18 32
0.697646 -0.037346 -0.811644 19 15 34
0.666889 -0.038465 -0.841659 69 54 91
0.674271 -0.028411 -0.830706 17 16 34
0.687274 -0.029698 -0.807392 22 14 37
0.687918 -0.043805 -0.825399 30 29 43
0.666152 -0.014644 -0.839585 18 16 35
0.157187 -0.019757 -0.742481 229 187 103
0.179169 -0.020791 -0.741882 236 194 109
-0.007737 -0.052017 -0.728635 243 205 116
0.161611 -0.021327 -0.715062 236 194 106
-0.003338 -0.050245 -0.739512 245 205 116
-0.103120 0.017945 -1.000482 143 105 41
0.682863 0.226611 -1.005746 22 23 41
0.685915 0.199858 -1.015478 26 26 45
-0.109259 0.027478 -1.032565 134 99 36
-0.118794 0.025719 -1.014504 139 102 39
-0.126662 0.028414 -1.027187 134 91 42
0.685601 0.219151 -1.018081 22 22 40
0.728657 -0.363411 -1.009234 131 97 49
0.724470 -0.356787 -1.003121 133 96 37
0.713432 -0.350986 -1.027157 151 107 52
0.717962 -0.358428 -1.025286 132 98 43
0.717658 -0.347403 -1.015505 139 99 40
0.724926 -0.354839 -1.022759 132 89 44
0.325413 -0.087221 -1.060936 230 192 98
0.454445 -0.043135 -0.710110 52 32 18
0.448970 -0.047772 -0.676836 53 36 24
0.440822 -0.053880 -0.666235 52 31 27
0.468484 -0.033733 -0.677315 49 32 18
0.447653 -0.047317 -0.697744 58 35 23
0.488999 -0.034004 -0.814904 140 115 61
0.496794 -0.026936 -0.799071 129 97 55
0.732664 0.238722 -0.743704 142 123 87
0.726178 0.266561 -0.769276 85 67 63
0.730639 0.251747 -0.771637 54 41 45
0.733741 0.270473 -0.745281 145 125 96
0.725332 0.235645 -0.766137 58 46 50
0.730926 0.249956 -0.759301 123 108 91
0.734170 0.260432 -0.745313 127 106 85
0.730863 0.268257 -0.758422 103 82 69
0.447654 -0.094118 -1.064955 209 175 99
0.458282 -0.128008 -1.064191 212 178 107
0.467534 -0.116159 -1.064359 199 154 90
0.440233 -0.106573 -1.066639 215 177 99
0.446595 -0.134048 -1.062964 217 179 98
0.727030 0.246137 -1.048919 65 54 39
0.712855 0.259790 -1.048690 51 42 34
0.361639 -0.062779 -0.851550 223 184 98
0.353881 -0.060831 -0.859513 223 184 98
0.371386 -0.062283 -0.869471 223 179 104
0.155446 -0.313956 -1.065732 249 215 122
0.152485 -0.328023 -1.067221 250 216 123
0.537167 -0.471077 -1.066819 238 200 118
0.528611 -0.491371 -1.068668 240 205 113
0.700071 0.143260 -0.750499 20 18 36
0.694415 0.173866 -0.749669 25 13 31
0.516885 0.154324 -0.994484 83 55 61
0.518509 0.139456 -1.000467 16 12 25
0.519870 0.139610 -0.983347 64 51 60
0.684526 0.156356 -0.776462 16 15 33
0.688853 0.156815 -0.756130 21 18 30
0.511897 -0.089326 -1.061850 77 57 36
0.518655 0.085238 -0.941340 63 45 41
0.514781 0.092977 -0.937318 30 22 56
0.515219 0.098867 -0.948955 66 44 58
0.507787 0.116129 -0.953718 72 56 74
0.146438 -0.063320 -0.787188 236 197 108
0.130780 -0.066688 -0.782630 241 199 114
0.131444 -0.069953 -0.822091 237 198 114
0.119813 -0.070246 -0.791047 237 198 114
0.508687 0.018219 -0.875632 26 21 52
0.515363 0.022652 -0.888691 34 25 60
0.526903 -0.000894 -0.875189 51 33 66
0.508586 -0.216716 -1.062180 225 190 102
0.494362 0.025121 -0.766141 22 24 47
0.496404 0.043894 -0.759495 54 52 58
0.492947 0.048705 -0.748671 75 72 69
0.049387 -0.047328 -0.742518 244 201 116
0.081872 -0.043473 -0.742106 240 201 104
0.065051 -0.044198 -0.742747 241 201 121
0.069200 -0.043738 -0.723465 243 205 108
0.083312 -0.038912 -0.722574 241 202 112
0.747180 -0.060401 -1.052638 126 95 56
0.723612 -0.050478 -1.051995 126 96 64
0.752007 -0.037445 -1.051860 109 88 63
0.750403 -0.338568 -0.967752 88 62 27
0.772692 -0.374534 -0.985990 91 66 34
0.767988 -0.372076 -0.972256 104 71 39
0.767317 -0.363280 -0.981461 99 69 29
0.756173 -0.344624 -0.995000 103 70 45
0.513781 0.002862 -1.046713 161 123 61
0.542213 -0.012590 -1.038477 146 110 64
0.531632 -0.000836 -1.039782 152 114 68
0.102253 -0.488834 -1.066781 249 218 135
0.508080 0.117908 -0.963827 64 51 67
0.421704 -0.058549 -1.062789 204 167 103
0.174921 -0.062876 -0.849671 237 193 107
0.685833 0.229900 -0.800795 48 44 47
0.689163 0.226455 -0.776580 33 27 35
0.692431 0.209543 -0.783781 73 52 37
0.684401 0.212629 -0.791091 45 37 47
0.335696 -0.474325 -1.068123 244 210 124
0.025760 -0.092420 -0.651121 242 203 121
0.003965 -0.093454 -0.658726 242 204 120
0.793566 -0.015163 -1.053104 121 85 47
0.811838 -0.005332 -1.048947 120 90 55
0.821387 0.024385 -1.045960 99 72 44
0.820108 -0.020381 -1.048352 120 90 47
0.791201 0.006006 -1.053816 112 84 42
-0.106013 -0.106811 -0.889622 238 194 128
0.501867 -0.403001 -1.066338 240 201 126
0.729665 0.218556 -0.754041 65 55 55
0.610199 0.274016 -0.796476 21 17 34
0.637353 0.260547 -0.805915 23 17 38
0.629435 0.271588 -0.799498 19 17 32
0.641085 0.256116 -0.807256 24 10 45
0.625230 0.271323 -0.812753 27 15 28
0.631485 0.274311 -0.789884 14 14 37
0.383824 -0.015503 -1.008501 86 52 28
0.399747 -0.009854 -1.012366 94 61 34
0.387169 -0.006117 -1.001427 88 61 31
0.384873 -0.000944 -1.029014 92 63 32
0.461756 -0.465920 -1.067830 241 203 118
0.427701 -0.451123 -1.067397 242 203 117
0.559926 -0.038905 -0.870341 66 51 57
0.546632 -0.038130 -0.883902 88 64 48
0.696794 0.162372 -0.824680 21 19 50
0.698151 0.129822 -0.819395 21 19 42
0.695065 0.146538 -0.844003 21 19 45
0.692304 0.051334 -1.046868 20 18 36
0.685155 0.061893 -1.038729 21 18 42
-0.071840 -0.097000 -0.961223 208 169 103
-0.071552 -0.101654 -0.950194 229 189 112
0.058157 -0.146810 -1.060875 245 204 108
-0.164603 -0.014684 -0.873818 239 202 115
-0.150361 -0.014255 -0.881398 239 201 107
0.760622 -0.255873 -1.059704 157 108 53
0.730784 -0.252310 -1.059580 159 117 52
0.734184 -0.266948 -1.059650 163 118 55
0.141029 -0.547207 -1.067860 249 220 118
0.002111 -0.419138 -1.065036 251 219 130
0.052447 -0.050471 -0.880763 241 198 115
0.036268 -0.051390 -0.887785 236 196 109
0.032683 -0.024796 -0.902461 236 195 113
0.038188 -0.022973 -0.876213 235 197 109
0.054516 -0.022784 -0.892494 236 196 113
-0.073342 -0.105899 -0.714487 237 201 130
-0.099231 -0.106502 -0.728413 239 202 125
-0.095111 -0.105611 -0.704330 239 201 125
0.593623 -0.105873 -1.054695 187 148 78
0.113914 -0.341103 -1.066379 248 216 124
0.114954 -0.358085 -1.067745 250 216 124
0.674347 -0.292347 -1.062576 133 102 64
0.779478 -0.203536 -1.055695 134 100 41
0.760833 -0.193490 -1.052881 153 112 56
-0.061418 -0.305956 -1.060929 253 223 133
-0.079642 -0.293885 -1.060027 253 221 139
0.209919 -0.030429 -0.835985 234 193 106
0.235296 -0.046245 -0.864742 236 190 107
0.243479 -0.028495 -0.853110 227 191 106
0.227614 -0.047925 -0.836062 233 190 108
0.220934 -0.049598 -0.844469 236 192 104
0.211438 -0.052760 -0.852760 224 185 101
0.496241 0.085881 -0.846600 19 15 48
0.499835 0.072652 -0.853725 23 21 44
0.499255 0.061700 -0.857060 20 20 40
0.047113 -0.033877 -1.037676 221 185 94
0.017874 -0.035919 -1.043603 226 188 92
0.047634 -0.042107 -1.055858 231 186 109
0.044150 -0.035735 -1.047859 225 184 98
0.023181 -0.038888 -1.050774 228 184 95
0.028917 -0.046967 -1.055921 233 189 98
0.499022 0.114639 -0.756972 23 26 35
0.498996 0.097561 -0.761254 18 19 43
0.496721 0.087181 -0.749551 40 36 42
0.223817 -0.022533 -0.679136 233 193 109
0.211284 -0.019749 -0.692532 233 194 106
0.231808 -0.029485 -0.703800 233 193 106
0.243756 -0.024491 -0.703795 232 194 94
0.231411 -0.024667 -0.690306 233 192 108
0.233489 -0.021426 -0.703352 232 193 102
0.211800 -0.034897 -0.915228 230 189 103
0.178803 -0.029362 -0.912264 228 186 111
0.198351 -0.032138 -0.908374 230 188 110
0.199669 -0.038494 -0.927050 221 181 98
0.187823 -0.033519 -0.909783 231 189 111
0.454167 -0.329161 -1.066693 239 201 110
0.426027 -0.312299 -1.068844 240 201 110
0.458276 -0.316955 -1.065643 235 198 110
-0.080380 -0.593685 -1.064781 252 226 130
0.078454 -0.556441 -1.066510 250 222 125
-0.104133 -0.619263 -1.062760 252 226 133
0.750571 -0.339571 -1.012664 90 65 32
0.748035 -0.335117 -1.002618 92 66 40
0.699469 -0.033644 -0.894936 55 39 60
0.757020 -0.333402 -1.024620 43 35 17
0.698786 -0.024631 -0.891755 19 19 54
0.697014 -0.040021 -0.882455 56 37 58
0.286469 -0.063370 -0.901271 229 188 102
0.468391 0.052436 -0.682051 103 93 76
0.502897 0.200323 -1.012294 76 58 46
0.494659 0.212108 -1.013260 75 56 30
0.507837 0.186645 -1.017644 77 62 49
0.170171 -0.025673 -0.896728 218 180 92
0.163663 -0.023497 -0.877951 219 181 93
0.181967 -0.020908 -0.881254 227 188 98
0.245255 -0.246827 -1.065097 245 208 118
0.252577 -0.266220 -1.064663 244 211 106
0.475472 0.359355 -0.691066 91 84 70
0.308451 -0.028853 -1.003199 149 112 54
0.012528 -0.053424 -0.774933 243 203 107
-0.005256 -0.057022 -0.791264 244 204 109
-0.011573 -0.058573 -0.802180 244 204 109
-0.000082 -0.053652 -0.771748 242 205 108
0.476874 0.287517 -0.692415 92 82 72
0.475052 0.315491 -0.701838 92 83 74
0.025085 -0.092128 -0.685535 244 205 120
-0.019359 -0.096503 -0.666687 239 200 128
0.534769 -0.365975 -1.066245 235 200 111
0.603371 -0.318161 -1.060682 163 122 57
0.602338 -0.341572 -1.060203 154 119 57
0.677702 -0.050468 -0.944510 90 70 72
0.705988 0.037318 -0.793795 17 18 50
0.705669 0.044717 -0.771984 19 22 60
0.707529 0.019289 -0.787265 20 27 60
0.703118 0.024600 -0.813223 24 22 54
-0.048148 -0.018236 -0.731606 182 152 89
-0.064714 -0.016795 -0.738804 230 191 113
-0.041567 -0.016446 -0.713682 182 154 86
0.508276 0.129340 -0.878545 16 15 43
0.351619 -0.063143 -0.886321 226 183 103
0.668300 0.104878 -0.989000 28 24 54
0.667626 0.089426 -0.978957 28 24 49
0.658993 0.092912 -0.995641 34 33 61
0.649276 0.107070 -0.985741 31 26 55
0.650307 0.086105 -0.996501 42 37 54
0.498094 0.232399 -0.735977 93 83 68
0.507117 0.235936 -0.741379 81 71 77
0.187183 -0.143336 -1.061505 241 200 119
0.693457 0.182898 -0.902672 27 19 40
0.696434 0.146996 -0.914087 21 22 41
0.618999 -0.042900 -1.037883 122 95 55
0.599266 -0.066674 -1.055061 139 103 50
0.639987 -0.050585 -1.045615 129 99 45
0.612873 -0.055825 -1.051273 151 114 60
0.013743 -0.024732 -0.917203 235 200 102
-0.009240 -0.023395 -0.920278 234 195 104
-0.009250 -0.020707 -0.934264 238 194 112
0.506341 0.245645 -0.978275 10 14 29
0.510634 0.258589 -0.967194 16 19 27
0.019151 -0.478549 -1.066675 252 222 126
0.670850 0.252705 -0.996985 26 24 43
0.657842 0.263372 -1.009553 46 36 46
0.142530 -0.066525 -0.811716 240 194 115
0.160928 -0.065035 -0.840352 239 195 113
0.232957 -0.263117 -1.065804 243 208 119
0.196488 -0.258386 -1.066552 247 210 120
0.665586 0.030385 -0.805738 23 20 38
0.671484 0.035324 -0.791135 20 15 33
0.676390 0.026983 -0.781572 18 15 31
0.670884 0.049488 -0.802874 20 16 42
0.022032 -0.090620 -0.949472 225 184 100
-0.009125 -0.088196 -0.962705 221 183 93
0.000047 -0.093340 -0.948826 223 186 107
0.319565 -0.055554 -0.787277 227 188 114
0.013759 0.006919 -1.037443 189 144 84
0.043368 0.012075 -1.039369 164 127 52
0.329565 -0.040270 -1.063525 220 184 95
0.339680 -0.032450 -1.062137 199 163 94
0.112020 -0.001660 -1.029086 164 125 62
0.111832 -0.016157 -1.018758 171 133 70
-0.035538 -0.045434 -1.049331 234 192 97
-0.034987 -0.042881 -1.040147 233 190 104
-0.009791 -0.039015 -1.040296 232 189 92
-0.006090 -0.041471 -1.049859 232 187 106
0.165385 -0.037804 -0.893807 230 192 104
0.178786 -0.036934 -0.885458 222 185 95
0.173331 -0.033609 -0.894471 221 182 92
0.171248 -0.036327 -0.910095 228 188 106
0.163217 -0.040648 -0.877075 232 192 116
0.205554 -0.062533 -0.965933 163 124 60
0.181508 -0.034667 -0.876344 224 186 99
0.316458 -0.017200 -1.057064 157 126 64
0.314537 -0.012725 -1.029681 136 100 58
0.346606 -0.007014 -1.041438 135 102 53
0.340192 -0.009531 -1.028879 135 102 53
0.098936 -0.384063 -1.066546 250 218 124
-0.030976 -0.097229 -0.832809 239 203 114
0.672682 0.227455 -0.770953 23 18 41
-0.014280 -0.094523 -0.859443 241 199 112
-0.081361 -0.034548 -1.007720 205 164 80
-0.097912 -0.033251 -1.009408 173 140 71
-0.089000 -0.027857 -1.016001 205 164 84
-0.079333 -0.021351 -1.020305 163 129 72
-0.082788 -0.040954 -0.998565 202 166 81
0.315019 -0.189571 -1.061890 242 204 108
0.183167 -0.061314 -0.829363 236 196 101
0.676157 0.097726 -0.783708 29 14 42
0.700307 0.091620 -0.791932 17 19 55
0.700304 0.082994 -0.800388 20 19 53
-0.086999 -0.058509 -0.903735 193 157 90
-0.098958 -0.059940 -0.888454 231 193 116
-0.074366 -0.062218 -0.876244 239 200 115
-0.084537 -0.062056 -0.876977 233 195 122
-0.080134 -0.062274 -0.893341 227 188 117
0.113208 -0.290284 -1.065426 250 214 124
0.055245 -0.084031 -0.955354 222 178 95
0.126066 -0.038091 -0.715828 236 198 117
0.131733 -0.039698 -0.698033 238 199 111
0.716273 -0.347121 -1.063792 133 104 40
0.704528 0.070206 -1.050473 36 25 40
0.728588 0.064972 -1.051187 53 42 36
0.151759 -0.024412 -0.924691 234 191 112
0.151760 -0.024429 -0.897831 231 190 109
-0.098056 -0.269375 -1.060684 252 221 134
-0.117326 -0.293730 -1.059194 251 222 126
0.773019 0.252923 -1.047612 87 66 46
0.350228 -0.452346 -1.069278 245 212 125
0.753979 -0.315802 -1.044688 96 63 32
0.753670 -0.333492 -1.030738 99 69 36
-0.051354 -0.025625 -0.762160 237 197 116
0.385226 -0.058736 -0.687262 93 69 35
0.057156 -0.480173 -1.067268 251 223 124
0.476034 0.098169 -0.728472 93 88 72
0.474029 0.123443 -0.714775 98 89 74
0.683670 -0.213621 -1.062743 160 119 47
0.671827 -0.217689 -1.061566 134 101 38
0.668226 -0.226051 -1.056675 89 65 31
0.666204 -0.232872 -1.057391 97 71 39
0.658001 -0.232479 -1.050769 105 67 26
0.146244 -0.039849 -0.952976 151 111 48
0.089938 -0.045155 -1.057634 230 186 104
0.121534 -0.023742 -1.043327 217 177 89
0.093233 -0.028283 -1.041273 221 178 94
0.084707 -0.035673 -1.053628 225 182 93
0.106375 -0.028093 -1.049341 223 184 96
0.138156 -0.021545 -0.758192 235 197 103
0.125906 -0.019747 -0.750486 234 193 112
0.343288 -0.115160 -1.059474 233 192 105
0.324999 -0.141574 -1.061234 234 196 104
0.806754 -0.119937 -1.055363 125 98 57
0.777441 -0.134436 -1.053611 129 98 55
0.792804 -0.146070 -1.054590 124 93 57
0.700908 -0.023915 -0.867327 22 24 55
0.198222 -0.017889 -0.826690 231 190 111
0.186411 -0.022525 -0.828986 233 192 110
0.201473 -0.018885 -0.809310 233 192 102
0.703954 -0.036532 -0.849101 59 41 67
0.192948 -0.019986 -0.840748 234 191 102
0.736020 0.281331 -0.736287 125 110 83
0.732004 0.291063 -0.730441 83 66 65
-0.045514 -0.019697 -0.743963 236 198 115
-0.038983 -0.019929 -0.720006 214 177 107
0.649212 -0.048320 -0.912128 88 73 76
0.651516 -0.051419 -0.881777 96 83 77
0.189166 -0.017711 -0.708340 235 193 113
0.191016 -0.017880 -0.689026 235 195 102
0.136874 -0.377450 -1.068007 251 220 115
0.408427 0.007593 -1.034995 75 54 24
0.432196 0.002641 -1.009381 75 57 35
0.408318 0.010858 -1.014916 69 56 29
0.420435 0.005696 -1.003366 69 56 29
0.422873 0.000433 -1.009372 76 57 37
0.066084 0.002937 -1.034166 165 123 64
0.699768 0.302347 -0.725855 115 105 80
0.673325 0.274908 -0.742534 19 19 48
0.719511 0.289624 -0.727354 49 39 51
0.690949 0.295246 -0.727735 35 31 51
0.691922 0.336902 -0.741297 111 101 66
0.690217 0.328698 -0.733499 112 103 67
0.290287 -0.016270 -1.057321 136 103 63
0.308716 -0.011335 -1.048690 133 105 49
0.310939 -0.026665 -1.061049 152 121 72
0.288702 -0.010357 -1.046711 136 101 56
0.275256 -0.029643 -1.062370 145 117 69
0.306483 -0.010949 -1.040113 133 102 49
0.521800 0.267093 -0.887765 18 13 43
0.490386 -0.014640 -0.977027 136 100 44
0.468555 0.020518 -0.667146 102 95 80
0.471429 0.001547 -0.659657 105 95 78
0.042957 -0.035034 -1.022566 222 182 94
0.035897 -0.026280 -1.017206 207 159 97
0.053832 -0.031117 -1.012229 206 160 97
0.030627 -0.039628 -1.003605 195 156 74
0.010476 -0.038219 -1.030633 217 177 92
0.019561 -0.040475 -1.021155 218 179 85
0.598266 -0.040120 -0.973689 57 48 57
0.463695 -0.044864 -0.859849 72 49 25
0.451280 -0.052707 -0.848339 126 87 44
0.666106 0.029516 -0.986867 29 23 61
0.679961 0.016907 -0.986232 22 19 48
0.673874 0.031225 -0.978216 26 28 50
0.669445 0.019951 -0.972845 29 23 50
0.674037 0.053555 -0.983547 35 28 50
0.666901 0.040094 -0.980763 32 26 53
0.669948 0.027227 -0.971211 26 24 53
0.670859 0.039910 -0.981677 30 32 46
0.672219 0.039853 -0.991673 27 22 48
-0.152341 -0.061469 -1.028363 150 106 66
0.491130 -0.006919 -0.666847 197 166 69
0.686320 0.063946 -0.980992 23 22 43
0.690336 0.052055 -0.955732 19 23 43
0.693524 0.034894 -0.934843 22 20 57
0.691135 0.064063 -0.943164 23 21 60
0.685976 0.075985 -0.960105 21 21 54
-0.080216 -0.095787 -1.060102 247 211 107
-0.059405 -0.093051 -1.059256 242 203 108
0.667773 0.039927 -0.813546 15 16 30
-0.151313 -0.192198 -1.060617 251 216 124
-0.135945 -0.113451 -0.938790 229 191 119
0.072164 -0.019353 -0.676610 242 202 103
0.080130 -0.017699 -0.692613 240 199 113
-0.059623 -0.103237 -0.865838 233 196 116
0.667794 0.123096 -0.955692 35 30 53
0.665245 0.118592 -0.963230 30 24 53
0.661206 0.121546 -0.965472 31 30 48
0.126620 -0.308882 -1.065148 250 214 126
0.111714 -0.320487 -1.065094 251 219 116
0.694848 0.203935 -0.840380 19 21 44
0.694163 0.176998 -0.838910 25 17 38
0.692601 0.175357 -0.860876 23 17 39
0.693262 0.198624 -0.859785 21 21 37
0.155023 -0.062491 -0.781424 237 197 114
0.166396 -0.058706 -0.786299 237 194 115
0.183151 -0.056341 -0.812055 236 195 114
0.497437 -0.087699 -1.063911 107 77 40
0.702888 0.089769 -0.771749 34 25 38
0.584435 -0.325775 -1.061762 226 190 110
0.744487 -0.005276 -1.053509 70 57 46
0.477974 0.075869 -0.734086 85 79 78
0.029338 -0.087732 -0.828509 243 198 121
0.006557 -0.088734 -0.813499 243 198 121
-0.137994 -0.110034 -0.731095 238 201 125
-0.126761 -0.109506 -0.708830 239 202 132
0.613332 -0.043367 -0.977867 58 49 52
0.222977 -0.036916 -0.734776 231 193 108
0.226567 -0.037238 -0.750446 232 193 106
0.633112 -0.281903 -1.057024 152 113 67
0.652582 -0.291303 -1.054655 141 105 66
0.639592 -0.295578 -1.058479 139 101 51
0.233563 -0.061659 -0.947275 143 107 45
0.211910 -0.066533 -0.949664 146 103 57
0.521941 -0.567491 -1.072182 238 203 110
0.420595 -0.002292 -0.991364 75 53 34
0.445581 -0.347755 -1.066255 240 203 107
0.494536 -0.523213 -1.070646 240 203 122
0.662821 -0.236004 -1.067753 119 82 38
0.374711 -0.061405 -0.721033 215 178 115
0.345258 -0.060470 -0.738421 228 187 112
0.361235 -0.061334 -0.736733 222 184 114
0.266143 -0.043609 -0.720780 233 191 104
0.174172 -0.198902 -1.061947 246 207 111
0.234494 -0.555243 -1.066711 249 216 124
0.191770 -0.541124 -1.068952 251 218 122
0.017039 -0.003891 -1.030786 180 141 70
0.025750 -0.019613 -1.018670 182 143 70
0.002352 -0.016475 -1.020629 191 153 71
0.502603 0.229737 -0.883216 17 18 37
0.501569 0.221236 -0.902707 19 19 34
0.499507 0.241105 -0.900266 18 19 36
0.502449 0.240037 -0.884278 22 19 42
0.086142 -0.046469 -0.771375 239 198 116
0.071739 -0.046538 -0.758922 239 201 115
0.069774 -0.048731 -0.781879 240 200 114
0.057121 -0.049247 -0.769405 241 203 117
0.084704 -0.043823 -0.753100 241 202 115
0.248743 -0.118104 -1.061845 233 191 106
0.212263 -0.105734 -1.061845 238 196 105
0.219392 -0.122905 -1.063133 238 197 106
-0.132282 -0.329166 -1.057982 253 222 129
0.535830 -0.255816 -1.062339 230 192 111
0.086810 -0.046328 -0.946826 157 114 57
0.065477 -0.046150 -0.949732 170 133 56
0.199414 -0.035225 -0.971648 146 106 42
0.204700 -0.034725 -0.958064 156 112 55
0.182199 -0.037061 -0.942901 155 110 49
0.223927 -0.026039 -0.964289 154 114 48
0.072482 -0.080026 -0.832972 241 200 113
0.062083 -0.079884 -0.808854 240 199 120
0.058762 -0.082504 -0.832995 241 197 117
0.080954 -0.075557 -0.799787 240 197 114
0.483599 0.242170 -0.728942 95 87 76
0.479250 0.283199 -0.721774 94 86 74
0.478700 0.268979 -0.723745 94 87 81
0.069652 0.016240 -1.003220 157 118 48
0.054245 0.013660 -0.999132 172 130 54
0.092269 -0.264225 -1.064161 251 216 123
-0.017390 -0.322623 -1.063749 252 221 126
0.069451 0.024046 -1.028706 143 106 47
0.087232 0.017046 -1.039112 151 116 50
-0.166089 -0.362897 -1.059905 251 216 139
0.737264 -0.242602 -1.056569 105 79 36
0.729095 -0.219618 -1.055280 137 96 59
-0.164783 -0.012096 -0.895563 226 190 105
-0.140194 -0.017130 -0.917115 233 195 106
-0.154497 -0.016873 -0.928276 225 187 93
-0.164795 -0.014447 -0.931790 226 188 110
0.484581 0.141311 -1.041053 40 26 59
0.330200 -0.058991 -0.862072 227 187 105
0.118238 -0.551986 -1.066621 249 219 128
0.117075 -0.197348 -1.063138 245 208 107
-0.078503 -0.066385 -1.057658 240 202 97
-0.088430 -0.070184 -1.057046 240 200 113
-0.089802 -0.085223 -1.059918 241 202 99
-0.099106 -0.059755 -1.054909 236 199 98
-0.101722 -0.050351 -1.038742 234 192 99
-0.104043 -0.053516 -1.049751 234 195 93
0.560443 -0.034455 -0.917560 66 49 51
0.541569 -0.039666 -0.920471 122 96 58
0.535552 -0.035772 -0.937511 132 101 60
0.557726 -0.032764 -0.933237 77 62 49
0.744105 -0.342635 -0.912046 95 68 42
0.745000 -0.351974 -0.933318 55 41 25
0.748082 -0.367383 -0.909294 140 99 64
0.734832 -0.359706 -0.916219 167 127 80
0.735041 -0.355900 -0.905594 133 103 52
0.739628 -0.340958 -0.934948 97 71 42
0.344933 -0.058279 -0.695801 230 189 103
0.324756 -0.055984 -0.690898 231 189 109
0.310508 -0.055605 -0.683201 230 189 105
0.373488 -0.556677 -1.068017 245 211 124
-0.020869 -0.055544 -0.902847 205 164 85
-0.024847 -0.054141 -0.921649 190 151 69
0.668493 0.166083 -0.953014 28 25 59
0.662994 0.168745 -0.969736 38 30 59
0.780906 0.131676 -1.050278 68 53 44
0.777653 0.117290 -1.050584 63 46 44
0.194464 -0.022449 -0.771843 233 194 107
0.210314 -0.019052 -0.744436 235 191 106
0.197943 -0.020835 -0.749977 230 193 108
0.340201 -0.065427 -0.948210 213 172 111
0.327423 -0.067331 -0.939802 210 174 113
0.043540 -0.014939 -0.702940 236 199 120
0.014358 -0.015957 -0.703903 235 195 112
0.055171 -0.014351 -0.694954 237 201 111
0.045368 -0.020123 -0.683654 234 201 111
-0.007109 -0.608718 -1.065054 253 226 136
0.480663 -0.325757 -1.066395 236 200 113
0.302384 -0.058565 -0.887076 226 187 109
0.294929 -0.062630 -0.886182 229 189 101
0.272977 -0.060010 -0.895252 228 190 97
0.209753 -0.461205 -1.066539 247 213 122
0.547863 0.275428 -0.887971 19 18 42
0.691459 -0.050128 -0.865462 57 48 55
0.678534 -0.058859 -0.841885 61 44 63
0.662120 -0.056648 -0.848961 61 44 51
0.667345 -0.051028 -0.842160 60 43 76
0.690918 -0.060146 -0.836397 48 42 53
0.676525 -0.055895 -0.863619 126 102 95
0.311080 -0.358208 -1.065879 244 212 107
-0.000871 -0.345490 -1.064714 251 218 131
-0.010405 -0.361804 -1.064575 253 220 128
0.144885 -0.049927 -1.060002 228 187 108
0.131066 -0.034132 -1.056746 224 183 101
0.148948 -0.033874 -1.056279 223 183 96
0.135491 -0.027420 -1.051677 219 180 92
0.358094 -0.479323 -1.068705 247 213 120
-0.025003 -0.022023 -0.890534 238 198 111
-0.023562 -0.022230 -0.875750 238 198 111
-0.126476 -0.017039 -1.024244 168 135 68
-0.108760 -0.024289 -1.018358 169 134 73
0.502709 0.255943 -0.898371 23 17 33
0.128342 0.033213 -1.016796 152 112 47
0.137484 0.020915 -1.002111 155 112 57
0.150218 0.024609 -1.001037 135 99 44
0.144530 0.024930 -1.022512 125 92 38
0.138988 0.030371 -1.018253 107 77 31
0.131330 0.021272 -1.039377 137 101 48
0.535356 0.026339 -0.903398 85 64 47
0.672579 0.073955 -1.009142 41 32 46
0.669045 0.068525 -1.005484 36 31 45
0.670298 0.051196 -1.003291 29 21 54
0.680928 0.075397 -0.997273 32 32 46
0.670316 0.064675 -1.021169 32 29 41
0.680900 0.060137 -1.029774 26 24 46
0.213905 -0.026795 -0.742878 233 191 109
0.253715 -0.039697 -0.725487 235 190 114
0.236095 -0.037679 -0.742020 235 191 110
0.215888 -0.032651 -0.723123 232 193 108
0.240386 -0.029098 -0.729422 234 189 113
0.233447 -0.036075 -0.710315 234 192 110
0.610413 -0.040781 -1.015060 57 46 64
0.354049 -0.035352 -1.064958 129 100 64
0.369888 -0.059156 -1.064694 176 141 85
0.376014 -0.031112 -1.064279 185 152 89
-0.099703 -0.484037 -1.062884 253 225 130
0.673815 0.277377 -0.891028 28 27 52
0.539357 -0.059872 -1.056283 214 176 103
0.557753 -0.072617 -1.057100 219 178 102
-0.149837 -0.082055 -1.059277 228 191 99
-0.146940 -0.059005 -1.049640 213 176 95
-0.149739 -0.057152 -1.038328 213 176 95
0.547721 -0.047607 -1.048730 204 166 95
0.534233 -0.040511 -1.046461 209 168 90
0.555333 -0.060820 -1.055058 213 173 98
0.198705 -0.047767 -0.735876 220 182 93
0.192772 -0.050071 -0.749043 229 192 99
0.188652 -0.050957 -0.759833 235 196 106
0.204029 -0.045853 -0.758220 227 187 102
0.211487 -0.038578 -0.753006 234 194 106
0.186309 -0.033786 -0.749398 237 195 108
0.205660 -0.032949 -0.762718 235 195 105
0.185712 -0.034631 -0.761443 223 187 89
0.211828 -0.050048 -0.772366 220 183 94
0.053644 -0.258299 -1.062149 251 215 127
0.024147 -0.250303 -1.062581 249 212 128
0.490396 -0.401417 -1.066608 239 204 112
0.484966 -0.419125 -1.066152 238 203 107
0.347267 -0.060046 -0.775314 228 190 99
0.361276 -0.061411 -0.757512 220 185 101
0.544295 0.281198 -0.942501 19 12 37
0.547492 0.281665 -0.932079 17 13 35
0.426490 -0.169963 -1.061770 233 195 102
0.497091 -0.043462 -1.056494 78 61 26
0.500479 -0.061827 -1.058700 85 59 39
0.479783 -0.048394 -1.059887 77 56 27
0.078422 -0.037201 -1.000362 185 143 81
0.062497 -0.046598 -0.980483 161 121 57
-0.180609 -0.504346 -1.059043 253 224 133
-0.091011 -0.060762 -1.015899 193 154 77
-0.108592 -0.065282 -1.011388 191 150 84
-0.073052 -0.054619 -1.020835 227 184 94
0.472482 0.142716 -0.706692 97 91 76
-0.162749 -0.107621 -0.964078 155 115 59
-0.033236 -0.077754 -0.983434 215 177 81
-0.033509 -0.093849 -0.960995 206 168 90
0.166412 -0.020338 -0.788701 228 188 99
0.170719 -0.021569 -0.801125 233 193 109
0.160634 -0.024119 -0.799255 219 182 91
0.177131 -0.021069 -0.778786 233 192 116
0.183761 -0.024900 -0.771540 232 192 114
-0.157230 -0.230740 -1.059873 248 214 128
-0.137659 -0.207587 -1.061633 250 215 130
0.577895 -0.031876 -0.999937 61 48 70
0.592432 -0.037143 -1.011928 59 48 66
0.601752 -0.041043 -1.033593 94 69 57
0.571451 -0.031303 -1.021921 97 68 63
-0.150779 0.003807 -1.037972 100 77 48
-0.109485 -0.395859 -1.062753 253 223 127
0.392965 -0.101980 -1.064379 223 185 98
0.682946 -0.309526 -1.054856 134 101 50
0.152747 -0.242874 -1.065671 248 211 122
0.139618 -0.226717 -1.064065 247 210 116
0.114381 -0.229531 -1.063808 249 210 125
0.498217 0.114111 -0.747378 37 37 42
0.501804 0.128974 -0.752248 26 23 41
0.502828 0.138668 -0.756873 32 25 42
0.499494 0.134759 -0.743463 62 61 60
0.504940 0.151999 -0.763920 19 15 44
0.148219 -0.023513 -0.873233 234 192 114
0.694770 0.324467 -0.760011 110 98 78
0.705153 0.332512 -0.752915 117 102 77
0.689923 0.331443 -0.751918 109 98 77
0.706057 0.325151 -0.765956 142 123 88
0.696064 0.313776 -0.764554 118 100 74
0.679756 0.282085 -0.866738 26 21 50
0.691512 0.283843 -0.872296 23 19 45
0.688648 0.286082 -0.853398 28 23 41
0.701085 0.278453 -0.856629 25 23 42
0.697022 0.281380 -0.850298 23 21 46
0.681929 0.282798 -0.844473 31 24 50
-0.171648 -0.115550 -0.821726 239 200 133
-0.152930 -0.114274 -0.796580 239 199 121
-0.091983 -0.106701 -0.770995 240 199 133
0.759111 0.226387 -1.049902 80 59 45
0.741044 0.221919 -1.048893 79 63 41
-0.035671 -0.099087 -0.759354 247 206 119
-0.022205 -0.095342 -0.737254 242 205 115
0.692143 0.197394 -0.924838 22 18 46
0.696180 0.225395 -0.876185 23 16 49
0.693452 0.215556 -0.887110 17 16 42
0.497814 0.213097 -0.919068 24 22 37
0.500417 0.198272 -0.914029 17 19 32
0.503492 0.182391 -0.923952 18 20 31
0.028895 -0.054030 -0.885662 240 199 104
0.018182 -0.055174 -0.907625 235 194 106
0.500943 0.213174 -0.935785 20 21 34
0.233978 -0.371258 -1.067005 247 214 114
0.275639 -0.374203 -1.065957 245 211 123
0.639494 -0.458671 -1.060227 178 134 54
0.592898 -0.435047 -1.063317 179 131 58
0.620736 -0.465486 -1.061096 177 129 60
0.382418 -0.267851 -1.064591 239 200 116
0.370484 -0.297420 -1.065538 241 203 110
0.186615 -0.021709 -0.730930 232 195 104
0.213004 -0.015676 -0.728308 233 193 107
0.196606 -0.017563 -0.735007 233 192 111
0.214055 -0.019587 -0.705761 234 192 113
0.501059 -0.029679 -0.819676 203 157 64
0.524429 -0.020499 -0.834142 70 55 81
0.527151 -0.017335 -0.839814 58 47 81
0.515841 -0.010902 -0.842814 43 44 75
0.515209 -0.020583 -0.823313 197 157 64
0.067472 0.020131 -1.011998 146 108 44
0.095274 0.015130 -1.004965 158 116 49
0.474285 0.227534 -0.684759 93 83 69
0.473078 0.198715 -0.655240 96 83 73
0.473291 0.194049 -0.679194 88 88 73
0.475088 0.209274 -0.665056 93 87 72
0.519234 0.078316 -0.914226 24 18 45
0.515475 0.059384 -0.914050 74 57 41
0.515100 0.064311 -0.908708 18 16 39
0.513863 0.082529 -0.905881 26 19 48
0.518962 0.074718 -0.927115 80 59 37
0.603006 -0.165371 -1.059925 96 71 32
0.603343 -0.195040 -1.057741 87 69 30
0.623420 -0.186792 -1.058425 101 65 38
0.663849 0.000694 -0.834113 18 17 33
0.657228 -0.012613 -0.866087 47 43 69
0.011762 -0.053969 -0.806850 243 201 118
-0.001673 -0.055192 -0.814557 242 200 113
0.145963 -0.075844 -0.929736 145 107 43
0.168185 -0.073404 -0.935370 147 105 47
0.170325 -0.070618 -0.916984 180 138 62
0.185566 -0.063106 -0.906017 231 187 108
0.182152 -0.067515 -0.919187 168 125 55
0.018516 -0.025031 -1.022693 207 166 82
-0.002748 -0.022907 -1.024972 214 171 92
-0.008966 -0.037457 -1.013569 221 178 89
0.015456 -0.047306 -1.011976 223 180 91
0.002331 -0.043625 -1.021184 226 187 90
0.017696 -0.037637 -1.008102 217 178 90
0.696031 0.134846 -0.800136 17 20 39
0.696513 0.115205 -0.793451 20 18 41
0.672592 0.121007 -0.791345 34 17 32
0.676229 0.121694 -0.785790 29 24 44
0.678185 0.139468 -0.782750 32 25 40
0.698733 0.126593 -0.783968 19 21 42
0.683600 -0.317426 -1.048810 133 102 49
0.691580 -0.329645 -1.043775 137 102 56
0.700713 -0.337239 -1.035315 133 92 44
0.425198 -0.052366 -0.958721 75 57 30
0.407734 -0.036913 -0.981810 75 59 30
0.416223 -0.196388 -1.063706 230 194 105
0.799413 0.018072 -1.052799 82 62 32
0.696733 0.212659 -0.956685 24 19 38
0.695119 0.184315 -0.945723 25 20 36
0.689425 0.185676 -0.963751 21 23 40
0.672591 0.182010 -0.959139 32 21 58
0.662613 0.050888 -0.975420 32 28 58
0.657274 0.060224 -0.968553 33 31 56
0.655512 0.083226 -0.972996 32 29 56
0.659625 0.074611 -0.979461 31 27 58
0.659761 0.060165 -0.994214 42 37 54
0.656292 0.080737 -0.987497 29 29 52
0.647317 0.062249 -0.972423 33 34 46
0.650473 0.051345 -0.964886 35 36 53
0.641582 0.076817 -0.987785 37 36 51
0.656431 0.072395 -0.992215 30 30 54
0.636126 0.078074 -0.996550 40 31 56
0.655201 0.073020 -0.980751 37 33 54
0.647556 0.065281 -1.006646 29 26 49
0.332990 -0.060953 -0.913049 224 185 105
0.362026 -0.160893 -1.061572 238 201 106
0.356625 -0.170588 -1.062776 238 202 107
-0.022160 -0.099824 -0.942644 221 182 113
0.692283 0.003291 -1.029316 19 20 48
-0.037938 -0.100574 -0.942957 228 190 110
0.559237 -0.311427 -1.063242 224 187 109
-0.125162 -0.061890 -0.816619 186 154 89
-0.037915 -0.470144 -1.064927 252 225 128
0.477949 -0.029106 -0.776312 73 54 32
0.492799 -0.021320 -0.752461 152 119 53
0.503842 -0.022562 -0.768938 142 110 46
0.461334 -0.036974 -0.764260 60 39 30
0.227845 -0.499425 -1.066952 249 215 124
0.337334 -0.060042 -0.758617 227 187 110
0.320726 -0.057418 -0.765779 230 190 114
0.703674 -0.029041 -0.828425 25 19 45
0.703020 -0.045889 -0.833591 56 42 68
0.700296 0.259171 -1.044424 33 29 39
0.034362 -0.019257 -0.770406 241 202 113
0.006455 -0.018975 -0.780766 243 203 106
0.614246 -0.217837 -1.054112 151 121 70
0.575040 -0.199119 -1.059313 148 118 63
0.410642 -0.586686 -1.067300 245 210 124
0.391196 -0.602168 -1.067124 244 209 125
0.749112 0.034764 -1.053931 52 44 38
0.733885 0.029078 -1.052308 57 49 44
0.729150 0.023571 -1.052995 51 48 43
0.063771 -0.112902 -1.059799 243 200 112
0.791433 0.032153 -1.053626 82 66 46
0.779298 0.026545 -1.054322 63 59 38
0.767029 0.010146 -1.054421 69 59 43
0.809213 0.069986 -1.052176 73 56 33
0.816172 0.108720 -1.051799 75 59 36
0.813378 0.083489 -1.051462 86 65 56
0.799804 0.104331 -1.051946 74 57 46
0.170918 -0.058162 -0.979196 195 155 74
0.508796 0.166429 -0.951945 17 15 38
0.509834 0.166531 -0.931729 17 16 33
0.506022 0.161205 -0.964130 14 14 35
0.182682 -0.366156 -1.066938 250 215 128
0.148934 -0.351444 -1.067174 249 215 128
0.702281 -0.369738 -1.056497 135 104 54
0.104876 -0.070355 -0.744956 244 200 119
0.069686 -0.080067 -0.738795 243 203 110
0.042133 -0.089788 -0.944210 211 170 89
0.037893 -0.090623 -0.930566 208 165 95
0.033052 -0.086615 -0.957539 223 180 103
0.732678 -0.361216 -0.991895 145 103 47
0.738873 -0.366014 -0.973936 143 101 56
0.735367 -0.359136 -0.976077 133 100 42
-0.117222 -0.430162 -1.061926 252 223 134
-0.090910 -0.430393 -1.063663 253 225 130
-0.045068 -0.061627 -1.058591 244 200 105
-0.023814 -0.058494 -1.057164 238 195 100
-0.011702 -0.086215 -1.059712 243 199 104
0.298241 -0.199172 -1.063672 244 207 108
0.267904 -0.213524 -1.063766 242 203 112
0.084730 -0.084457 -0.938554 169 126 67
0.116783 -0.078620 -0.915636 170 132 54
0.510000 0.154717 -0.915837 16 11 43
0.465461 -0.398010 -1.064232 239 202 113
0.447166 -0.414731 -1.063146 236 204 106
0.434753 -0.430686 -1.065696 244 206 126
0.421477 -0.393058 -1.063003 240 204 111
0.384125 -0.412901 -1.067975 240 207 113
0.404066 -0.389399 -1.063852 243 210 108
0.054434 -0.609654 -1.065607 250 223 130
0.027996 -0.624100 -1.064889 252 224 136
-0.099713 -0.407722 -1.064079 254 224 134
0.621386 -0.492620 -1.058621 172 129 69
0.424371 -0.226817 -1.063409 238 197 110
0.253115 -0.040834 -0.696860 233 193 105
0.279403 -0.049400 -0.708264 232 193 104
-0.053622 -0.062991 -0.821844 242 199 118
-0.065238 -0.060826 -0.805613 241 201 116
-0.065883 -0.062000 -0.824099 241 200 110
-0.043912 -0.059911 -0.828213 244 203 110
0.768012 -0.379591 -1.000151 143 102 55
0.507637 -0.024628 -0.794968 198 156 66
0.516980 -0.011574 -0.803041 99 86 67
0.512756 -0.011006 -0.771775 102 90 74
0.509831 -0.019799 -0.778977 147 114 68
0.215749 -0.027724 -0.850740 235 190 110
0.193961 -0.028950 -0.855054 230 191 111
0.200041 -0.030918 -0.859600 230 192 102
0.178270 -0.027186 -0.846991 230 189 109
0.193713 -0.058281 -0.838929 231 190 108
0.195176 -0.030049 -0.835818 233 191 113
0.694381 0.094596 -0.927360 27 21 53
0.696325 0.099605 -0.913330 26 19 52
0.683078 0.178427 -1.009597 27 20 47
0.679260 0.140439 -1.022810 36 28 46
0.680935 0.152943 -1.018567 30 26 44
0.722260 0.219282 -1.049012 81 66 50
0.712772 0.238074 -1.049055 59 41 44
0.310311 -0.117367 -1.059766 238 199 110
0.670124 0.198092 -0.967831 30 27 51
0.664679 0.201679 -0.970498 30 29 48
0.660424 0.205144 -0.980197 34 32 44
0.672529 0.195541 -0.981226 32 30 52
0.659674 0.181069 -0.979641 40 31 47
0.659897 0.203333 -0.994918 35 29 49
0.665247 0.191383 -0.994029 35 33 55
0.122071 -0.070986 -0.861226 236 196 113
0.371006 -0.020843 -1.007595 153 119 54
-0.051800 -0.439960 -1.064593 252 223 130
-0.080131 -0.014115 -0.945538 230 189 101
0.455407 -0.027843 -0.962080 70 48 30
0.453785 -0.152091 -1.063430 220 180 103
0.664880 0.233117 -0.952392 38 29 50
0.671183 0.212130 -0.961300 25 26 56
0.669916 0.223360 -0.953474 25 26 56
0.666103 0.221559 -0.956806 31 29 52
0.670555 0.245941 -0.957683 24 22 48
0.666783 0.232365 -0.935759 26 23 55
-0.142348 -0.100620 -0.971957 185 143 82
-0.113633 -0.103214 -0.960802 229 186 121
0.515601 -0.425422 -1.064601 238 204 105
0.533783 -0.450641 -1.065130 236 203 92
0.220494 -0.428475 -1.069822 248 213 124
0.201377 -0.417411 -1.068942 249 217 121
0.018570 -0.053531 -0.870870 242 195 119
-0.001183 -0.055828 -0.859010 238 202 107
0.105111 -0.042424 -0.877240 236 195 108
0.088661 -0.045856 -0.872593 233 196 105
-0.043407 -0.057396 -0.763091 242 205 114
-0.026361 -0.051378 -0.752916 244 206 111
-0.010266 -0.052216 -0.762441 245 202 116
0.699212 -0.016975 -0.788854 27 14 30
0.704484 -0.014629 -0.805124 22 17 32
0.384217 -0.061227 -0.872647 212 174 108
0.386735 -0.062644 -0.842954 211 174 113
0.539553 -0.194713 -1.065260 199 163 103
0.535253 -0.217973 -1.064825 216 177 103
-0.140066 -0.015849 -0.778502 180 153 83
-0.136632 -0.018647 -0.795949 226 188 110
0.178892 -0.068699 -0.956100 146 105 55
0.180903 -0.069535 -0.936083 144 104 47
0.481058 0.144772 -1.049987 23 21 27
0.800028 0.144981 -1.048582 65 54 43
0.498899 0.182407 -0.878897 21 17 41
0.498908 0.188681 -0.902818 25 19 44
0.498262 0.151074 -0.874112 16 14 43
0.504294 0.162593 -0.910093 28 21 48
0.499137 0.155604 -0.858369 18 17 37
0.504372 0.158235 -0.901609 17 16 41
0.503664 0.165338 -0.745161 40 34 49
0.508192 0.196257 -0.754037 22 18 42
0.508362 0.201497 -0.769050 17 14 43
0.638483 -0.060897 -1.049951 162 117 54
0.664004 -0.057739 -1.046605 156 116 61
0.658375 0.161786 -0.978794 35 27 44
0.656253 0.185820 -0.994528 32 29 49
0.668442 0.157539 -0.987451 29 27 55
0.659133 0.143685 -0.983877 33 28 56
0.671405 0.176803 -0.984934 31 25 56
0.666837 0.145041 -0.991159 31 27 55
0.658414 0.154543 -0.996345 39 31 57
0.595362 -0.200930 -1.056783 100 75 41
0.587657 -0.175862 -1.057339 109 77 38
0.488392 0.002777 -0.996929 133 101 37
0.473855 0.022491 -1.024385 140 100 44
0.502565 0.017019 -1.010269 135 100 39
0.494832 0.014017 -1.005397 142 101 39
0.161195 -0.035349 -0.856749 227 185 101
0.170862 -0.029334 -0.856597 222 182 99
0.171936 -0.032640 -0.844613 226 185 102
0.148811 -0.038841 -0.851083 235 194 109
0.181619 -0.028293 -0.871998 223 185 97
0.169111 -0.030814 -0.864803 221 181 93
0.180155 -0.032418 -0.859754 219 181 91
-0.151182 -0.448450 -1.060492 254 223 131
-0.184753 -0.451171 -1.061170 254 220 143
0.491572 0.109342 -0.786739 17 15 48
0.031030 -0.057894 -1.059442 235 193 93
0.044173 -0.061153 -1.058495 231 190 106
0.492430 0.018756 -0.790034 40 40 51
0.495572 0.003558 -0.781129 132 104 68
-0.086676 -0.085725 -0.982471 153 113 49
-0.098977 -0.096290 -0.969577 152 118 46
0.499094 -0.035573 -0.933809 94 68 35
0.502017 -0.038038 -0.914513 84 65 29
0.492775 -0.037051 -0.898630 85 65 36
0.473252 -0.038119 -0.924289 77 55 22
0.489592 -0.091219 -1.064161 104 80 43
0.496998 -0.115666 -1.063381 113 89 34
0.483587 -0.036186 -0.937753 83 58 22
0.462502 -0.036135 -0.943438 77 56 24
0.004284 -0.090629 -0.822699 239 198 113
-0.029467 -0.034295 -1.004548 200 158 80
-0.024424 -0.030368 -1.021904 228 186 83
-0.039913 -0.034198 -1.015705 223 181 94
-0.018953 -0.021707 -1.025000 217 175 84
-0.033152 -0.024688 -1.025383 221 181 82
-0.012134 -0.045053 -1.019177 227 188 98
-0.032529 -0.024464 -1.016109 212 172 83
-0.031608 -0.036251 -1.012152 217 177 83
-0.021315 -0.042973 -1.004986 218 175 96
-0.003847 -0.041695 -1.003848 222 180 84
-0.041360 -0.027616 -1.012217 194 154 78
0.053824 -0.084087 -0.862554 239 196 109
0.073630 -0.080541 -0.852982 239 199 104
0.087280 -0.078105 -0.865246 240 198 108
0.555370 -0.462281 -1.066069 236 200 114
0.202034 -0.040192 -0.655725 235 196 99
0.204754 -0.038361 -0.669246 239 195 112
0.197890 -0.026349 -0.665511 237 196 104
0.665248 -0.195936 -1.058855 133 96 41
0.660478 -0.215265 -1.057597 108 73 33
0.198387 -0.526798 -1.068614 248 215 124
0.683020 0.246407 -0.984954 28 22 51
0.680933 0.246305 -0.996663 23 24 42
0.689952 0.245215 -0.973154 26 22 41
0.356133 -0.061957 -0.952727 210 177 105
0.343950 -0.067105 -0.933875 211 178 113
0.210592 -0.022928 -0.683495 234 194 104
0.196084 -0.021962 -0.664478 236 197 98
0.153373 -0.000825 -0.974875 171 127 58
0.661827 0.021877 -0.944948 31 29 49
0.660945 0.052479 -0.960416 33 32 46
0.660822 0.029888 -0.948947 29 26 62
0.656948 0.041532 -0.955750 35 35 47
0.657542 0.031624 -0.950049 38 31 51
-0.043704 -0.047580 -0.986511 213 170 93
0.150460 -0.021363 -1.042354 214 174 89
0.160687 -0.018793 -1.032085 207 169 88
-0.052397 -0.062286 -0.880699 239 198 98
-0.066942 -0.060825 -0.904914 180 145 76
0.193193 -0.290791 -1.066310 249 210 115
0.171366 -0.298270 -1.065587 249 216 113
0.707005 0.004724 -0.782638 33 29 69
0.702826 0.001508 -0.775679 27 27 50
0.469956 0.131044 -0.675263 95 89 80
0.472048 0.147014 -0.669326 97 92 80
-0.065169 -0.103205 -0.696998 239 202 124
0.580825 -0.388536 -1.065805 151 115 59
0.502657 0.257539 -0.735507 88 79 71
-0.076542 -0.270187 -1.062545 253 222 119
-0.049157 -0.288009 -1.061372 252 221 130
0.487448 0.254947 -0.731017 92 84 73
0.135398 -0.070565 -0.877828 235 193 111
0.114930 -0.073732 -0.876280 236 191 118
0.500278 0.226678 -1.008809 53 39 44
0.503576 0.219169 -1.021364 79 58 42
0.512051 0.224659 -1.022108 72 56 45
0.588574 -0.405739 -1.064207 175 131 64
0.616331 -0.411631 -1.061657 177 133 60
0.201255 -0.581056 -1.070203 247 217 121
0.520571 -0.003080 -0.807874 54 50 49
0.514842 0.001304 -0.810337 72 64 59
0.509197 0.008230 -0.787921 73 68 63
0.516117 0.254571 -0.809879 14 14 39
0.510786 0.235795 -0.789925 15 14 40
0.512415 0.230563 -0.802144 16 13 41
0.335681 -0.043921 -0.983054 157 119 66
-0.055343 -0.516964 -1.064220 252 222 140
-0.076783 -0.492473 -1.064261 253 223 135
-0.067637 -0.524315 -1.064664 253 224 134
-0.103412 -0.520224 -1.062974 252 222 137
0.031943 0.020401 -1.035757 151 115 53
0.010691 0.016643 -1.035566 152 115 59
0.418341 -0.063384 -0.928916 89 69 46
0.438169 -0.056301 -0.909898 91 64 27
0.417443 -0.060925 -0.909024 89 69 44
0.309249 -0.054613 -0.832677 228 188 102
0.339989 -0.062565 -0.822863 230 185 106
0.661083 -0.422191 -1.058478 155 122 66
0.532488 0.256722 -1.005302 34 30 34
0.536711 0.265308 -1.007865 30 27 34
0.752606 -0.173145 -1.053116 158 116 52
0.731347 -0.152001 -1.054027 155 112 52
0.721907 -0.159701 -1.053841 161 118 55
0.271898 -0.067800 -0.926111 150 108 51
0.254551 -0.061337 -0.925867 167 126 57
0.254026 -0.013105 -0.810143 228 191 103
0.243324 -0.028636 -0.813296 229 189 106
0.237019 -0.017101 -0.817227 230 188 115
0.220882 -0.018021 -0.803307 231 189 113
0.229888 -0.020622 -0.840766 231 191 103
0.210726 -0.022450 -0.832706 230 190 107
0.246211 -0.024804 -0.833118 231 188 113
0.218715 -0.019985 -0.827951 230 190 106
0.241599 -0.030113 -0.825309 232 190 111
0.688729 0.194289 -1.027830 27 23 41
0.684559 0.187397 -1.004355 30 24 36
0.659167 0.249429 -1.004581 35 34 46
0.662153 0.217295 -1.004865 35 33 50
0.656211 0.217136 -1.005657 35 31 52
0.176324 -0.157737 -1.062426 244 202 108
0.475694 0.224009 -0.724800 89 84 79
0.477197 0.252064 -0.719005 95 87 75
0.419361 -0.484118 -1.068017 241 209 118
0.259352 -0.512249 -1.066539 249 213 128
0.179059 -0.011357 -0.955928 227 185 102
0.163050 -0.019734 -0.944182 229 189 98
0.617606 0.293758 -0.736635 44 39 53
0.611238 0.306650 -0.731274 100 86 83
0.621726 0.314780 -0.730175 99 83 79
0.620164 0.287793 -0.742846 33 27 50
-0.101270 -0.019242 -0.784100 245 204 116
-0.081944 -0.020820 -0.777027 228 191 115
-0.063233 -0.021296 -0.795263 245 201 120
0.749243 0.245082 -1.048943 81 64 48
0.739720 0.243998 -1.050521 90 70 52
-0.043314 -0.024942 -1.018966 214 173 90
-0.063029 -0.027260 -1.012533 209 168 85
-0.059521 -0.033586 -1.004542 203 161 83
-0.066435 -0.041780 -0.999085 204 163 79
0.222896 -0.027452 -0.866318 235 190 106
0.230219 -0.028532 -0.846070 231 189 109
0.238804 -0.024297 -0.845514 230 189 106
0.236196 -0.024827 -0.856708 230 191 99
0.222093 -0.022921 -0.854987 228 190 105
0.698929 0.040218 -0.871314 28 24 48
0.700273 0.016483 -0.877504 25 21 60
0.698519 0.041287 -0.888524 28 21 57
0.686830 0.230388 -0.994438 25 21 40
0.687387 0.214815 -0.983887 23 21 39
0.693184 0.218431 -0.969379 23 22 34
0.683797 0.204374 -0.986414 16 17 39
0.639414 -0.020055 -0.863942 57 47 68
0.645445 -0.032524 -0.852570 65 47 60
0.650792 -0.048970 -0.846852 61 42 60
0.652296 -0.023019 -0.856712 58 44 73
0.044881 0.022949 -1.014351 171 129 60
0.103070 -0.035969 -1.013026 201 157 82
0.106467 -0.034422 -0.997015 182 141 72
0.114345 -0.029412 -1.002958 173 131 70
0.121892 -0.029743 -1.022772 212 172 84
0.093424 -0.030304 -1.027047 212 173 86
0.097937 -0.026823 -1.011969 186 144 70
0.498796 0.170871 -0.843284 19 14 39
0.497939 0.167685 -0.826743 16 12 43
0.492984 0.166187 -0.808195 27 26 41
0.496304 0.148810 -0.814448 18 14 41
0.436022 -0.056099 -0.937878 97 68 32
0.455453 -0.043209 -0.916207 73 52 24
0.448530 -0.051481 -0.912069 108 78 44
0.707820 0.056425 -1.050296 24 23 38
0.711472 0.033342 -1.050865 31 25 26
0.701027 0.021145 -1.046665 21 19 43
0.602023 -0.004630 -0.910766 51 40 46
0.442937 -0.052141 -0.703230 69 50 29
0.427518 -0.058479 -0.677063 71 47 19
0.422934 -0.056396 -0.685000 88 67 47
0.413314 -0.058219 -0.692258 147 117 70
0.420849 -0.061169 -0.706761 88 62 40
0.428409 -0.058685 -0.696130 115 92 40
0.515191 0.139161 -0.940882 13 16 31
0.512152 0.154864 -0.940939 16 13 38
0.514684 0.118697 -0.943807 21 17 46
0.417032 0.007481 -1.025230 73 46 37
0.384191 0.003617 -1.010368 73 51 40
0.408911 0.006961 -1.013647 73 48 26
0.400082 0.001160 -1.011779 72 50 40
0.405964 -0.007612 -1.001615 73 50 38
0.384372 0.003888 -1.004874 83 64 32
