ply
format ascii 1.0
element vertex 1231
property float x
property float y
property float z
property uchar red
property uchar green
property uchar blue
end_header
1.690627 -0.658707 -0.325920 255 255 0
1.701734 -0.664168 0.077569 255 255 0
1.749797 -0.793965 -0.317378 255 255 0
1.780643 -0.610366 -0.195240 255 255 0
1.767413 -0.634135 -0.069407 255 255 0
1.816044 -0.650606 0.059569 255 255 0
1.806253 -0.609676 -0.198431 255 255 0
1.782791 -0.754177 -0.298432 255 255 0
1.683264 -0.683723 -0.333410 255 255 0
1.715271 -0.706297 0.039569 255 255 0
1.795632 -0.636044 -0.329390 255 255 0
1.830647 -0.692559 0.016362 255 255 0
1.699544 -0.712945 -0.042431 255 255 0
1.663856 -0.683687 -0.148431 255 255 0
1.677199 -0.760354 -0.046431 255 255 0
1.779803 -0.777852 -0.313364 255 255 0
1.789612 -0.712462 0.068086 255 255 0
1.732369 -0.645088 -0.153579 255 255 0
1.739947 -0.801829 -0.046431 255 255 0
1.866427 -0.620422 -0.358035 255 255 0
1.732113 -0.661391 -0.160431 255 255 0
1.777207 -0.684248 -0.376432 255 255 0
1.799518 -0.704344 -0.099384 255 255 0
1.695380 -0.703677 -0.144432 255 255 0
1.833675 -0.649456 0.057569 255 255 0
1.706869 -0.692830 -0.144432 255 255 0
1.761611 -0.757627 -0.294955 255 255 0
1.717504 -0.811637 -0.046431 255 255 0
1.822486 -0.577042 -0.358432 255 255 0
1.695928 -0.691484 -0.356432 255 255 0
1.694539 -0.659539 -0.233756 255 255 0
1.796353 -0.690370 -0.072431 255 255 0
1.737100 -0.690171 -0.142431 255 255 0
1.728634 -0.710757 -0.076431 255 255 0
1.776505 -0.726034 0.018646 255 255 0
1.706570 -0.670275 -0.367400 255 255 0
1.729486 -0.607671 -0.158432 255 255 0
1.735715 -0.725542 -0.353994 255 255 0
1.759965 -0.659554 -0.362432 255 255 0
1.701183 -0.791811 -0.079337 255 255 0
1.694510 -0.727007 -0.039813 255 255 0
1.706696 -0.737020 -0.040431 255 255 0
1.796899 -0.726279 -0.103429 255 255 0
1.673815 -0.716474 -0.048432 255 255 0
1.774230 -0.573205 -0.362432 255 255 0
1.802016 -0.668071 -0.100431 255 255 0
1.756228 -0.637892 -0.344432 255 255 0
1.743399 -0.641299 -0.219418 255 255 0
1.729870 -0.812221 -0.074431 255 255 0
1.749684 -0.779628 -0.072431 255 255 0
1.724393 -0.721091 -0.293402 255 255 0
1.801857 -0.625998 -0.190432 255 255 0
1.685220 -0.684139 -0.139449 255 255 0
1.757018 -0.683042 -0.367408 255 255 0
1.662933 -0.692796 -0.052432 255 255 0
1.689958 -0.758048 -0.148431 255 255 0
1.668909 -0.703163 -0.144222 255 255 0
1.734435 -0.702711 -0.146431 255 255 0
1.781814 -0.649464 -0.360431 255 255 0
1.644926 -0.690940 -0.156431 255 255 0
1.717306 -0.658244 -0.050027 255 255 0
1.786520 -0.582718 -0.406431 255 255 0
1.722116 -0.779903 -0.300920 255 255 0
1.648089 -0.656818 -0.244431 255 255 0
1.859604 -0.633284 -0.376090 255 255 0
1.702127 -0.763386 -0.048432 255 255 0
1.773405 -0.625185 -0.320770 255 255 0
1.779011 -0.671360 -0.372432 255 255 0
1.776179 -0.674847 -0.066432 255 255 0
1.683985 -0.738045 -0.144432 255 255 0
1.771372 -0.663602 -0.322920 255 255 0
1.629857 -0.715309 0.037569 255 255 0
1.722752 -0.626687 0.071569 255 255 0
1.742582 -0.712477 0.021569 255 255 0
1.722981 -0.756593 -0.304431 255 255 0
1.741220 -0.690022 -0.288432 255 255 0
1.709224 -0.628927 -0.352432 255 255 0
1.711591 -0.752462 -0.030431 255 255 0
1.799762 -0.683949 -0.095298 255 255 0
1.772818 -0.637569 -0.342432 255 255 0
1.743854 -0.710915 0.005569 255 255 0
1.661329 -0.681105 -0.335153 255 255 0
1.731425 -0.707247 -0.092431 255 255 0
1.796635 -0.650570 -0.193180 255 255 0
1.780195 -0.612474 -0.162431 255 255 0
1.677883 -0.762322 -0.076431 255 255 0
1.709486 -0.704652 -0.404432 255 255 0
1.733268 -0.765916 -0.295975 255 255 0
1.812700 -0.651940 -0.069779 255 255 0
1.736377 -0.703191 0.038519 255 255 0
1.655848 -0.745370 -0.159498 255 255 0
1.734694 -0.614912 0.069030 255 255 0
1.675164 -0.789165 -0.056432 255 255 0
1.755087 -0.605545 -0.162431 255 255 0
1.663951 -0.677573 -0.234431 255 255 0
1.671327 -0.648471 -0.242432 255 255 0
1.731292 -0.669396 0.072600 255 255 0
1.837898 -0.653206 -0.078431 255 255 0
1.801991 -0.750421 0.015569 255 255 0
1.698440 -0.742155 -0.146431 255 255 0
1.823618 -0.697199 -0.100431 255 255 0
1.775947 -0.642083 -0.318243 255 255 0
1.708025 -0.668539 -0.056432 255 255 0
1.716057 -0.664113 -0.360458 255 255 0
1.626567 -0.652257 -0.336431 255 255 0
1.723581 -0.638338 -0.342432 255 255 0
1.753473 -0.651619 -0.062813 255 255 0
1.679985 -0.728009 -0.045056 255 255 0
1.694217 -0.718766 -0.138875 255 255 0
1.744298 -0.762126 -0.305418 255 255 0
1.787374 -0.697674 -0.064431 255 255 0
1.669688 -0.699492 0.045569 255 255 0
1.695371 -0.655626 -0.341195 255 255 0
1.730757 -0.623813 -0.060431 255 255 0
1.627070 -0.659511 -0.243951 255 255 0
1.652625 -0.654719 -0.061155 255 255 0
1.736425 -0.664484 -0.216431 255 255 0
1.713689 -0.713734 -0.370432 255 255 0
1.689531 -0.798529 -0.080432 255 255 0
1.649652 -0.687941 -0.112432 255 255 0
1.702250 -0.724563 -0.148431 255 255 0
1.737512 -0.625734 -0.192431 255 255 0
1.750456 -0.718452 -0.294431 255 255 0
1.737493 -0.693205 -0.110431 255 255 0
1.827289 -0.564072 -0.354431 255 255 0
1.684968 -0.696353 -0.142431 255 255 0
1.774502 -0.648878 -0.372432 255 255 0
1.683208 -0.664752 -0.234431 255 255 0
1.755080 -0.778731 -0.301319 255 255 0
1.716448 -0.585320 -0.166431 255 255 0
1.856936 -0.588125 -0.320432 255 255 0
1.787509 -0.658853 -0.320432 255 255 0
1.767018 -0.722567 -0.366432 255 255 0
1.658882 -0.721479 -0.149846 255 255 0
1.665957 -0.668950 -0.106431 255 255 0
1.655413 -0.651222 -0.111622 255 255 0
1.678044 -0.754178 -0.148431 255 255 0
1.727625 -0.648169 -0.054641 255 255 0
1.700583 -0.640722 -0.350431 255 255 0
1.744431 -0.670143 -0.366432 255 255 0
1.740908 -0.701116 0.015569 255 255 0
1.686522 -0.688505 -0.232432 255 255 0
1.707572 -0.684800 -0.367322 255 255 0
1.678669 -0.657241 -0.110431 255 255 0
1.667906 -0.688638 -0.109186 255 255 0
1.727673 -0.676805 -0.367415 255 255 0
1.780446 -0.659397 -0.191346 255 255 0
1.739627 -0.697517 -0.192431 255 255 0
1.675779 -0.718936 -0.143088 255 255 0
1.719234 -0.726128 -0.044709 255 255 0
1.663332 -0.710157 0.044794 255 255 0
1.836516 -0.693806 0.054629 255 255 0
1.778338 -0.736647 -0.091480 255 255 0
1.825515 -0.630128 -0.335353 255 255 0
1.817123 -0.708086 0.019763 255 255 0
1.756799 -0.635968 -0.159325 255 255 0
1.646402 -0.698379 0.037569 255 255 0
1.736707 -0.684859 -0.310432 255 255 0
1.856700 -0.565192 -0.316432 255 255 0
1.675576 -0.652554 0.073569 255 255 0
1.750222 -0.628436 -0.321544 255 255 0
1.801841 -0.674168 -0.067813 255 255 0
1.747944 -0.687248 -0.359487 255 255 0
1.788545 -0.573197 -0.363289 255 255 0
1.646914 -0.725069 0.039569 255 255 0
1.770821 -0.622591 -0.158432 255 255 0
1.789566 -0.683827 -0.103427 255 255 0
1.713649 -0.771969 -0.306432 255 255 0
1.805958 -0.674040 0.015569 255 255 0
1.757040 -0.644460 0.071569 255 255 0
1.724841 -0.642032 -0.354431 255 255 0
1.812272 -0.588464 -0.358432 255 255 0
1.704414 -0.718889 -0.351432 255 255 0
1.689300 -0.774972 -0.070432 255 255 0
1.776831 -0.709745 -0.378431 255 255 0
1.840477 -0.723274 -0.106816 255 255 0
1.738560 -0.668896 -0.336431 255 255 0
1.735083 -0.680425 -0.353831 255 255 0
1.725614 -0.782691 -0.043307 255 255 0
1.752876 -0.769858 -0.032431 255 255 0
1.708179 -0.776940 -0.034432 255 255 0
1.751516 -0.651203 -0.163427 255 255 0
1.713851 -0.751450 -0.296432 255 255 0
1.766042 -0.650201 -0.321885 255 255 0
1.667737 -0.670199 -0.335425 255 255 0
1.675732 -0.690301 -0.326297 255 255 0
1.818202 -0.683779 0.058657 255 255 0
1.701949 -0.663158 -0.334181 255 255 0
1.642441 -0.702630 -0.154432 255 255 0
1.792679 -0.669176 0.017569 255 255 0
1.750801 -0.628559 -0.214432 255 255 0
1.708703 -0.737197 -0.300431 255 255 0
1.826112 -0.564825 -0.326431 255 255 0
1.771686 -0.767947 -0.311387 255 255 0
1.867542 -0.576700 -0.316432 255 255 0
1.710802 -0.613923 -0.214432 255 255 0
1.748326 -0.723931 -0.358432 255 255 0
1.679197 -0.678769 -0.238431 255 255 0
1.761734 -0.747430 -0.301361 255 255 0
1.836182 -0.742807 0.007569 255 255 0
1.685711 -0.643350 0.073253 255 255 0
1.752210 -0.705660 -0.408432 255 255 0
1.663545 -0.718779 -0.106431 255 255 0
1.760343 -0.725115 -0.356432 255 255 0
1.780323 -0.669594 0.069901 255 255 0
1.844985 -0.577015 -0.335368 255 255 0
1.812067 -0.722262 0.057569 255 255 0
1.692300 -0.732672 -0.072431 255 255 0
1.697251 -0.694875 -0.332352 255 255 0
1.738640 -0.692543 -0.128431 255 255 0
1.820768 -0.686370 0.013569 255 255 0
1.713706 -0.761757 -0.063754 255 255 0
1.710011 -0.675096 0.045569 255 255 0
1.693461 -0.683846 -0.327220 255 255 0
1.777297 -0.679174 -0.350431 255 255 0
1.711267 -0.644692 -0.326431 255 255 0
1.720379 -0.716148 -0.388431 255 255 0
1.700427 -0.756890 -0.032065 255 255 0
1.806295 -0.716008 -0.102431 255 255 0
1.729875 -0.704924 -0.406431 255 255 0
1.767900 -0.641461 -0.216431 255 255 0
1.802673 -0.670255 0.062622 255 255 0
1.693876 -0.691515 -0.102431 255 255 0
1.785898 -0.662600 -0.340622 255 255 0
1.768707 -0.656902 -0.061572 255 255 0
1.800888 -0.688278 0.062637 255 255 0
1.780370 -0.698230 -0.099318 255 255 0
1.811180 -0.745672 -0.103571 255 255 0
1.792750 -0.659222 -0.064431 255 255 0
1.684684 -0.744376 -0.038432 255 255 0
1.750905 -0.685832 -0.068431 255 255 0
1.707533 -0.646503 -0.212431 255 255 0
1.766390 -0.648563 -0.362432 255 255 0
1.669440 -0.700663 -0.104431 255 255 0
1.806954 -0.640495 -0.191741 255 255 0
1.677019 -0.722724 0.045569 255 255 0
1.725688 -0.743858 -0.290948 255 255 0
1.676857 -0.694629 -0.052865 255 255 0
1.652966 -0.691596 -0.237205 255 255 0
1.730008 -0.699793 -0.080432 255 255 0
1.785252 -0.675265 -0.188431 255 255 0
1.851890 -0.584617 -0.356432 255 255 0
1.722006 -0.708315 -0.054431 255 255 0
1.703166 -0.710445 -0.386432 255 255 0
1.768361 -0.701811 -0.418432 255 255 0
1.716011 -0.635477 -0.059219 255 255 0
1.807096 -0.726402 -0.096798 255 255 0
1.777782 -0.638384 0.061569 255 255 0
1.779539 -0.702142 0.018360 255 255 0
1.781979 -0.642564 -0.350431 255 255 0
1.649421 -0.660172 -0.333192 255 255 0
1.748025 -0.634103 0.069569 255 255 0
1.712750 -0.775867 -0.066935 255 255 0
1.757925 -0.640297 -0.327311 255 255 0
1.697468 -0.741949 -0.305383 255 255 0
1.834957 -0.595330 -0.358772 255 255 0
1.801378 -0.647489 -0.071153 255 255 0
1.697790 -0.682721 -0.143327 255 255 0
1.779104 -0.697960 -0.350431 255 255 0
1.812605 -0.608981 -0.368431 255 255 0
1.765044 -0.683757 0.059569 255 255 0
1.734444 -0.750765 -0.028431 255 255 0
1.817562 -0.686786 -0.076431 255 255 0
1.732053 -0.690004 -0.218432 255 255 0
1.844927 -0.581092 -0.312432 255 255 0
1.759343 -0.652866 -0.183617 255 255 0
1.728368 -0.702391 -0.064431 255 255 0
1.668275 -0.658046 -0.235668 255 255 0
1.763963 -0.659983 -0.155438 255 255 0
1.742159 -0.695226 -0.052432 255 255 0
1.776090 -0.727990 -0.348468 255 255 0
1.699922 -0.658638 -0.354431 255 255 0
1.741853 -0.687048 -0.332431 255 255 0
1.766050 -0.698260 0.011569 255 255 0
1.748595 -0.707833 0.055569 255 255 0
1.677793 -0.627354 0.069569 255 255 0
1.671549 -0.661882 0.039569 255 255 0
1.726984 -0.766624 -0.071345 255 255 0
1.697790 -0.682721 -0.051889 255 255 0
1.851263 -0.725566 -0.116432 255 255 0
1.715621 -0.723882 -0.286431 255 255 0
1.786446 -0.597287 -0.198431 255 255 0
1.755426 -0.603952 -0.328431 255 255 0
1.811708 -0.623104 0.055569 255 255 0
1.762272 -0.735276 -0.297411 255 255 0
1.701506 -0.780672 -0.076431 255 255 0
1.796144 -0.691359 0.018674 255 255 0
1.679543 -0.697245 -0.238431 255 255 0
1.743691 -0.649540 -0.152833 255 255 0
1.723486 -0.763836 -0.037372 255 255 0
1.751224 -0.642962 -0.184046 255 255 0
1.796360 -0.738433 -0.105386 255 255 0
1.718001 -0.654302 -0.216431 255 255 0
1.767773 -0.767116 -0.298925 255 255 0
1.726501 -0.643841 -0.163337 255 255 0
1.774336 -0.690813 -0.388431 255 255 0
1.713011 -0.643018 -0.154432 255 255 0
1.717864 -0.742194 -0.033397 255 255 0
1.818853 -0.728808 -0.106431 255 255 0
1.712634 -0.641746 0.077569 255 255 0
1.733080 -0.704535 -0.006431 255 255 0
1.781746 -0.714880 -0.344432 255 255 0
1.744357 -0.711022 0.035569 255 255 0
1.808514 -0.632648 -0.324432 255 255 0
1.643769 -0.705999 -0.109445 255 255 0
1.728287 -0.625819 -0.153896 255 255 0
1.717318 -0.725524 -0.354431 255 255 0
1.695125 -0.676021 -0.102338 255 255 0
1.661868 -0.620857 -0.062432 255 255 0
1.660667 -0.703456 -0.329559 255 255 0
1.697251 -0.694875 0.042698 255 255 0
1.733222 -0.689177 -0.258431 255 255 0
1.733494 -0.649417 0.074796 255 255 0
1.733173 -0.708644 0.048550 255 255 0
1.787461 -0.585235 -0.386432 255 255 0
1.761686 -0.718794 -0.345453 255 255 0
1.768291 -0.658858 0.068233 255 255 0
1.680869 -0.714235 -0.236432 255 255 0
1.684095 -0.679810 0.074620 255 255 0
1.707414 -0.781735 -0.050431 255 255 0
1.713616 -0.627502 -0.156431 255 255 0
1.691155 -0.810126 -0.073990 255 255 0
1.790444 -0.708550 -0.092378 255 255 0
1.748283 -0.772227 -0.308431 255 255 0
1.795774 -0.721951 0.014609 255 255 0
1.797500 -0.598403 -0.370432 255 255 0
1.864546 -0.581173 -0.339480 255 255 0
1.732472 -0.716674 -0.388431 255 255 0
1.668870 -0.703340 -0.234431 255 255 0
1.742227 -0.704532 -0.096431 255 255 0
1.674265 -0.668341 -0.326431 255 255 0
1.733786 -0.705765 0.023569 255 255 0
1.700823 -0.658830 -0.106287 255 255 0
1.699653 -0.722056 -0.368431 255 255 0
1.711559 -0.646799 -0.365273 255 255 0
1.755969 -0.639881 -0.065649 255 255 0
1.764099 -0.698860 -0.360431 255 255 0
1.766141 -0.668976 -0.362432 255 255 0
1.670836 -0.771048 -0.081414 255 255 0
1.689507 -0.640067 -0.356432 255 255 0
1.719177 -0.654552 0.077569 255 255 0
1.695786 -0.653670 -0.367426 255 255 0
1.833483 -0.717698 0.010624 255 255 0
1.728409 -0.615621 -0.212898 255 255 0
1.675514 -0.643227 -0.335412 255 255 0
1.700037 -0.643293 -0.158432 255 255 0
1.700360 -0.632151 0.070710 255 255 0
1.697128 -0.705072 -0.359417 255 255 0
1.668221 -0.643721 -0.058431 255 255 0
1.732246 -0.655286 -0.360610 255 255 0
1.771789 -0.661646 -0.377393 255 255 0
1.724545 -0.643425 -0.221349 255 255 0
1.744514 -0.706966 -0.020432 255 255 0
1.734211 -0.703759 0.059569 255 255 0
1.814166 -0.693145 -0.105430 255 255 0
1.756970 -0.666675 0.077569 255 255 0
1.744678 -0.696777 -0.078431 255 255 0
1.673114 -0.712236 -0.104069 255 255 0
1.778149 -0.622104 -0.073387 255 255 0
1.712440 -0.719609 -0.150432 255 255 0
1.653815 -0.668354 -0.110431 255 255 0
1.690611 -0.764592 -0.046431 255 255 0
1.656394 -0.710727 -0.148431 255 255 0
1.746220 -0.714603 -0.372432 255 255 0
1.866905 -0.627791 -0.368431 255 255 0
1.664288 -0.696047 -0.151411 255 255 0
1.758171 -0.619902 -0.219297 255 255 0
1.760467 -0.657195 -0.069348 255 255 0
1.739922 -0.734615 -0.286758 255 255 0
1.666367 -0.686265 -0.241362 255 255 0
1.866449 -0.591461 -0.332431 255 255 0
1.810733 -0.661196 -0.328431 255 255 0
1.821537 -0.647684 -0.192431 255 255 0
1.719725 -0.685339 -0.367419 255 255 0
1.725717 -0.676389 0.080846 255 255 0
1.765352 -0.778501 -0.042431 255 255 0
1.680607 -0.623863 -0.060431 255 255 0
1.691824 -0.677364 -0.346431 255 255 0
1.664937 -0.625651 -0.338432 255 255 0
1.690464 -0.722058 -0.068431 255 255 0
1.746253 -0.762542 -0.037376 255 255 0
1.748887 -0.783548 -0.044431 255 255 0
1.776814 -0.724580 -0.360431 255 255 0
1.809299 -0.706423 0.056572 255 255 0
1.704065 -0.622715 -0.058431 255 255 0
1.734506 -0.694615 -0.182432 255 255 0
1.735988 -0.685785 -0.240431 255 255 0
1.811593 -0.628293 -0.074431 255 255 0
1.725641 -0.633435 -0.364431 255 255 0
1.664538 -0.723724 -0.050431 255 255 0
1.732526 -0.716686 0.085569 255 255 0
1.681109 -0.732337 -0.153412 255 255 0
1.708308 -0.623617 -0.219391 255 255 0
1.759192 -0.711293 -0.386432 255 255 0
1.726834 -0.570303 -0.226431 255 255 0
1.733004 -0.690206 -0.367360 255 255 0
1.708498 -0.738159 -0.140957 255 255 0
1.831680 -0.687701 -0.110431 255 255 0
1.748963 -0.716090 -0.392431 255 255 0
1.685853 -0.729257 0.047277 255 255 0
1.840764 -0.577630 -0.356432 255 255 0
1.754982 -0.673383 -0.064431 255 255 0
1.680586 -0.701556 -0.332431 255 255 0
1.744195 -0.715077 0.073569 255 255 0
1.746344 -0.608204 -0.220431 255 255 0
1.767669 -0.690643 -0.404432 255 255 0
1.709908 -0.702664 -0.148431 255 255 0
1.808454 -0.638769 0.061569 255 255 0
1.797079 -0.581145 -0.363336 255 255 0
1.731717 -0.749228 -0.070432 255 255 0
1.789935 -0.653235 0.062773 255 255 0
1.819788 -0.714787 -0.107386 255 255 0
1.730358 -0.779610 -0.075423 255 255 0
1.746145 -0.639838 -0.348432 255 255 0
1.671234 -0.672987 -0.052781 255 255 0
1.773253 -0.702851 -0.369477 255 255 0
1.654019 -0.657779 0.037569 255 255 0
1.780295 -0.679344 -0.362432 255 255 0
1.768640 -0.675289 -0.188431 255 255 0
1.700994 -0.677268 -0.111392 255 255 0
1.778392 -0.658960 -0.356432 255 255 0
1.745577 -0.736861 -0.296432 255 255 0
1.639478 -0.687709 -0.116432 255 255 0
1.700577 -0.679224 0.081206 255 255 0
1.755455 -0.642297 -0.356432 255 255 0
1.743732 -0.688397 -0.276431 255 255 0
1.786420 -0.602426 -0.076431 255 255 0
1.741489 -0.669518 -0.162204 255 255 0
1.843755 -0.678988 0.012295 255 255 0
1.754533 -0.627390 -0.346431 255 255 0
1.740091 -0.753053 -0.301300 255 255 0
1.688745 -0.619458 -0.219428 255 255 0
1.782205 -0.593407 -0.168432 255 255 0
1.755316 -0.662234 -0.194431 255 255 0
1.862784 -0.589463 -0.354431 255 255 0
1.746356 -0.656240 0.076656 255 255 0
1.771578 -0.712718 -0.400432 255 255 0
1.796635 -0.650570 -0.331417 255 255 0
1.743925 -0.690483 -0.176432 255 255 0
1.731507 -0.706862 0.069569 255 255 0
1.729241 -0.698282 -0.116432 255 255 0
1.722536 -0.662495 -0.058431 255 255 0
1.624242 -0.682433 -0.248431 255 255 0
1.731783 -0.628606 -0.345554 255 255 0
1.712173 -0.595813 -0.223400 255 255 0
1.774078 -0.641255 -0.064431 255 255 0
1.716522 -0.715329 -0.048432 255 255 0
1.789471 -0.626555 -0.327408 255 255 0
1.731303 -0.722560 -0.036431 255 255 0
1.747789 -0.615651 -0.156431 255 255 0
1.754249 -0.782643 -0.311400 255 255 0
1.726576 -0.605008 0.066575 255 255 0
1.706879 -0.586508 -0.222431 255 255 0
1.753952 -0.635363 -0.366432 255 255 0
1.648050 -0.676238 0.036665 255 255 0
1.793865 -0.750170 -0.109406 255 255 0
1.640566 -0.713496 0.037569 255 255 0
1.672187 -0.658877 -0.053702 255 255 0
1.693053 -0.733862 -0.150432 255 255 0
1.814213 -0.721781 0.019568 255 255 0
1.693584 -0.673649 -0.241347 255 255 0
1.746346 -0.685152 -0.196432 255 255 0
1.820076 -0.747563 -0.110431 255 255 0
1.792335 -0.584226 -0.333044 255 255 0
1.819076 -0.612329 -0.196432 255 255 0
1.730942 -0.685679 -0.290431 255 255 0
1.695852 -0.778410 -0.047399 255 255 0
1.736561 -0.717543 -0.074431 255 255 0
1.801139 -0.735190 -0.096431 255 255 0
1.770844 -0.723805 -0.296432 255 255 0
1.777029 -0.734324 -0.290431 255 255 0
1.783772 -0.643746 -0.325210 255 255 0
1.831323 -0.583572 -0.358432 255 255 0
1.675200 -0.750519 -0.050431 255 255 0
1.734230 -0.708869 -0.042431 255 255 0
1.748634 -0.597428 -0.160215 255 255 0
1.718799 -0.631980 -0.210808 255 255 0
1.651330 -0.631952 -0.242548 255 255 0
1.816103 -0.597457 -0.363294 255 255 0
1.696426 -0.794948 -0.070432 255 255 0
1.686638 -0.696708 -0.109404 255 255 0
1.703517 -0.645090 -0.052432 255 255 0
1.742862 -0.698436 -0.162431 255 255 0
1.653818 -0.668345 -0.060431 255 255 0
1.725266 -0.709008 0.037569 255 255 0
1.772506 -0.629410 -0.218432 255 255 0
1.732464 -0.702360 -0.135486 255 255 0
1.755448 -0.748139 -0.032869 255 255 0
1.694076 -0.632859 -0.057206 255 255 0
1.732865 -0.686087 -0.270432 255 255 0
1.747312 -0.642130 -0.159369 255 255 0
1.775748 -0.691113 0.060594 255 255 0
1.735206 -0.670227 -0.359709 255 255 0
1.761960 -0.630931 -0.355428 255 255 0
1.759730 -0.708757 0.013569 255 255 0
1.717107 -0.707274 -0.397449 255 255 0
1.747622 -0.703537 -0.360431 255 255 0
1.694072 -0.753495 -0.072431 255 255 0
1.668663 -0.723558 -0.153338 255 255 0
1.643525 -0.726393 -0.057429 255 255 0
1.690578 -0.630071 -0.332862 255 255 0
1.737660 -0.677914 -0.318431 255 255 0
1.862345 -0.601152 -0.357776 255 255 0
1.741612 -0.659321 -0.156561 255 255 0
1.649286 -0.728139 -0.152431 255 255 0
1.734183 -0.771227 -0.038432 255 255 0
1.632570 -0.691350 -0.244965 255 255 0
1.677649 -0.710144 -0.148431 255 255 0
1.825587 -0.706748 0.013569 255 255 0
1.760211 -0.629542 -0.328431 255 255 0
1.744530 -0.792846 -0.308431 255 255 0
1.689829 -0.710554 -0.110431 255 255 0
1.702506 -0.747109 -0.071290 255 255 0
1.778613 -0.648783 0.062832 255 255 0
1.743991 -0.700721 -0.106431 255 255 0
1.779027 -0.646827 -0.191398 255 255 0
1.694412 -0.698608 -0.238431 255 255 0
1.697669 -0.649981 -0.236432 255 255 0
1.835325 -0.564738 -0.310062 255 255 0
1.727257 -0.678761 0.070570 255 255 0
1.808882 -0.708380 -0.095860 255 255 0
1.807094 -0.564872 -0.358432 255 255 0
1.731982 -0.579576 -0.221067 255 255 0
1.636824 -0.729058 -0.163186 255 255 0
1.809837 -0.694270 0.014596 255 255 0
1.738658 -0.648470 -0.054431 255 255 0
1.836224 -0.685565 0.060918 255 255 0
1.683944 -0.757476 -0.157369 255 255 0
1.712118 -0.730750 -0.031419 255 255 0
1.755231 -0.701065 0.059902 255 255 0
1.731502 -0.634680 -0.158432 255 255 0
1.758435 -0.695612 -0.101551 255 255 0
1.738621 -0.759970 -0.070432 255 255 0
1.701409 -0.675312 -0.234086 255 255 0
1.785114 -0.695149 0.064616 255 255 0
1.745499 -0.708374 -0.398432 255 255 0
1.683992 -0.786112 -0.050673 255 255 0
1.644799 -0.653056 -0.339388 255 255 0
1.776994 -0.709780 -0.352432 255 255 0
1.644432 -0.683648 -0.239980 255 255 0
1.757498 -0.651920 -0.212431 255 255 0
1.784604 -0.639834 -0.069257 255 255 0
1.728239 -0.691238 0.075569 255 255 0
1.774866 -0.714507 -0.364431 255 255 0
1.744617 -0.692675 -0.206431 255 255 0
1.762175 -0.663692 0.059569 255 255 0
1.774441 -0.706882 -0.392431 255 255 0
1.710680 -0.670178 -0.338432 255 255 0
1.713534 -0.743319 -0.047388 255 255 0
1.788105 -0.744857 0.015569 255 255 0
1.734898 -0.642816 -0.356432 255 255 0
1.645821 -0.763686 -0.057327 255 255 0
1.682405 -0.728524 -0.104431 255 255 0
1.763473 -0.700772 -0.409459 255 255 0
1.723194 -0.755595 -0.069324 255 255 0
1.696202 -0.651714 -0.331393 255 255 0
1.708724 -0.621660 0.070618 255 255 0
1.676436 -0.667745 -0.108432 255 255 0
1.697362 -0.636633 -0.218432 255 255 0
1.658759 -0.731676 -0.053343 255 255 0
1.851922 -0.717528 0.006659 255 255 0
1.709527 -0.685216 0.076599 255 255 0
1.759314 -0.720335 -0.373577 255 255 0
1.790738 -0.716791 -0.099362 255 255 0
1.694416 -0.669736 -0.324760 255 255 0
1.754757 -0.756171 -0.302432 255 255 0
1.743949 -0.704801 -0.070432 255 255 0
1.798638 -0.679621 0.068477 255 255 0
1.758505 -0.603616 -0.194431 255 255 0
1.677765 -0.772520 -0.048432 255 255 0
1.708553 -0.603222 -0.217342 255 255 0
1.721161 -0.794013 -0.049423 255 255 0
1.688548 -0.668489 -0.053286 255 255 0
1.736938 -0.670595 0.081569 255 255 0
1.803430 -0.705176 0.064852 255 255 0
1.714437 -0.796672 -0.040431 255 255 0
1.689465 -0.611433 -0.062432 255 255 0
1.743915 -0.698659 -0.146431 255 255 0
1.703079 -0.696114 -0.108432 255 255 0
1.696930 -0.754102 -0.045104 255 255 0
1.758283 -0.725187 -0.294431 255 255 0
1.770248 -0.659274 -0.183128 255 255 0
1.704049 -0.634036 -0.364431 255 255 0
1.798249 -0.638645 0.061569 255 255 0
1.717352 -0.686879 -0.056067 255 255 0
1.732587 -0.692162 -0.151398 255 255 0
1.769785 -0.632594 -0.191383 255 255 0
1.804289 -0.633795 -0.068465 255 255 0
1.759787 -0.583442 -0.167334 255 255 0
1.825148 -0.660720 -0.077402 255 255 0
1.790423 -0.745349 -0.098432 255 255 0
1.709594 -0.809956 -0.055425 255 255 0
1.644754 -0.672508 -0.338432 255 255 0
1.657422 -0.637336 -0.338432 255 255 0
1.782678 -0.682363 0.065569 255 255 0
1.823409 -0.707378 -0.101108 255 255 0
1.686031 -0.632227 -0.116432 255 255 0
1.738957 -0.638310 0.071569 255 255 0
1.668757 -0.780829 -0.075959 255 255 0
1.692554 -0.695921 -0.342432 255 255 0
1.698741 -0.735962 -0.028431 255 255 0
1.757508 -0.642253 -0.219426 255 255 0
1.779650 -0.711234 0.065569 255 255 0
1.772035 -0.641251 -0.163428 255 255 0
1.730139 -0.684439 -0.166431 255 255 0
1.660685 -0.732085 0.041569 255 255 0
1.737942 -0.686209 -0.210432 255 255 0
1.722703 -0.796385 -0.069981 255 255 0
1.829115 -0.738244 -0.110431 255 255 0
1.682556 -0.677438 -0.103551 255 255 0
1.653174 -0.690610 0.041569 255 255 0
1.766211 -0.620554 -0.326431 255 255 0
1.738980 -0.597421 -0.218432 255 255 0
1.754108 -0.754445 -0.068431 255 255 0
1.731019 -0.757259 -0.035396 255 255 0
1.655121 -0.691069 -0.154432 255 255 0
1.777431 -0.779392 -0.303547 255 255 0
1.727570 -0.600335 -0.218432 255 255 0
1.638324 -0.668037 -0.112432 255 255 0
1.724046 -0.732345 -0.296432 255 255 0
1.751186 -0.662379 -0.366432 255 255 0
1.856053 -0.587546 -0.346431 255 255 0
1.697176 -0.733708 -0.063685 255 255 0
1.791549 -0.616774 -0.325188 255 255 0
1.669249 -0.740040 -0.148127 255 255 0
1.653996 -0.687726 -0.330432 255 255 0
1.705199 -0.686341 0.038611 255 255 0
1.684874 -0.632948 -0.346431 255 255 0
1.725071 -0.679423 -0.248431 255 255 0
1.743068 -0.657586 -0.070432 255 255 0
1.866590 -0.590800 -0.322431 255 255 0
1.740359 -0.814451 -0.050431 255 255 0
1.792994 -0.590743 -0.418432 255 255 0
1.722239 -0.769705 -0.298410 255 255 0
1.794481 -0.583745 -0.400432 255 255 0
1.858065 -0.630912 -0.358944 255 255 0
1.722377 -0.644002 -0.366432 255 255 0
1.732348 -0.760621 -0.304431 255 255 0
1.742877 -0.696394 -0.062432 255 255 0
1.787439 -0.664973 -0.186839 255 255 0
1.677272 -0.692673 0.047663 255 255 0
1.771788 -0.719370 -0.380432 255 255 0
1.740431 -0.789930 -0.045294 255 255 0
1.691645 -0.685504 0.047569 255 255 0
1.773172 -0.604689 -0.328431 255 255 0
1.717175 -0.716575 -0.360431 255 255 0
1.776670 -0.634058 -0.324432 255 255 0
1.846231 -0.571146 -0.317415 255 255 0
1.756914 -0.789344 -0.041307 255 255 0
1.658494 -0.655966 -0.335237 255 255 0
1.776880 -0.681130 0.011569 255 255 0
1.679522 -0.701330 0.042601 255 255 0
1.749806 -0.630393 -0.153635 255 255 0
1.743441 -0.708440 -0.030431 255 255 0
1.661371 -0.661666 -0.242432 255 255 0
1.692752 -0.677561 -0.335408 255 255 0
1.728694 -0.787435 -0.068265 255 255 0
1.695466 -0.712897 0.045105 255 255 0
1.713317 -0.696245 0.034586 255 255 0
1.677196 -0.639495 -0.058431 255 255 0
1.656140 -0.753611 -0.047680 255 255 0
1.825583 -0.754867 -0.106620 255 255 0
1.799028 -0.735500 0.019569 255 255 0
1.762083 -0.620734 -0.163387 255 255 0
1.644941 -0.671626 -0.240431 255 255 0
1.747097 -0.643140 -0.194431 255 255 0
1.815434 -0.611627 -0.358432 255 255 0
1.761884 -0.669764 -0.071244 255 255 0
1.732330 -0.698242 -0.096431 255 255 0
1.627095 -0.707489 0.031569 255 255 0
1.783697 -0.682579 0.020564 255 255 0
1.683003 -0.738874 -0.072431 255 255 0
1.700777 -0.630194 -0.347510 255 255 0
1.734057 -0.714104 -0.398432 255 255 0
1.655016 -0.643469 -0.242432 255 255 0
1.682139 -0.679395 -0.324628 255 255 0
1.717938 -0.703362 -0.413452 255 255 0
1.776628 -0.715836 0.014841 255 255 0
1.684852 -0.714731 0.047675 255 255 0
1.699009 -0.744321 -0.047431 255 255 0
1.762792 -0.627019 -0.187266 255 255 0
1.756084 -0.662397 -0.328431 255 255 0
1.826136 -0.722270 -0.102431 255 255 0
1.693386 -0.722679 -0.347175 255 255 0
1.682099 -0.660345 -0.050431 255 255 0
1.822700 -0.701093 -0.109410 255 255 0
1.742899 -0.714801 0.063569 255 255 0
1.844521 -0.598434 -0.362432 255 255 0
1.691505 -0.683430 0.079948 255 255 0
1.836224 -0.685565 0.008639 255 255 0
1.703828 -0.702407 -0.139152 255 255 0
1.705464 -0.762050 -0.039305 255 255 0
1.760590 -0.646997 -0.191374 255 255 0
1.799639 -0.694147 -0.101424 255 255 0
1.773896 -0.643692 -0.358432 255 255 0
1.663704 -0.751129 -0.160431 255 255 0
1.631740 -0.670726 0.033569 255 255 0
1.731925 -0.714513 -0.371446 255 255 0
1.778272 -0.611907 -0.322647 255 255 0
1.803288 -0.619269 -0.197354 255 255 0
1.856919 -0.578577 -0.322431 255 255 0
1.805924 -0.693438 -0.075407 255 255 0
1.803288 -0.619269 -0.331227 255 255 0
1.851627 -0.690052 -0.114431 255 255 0
1.700390 -0.669378 -0.359922 255 255 0
1.809781 -0.667677 -0.068431 255 255 0
1.744107 -0.647583 -0.212015 255 255 0
1.719820 -0.742610 -0.069368 255 255 0
1.684193 -0.622580 -0.246432 255 255 0
1.787001 -0.652611 -0.328431 255 255 0
1.702629 -0.736912 -0.071401 255 255 0
1.781428 -0.577818 -0.415793 255 255 0
1.787794 -0.749878 -0.306432 255 255 0
1.839817 -0.697519 -0.114431 255 255 0
1.826243 -0.732516 0.016585 255 255 0
1.635933 -0.656290 -0.116432 255 255 0
1.735002 -0.709664 0.001569 255 255 0
1.650291 -0.713794 -0.240431 255 255 0
1.747085 -0.758629 -0.028097 255 255 0
1.699036 -0.648226 -0.356432 255 255 0
1.639048 -0.637520 -0.064431 255 255 0
1.717475 -0.676682 0.074649 255 255 0
1.698498 -0.689006 -0.365423 255 255 0
1.761055 -0.665499 -0.186432 255 255 0
1.679370 -0.778996 -0.055422 255 255 0
1.712561 -0.709424 -0.388431 255 255 0
1.696731 -0.655915 0.077569 255 255 0
1.676053 -0.684235 0.077569 255 255 0
1.722163 -0.808538 -0.079303 255 255 0
1.833654 -0.666617 0.059569 255 255 0
1.729329 -0.717115 -0.360431 255 255 0
1.658160 -0.705630 -0.108432 255 255 0
1.735417 -0.707705 -0.414431 255 255 0
1.731142 -0.747061 -0.301397 255 255 0
1.655383 -0.761629 -0.054431 255 255 0
1.716648 -0.770562 -0.038432 255 255 0
1.817264 -0.701982 0.059569 255 255 0
1.763013 -0.714987 -0.396431 255 255 0
1.768242 -0.745665 0.017569 255 255 0
1.737034 -0.709719 -0.052432 255 255 0
1.780308 -0.696172 -0.362432 255 255 0
1.777752 -0.720165 -0.097360 255 255 0
1.804043 -0.654189 -0.323952 255 255 0
1.833170 -0.613353 -0.357999 255 255 0
1.733845 -0.729234 -0.294431 255 255 0
1.637871 -0.656792 -0.246432 255 255 0
1.783526 -0.664141 -0.327343 255 255 0
1.699038 -0.676852 -0.059341 255 255 0
1.689445 -0.789316 -0.043495 255 255 0
1.705322 -0.676144 -0.243404 255 255 0
1.710624 -0.757013 -0.047391 255 255 0
1.687006 -0.666116 0.075114 255 255 0
1.740097 -0.637595 -0.364431 255 255 0
1.762431 -0.690327 -0.364431 255 255 0
1.727261 -0.726841 -0.346431 255 255 0
1.728341 -0.683282 -0.360431 255 255 0
1.698791 -0.726112 -0.354431 255 255 0
1.784992 -0.674676 -0.062432 255 255 0
1.763868 -0.602711 -0.324163 255 255 0
1.672432 -0.686583 -0.334432 255 255 0
1.743540 -0.727206 -0.295402 255 255 0
1.753638 -0.718175 -0.352432 255 255 0
1.741802 -0.773864 -0.032031 255 255 0
1.659094 -0.686765 -0.112432 255 255 0
1.706687 -0.676434 -0.050431 255 255 0
1.788673 -0.644788 -0.192431 255 255 0
1.744051 -0.782520 -0.035597 255 255 0
1.801085 -0.639248 -0.322302 255 255 0
1.736705 -0.692026 -0.080432 255 255 0
1.779500 -0.665330 -0.348432 255 255 0
1.769323 -0.687703 -0.380432 255 255 0
1.814393 -0.576646 -0.363372 255 255 0
1.748396 -0.679165 -0.364431 255 255 0
1.671478 -0.652593 -0.328162 255 255 0
1.866280 -0.582643 -0.360431 255 255 0
1.777473 -0.596422 -0.330432 255 255 0
1.698147 -0.711423 -0.352432 255 255 0
1.788488 -0.708134 0.018575 255 255 0
1.794310 -0.680746 -0.071352 255 255 0
1.856061 -0.601860 -0.365408 255 255 0
1.705863 -0.712073 -0.376432 255 255 0
1.737207 -0.781066 -0.044431 255 255 0
1.766479 -0.696243 -0.396431 255 255 0
1.776675 -0.744472 -0.301351 255 255 0
1.831197 -0.569995 -0.338432 255 255 0
1.697446 -0.684337 -0.350431 255 255 0
1.787688 -0.663799 0.065569 255 255 0
1.786937 -0.634196 -0.166431 255 255 0
1.699781 -0.663733 -0.054431 255 255 0
1.743617 -0.688373 -0.257979 255 255 0
1.745007 -0.739550 -0.034432 255 255 0
1.738086 -0.672884 -0.220431 255 255 0
1.813870 -0.636817 -0.332431 255 255 0
1.735979 -0.623364 -0.214432 255 255 0
1.778846 -0.630431 -0.344432 255 255 0
1.745880 -0.677727 -0.332431 255 255 0
1.706276 -0.796708 -0.072431 255 255 0
1.741320 -0.651080 -0.365199 255 255 0
1.788223 -0.632424 -0.188226 255 255 0
1.768338 -0.639398 -0.184431 255 255 0
1.686708 -0.653785 -0.344432 255 255 0
1.639393 -0.678488 0.040176 255 255 0
1.669359 -0.676678 -0.152431 255 255 0
1.762578 -0.628024 -0.156431 255 255 0
1.757385 -0.652450 0.064667 255 255 0
1.742690 -0.635014 -0.340917 255 255 0
1.642088 -0.733145 0.039569 255 255 0
1.763378 -0.643501 -0.155399 255 255 0
1.786995 -0.734397 0.014674 255 255 0
1.682732 -0.753563 -0.040431 255 255 0
1.831792 -0.677555 -0.106431 255 255 0
1.757313 -0.614312 -0.158432 255 255 0
1.640878 -0.680848 -0.332431 255 255 0
1.805590 -0.608438 -0.332431 255 255 0
1.829851 -0.773265 -0.102431 255 255 0
1.796785 -0.572904 -0.357648 255 255 0
1.724436 -0.730511 -0.068431 255 255 0
1.836442 -0.732639 -0.107604 255 255 0
1.750971 -0.749962 -0.292432 255 255 0
1.726125 -0.649895 -0.212431 255 255 0
1.770506 -0.681820 -0.388431 255 255 0
1.694955 -0.676815 0.045569 255 255 0
1.719262 -0.658660 -0.367330 255 255 0
1.701136 -0.763175 -0.073258 255 255 0
1.813041 -0.688817 0.065135 255 255 0
1.808126 -0.673459 -0.197394 255 255 0
1.735383 -0.707868 -0.068431 255 255 0
1.734283 -0.698657 0.029569 255 255 0
1.645519 -0.678526 -0.056432 255 255 0
1.682433 -0.687636 -0.050283 255 255 0
1.684287 -0.769817 -0.076431 255 255 0
1.734203 -0.655702 -0.214304 255 255 0
1.858873 -0.579006 -0.332431 255 255 0
1.795406 -0.752543 0.008647 255 255 0
1.649495 -0.698305 -0.108432 255 255 0
1.734944 -0.767647 -0.064431 255 255 0
1.857270 -0.615406 -0.364431 255 255 0
1.785653 -0.682995 -0.347828 255 255 0
1.705341 -0.772248 -0.075389 255 255 0
1.706633 -0.807282 -0.046431 255 255 0
1.687799 -0.681625 -0.240431 255 255 0
1.652010 -0.705706 0.036588 255 255 0
1.787330 -0.691530 0.021569 255 255 0
1.720283 -0.769290 -0.065507 255 255 0
1.781432 -0.577801 -0.400432 255 255 0
1.818943 -0.738007 0.011569 255 255 0
1.663936 -0.740955 -0.158432 255 255 0
1.661694 -0.670959 -0.328431 255 255 0
1.684257 -0.739140 0.045569 255 255 0
1.743382 -0.776048 -0.066432 255 255 0
1.754078 -0.764205 -0.296143 255 255 0
1.628078 -0.722109 -0.164431 255 255 0
1.679908 -0.685055 -0.108432 255 255 0
1.705051 -0.744752 -0.034432 255 255 0
1.791867 -0.592305 -0.362432 255 255 0
1.678448 -0.703146 -0.142431 255 255 0
1.734864 -0.633351 -0.187535 255 255 0
1.737364 -0.708168 -0.014431 255 255 0
1.673379 -0.787945 -0.047444 255 255 0
1.737406 -0.698346 -0.044431 255 255 0
1.754372 -0.772446 -0.041318 255 255 0
1.653938 -0.754351 -0.158432 255 255 0
1.800411 -0.600255 -0.360431 255 255 0
1.685339 -0.755728 -0.074431 255 255 0
1.780379 -0.665517 -0.364431 255 255 0
1.794899 -0.725854 -0.094432 255 255 0
1.725688 -0.749992 -0.062432 255 255 0
1.735425 -0.601856 -0.162431 255 255 0
1.771372 -0.663602 -0.067324 255 255 0
1.717258 -0.629608 -0.345495 255 255 0
1.858415 -0.710729 0.007569 255 255 0
1.655214 -0.700252 -0.239651 255 255 0
1.734774 -0.720355 -0.346431 255 255 0
1.643817 -0.734634 -0.052822 255 255 0
1.831613 -0.572128 -0.322431 255 255 0
1.778809 -0.681540 -0.190432 255 255 0
1.748938 -0.801961 -0.044431 255 255 0
1.859517 -0.624080 -0.376432 255 255 0
1.713951 -0.741363 -0.294116 255 255 0
1.711169 -0.663074 0.077569 255 255 0
1.720783 -0.613024 -0.218432 255 255 0
1.749767 -0.740797 -0.288432 255 255 0
1.665038 -0.610330 -0.064431 255 255 0
1.820705 -0.625016 0.055569 255 255 0
1.643769 -0.705999 0.041986 255 255 0
1.693632 -0.702284 0.046756 255 255 0
1.759464 -0.642669 0.062635 255 255 0
1.825222 -0.621887 -0.079269 255 255 0
1.753718 -0.631224 -0.191416 255 255 0
1.778132 -0.761139 -0.306432 255 255 0
1.786555 -0.611411 -0.070432 255 255 0
1.819714 -0.663654 0.063569 255 255 0
1.635546 -0.686971 -0.158432 255 255 0
1.730536 -0.634475 0.074393 255 255 0
1.734290 -0.698658 -0.058431 255 255 0
1.719744 -0.781443 -0.035335 255 255 0
1.738824 -0.662818 0.076652 255 255 0
1.663408 -0.671324 -0.241316 255 255 0
1.771647 -0.758504 -0.296432 255 255 0
1.822823 -0.690896 -0.107380 255 255 0
1.777610 -0.634258 -0.165380 255 255 0
1.800642 -0.708672 0.016581 255 255 0
1.855838 -0.579322 -0.342432 255 255 0
1.712367 -0.758436 -0.072431 255 255 0
1.835023 -0.720070 -0.113415 255 255 0
1.749175 -0.722269 -0.368431 255 255 0
1.690993 -0.709902 -0.044431 255 255 0
1.774283 -0.649908 -0.157502 255 255 0
1.654968 -0.720647 0.038707 255 255 0
1.782940 -0.647659 -0.341895 255 255 0
1.764266 -0.716278 -0.360431 255 255 0
1.718524 -0.719843 -0.375168 255 255 0
1.682433 -0.687636 -0.147393 255 255 0
1.690796 -0.677145 -0.137694 255 255 0
1.738135 -0.752637 -0.064134 255 255 0
1.666781 -0.732410 -0.154432 255 255 0
1.775742 -0.676799 0.063569 255 255 0
1.811903 -0.670173 0.061569 255 255 0
1.640519 -0.682816 -0.341316 255 255 0
1.681553 -0.662913 -0.325843 255 255 0
1.736827 -0.681834 -0.262431 255 255 0
1.777978 -0.603666 -0.160978 255 255 0
1.720339 -0.634353 0.075846 255 255 0
1.718913 -0.785356 -0.067756 255 255 0
1.697422 -0.713313 -0.145416 255 255 0
1.687366 -0.799097 -0.071614 255 255 0
1.700474 -0.785526 -0.068808 255 255 0
1.734369 -0.683777 -0.336431 255 255 0
1.737663 -0.716380 0.039569 255 255 0
1.666521 -0.692432 -0.234431 255 255 0
1.759545 -0.613432 -0.190432 255 255 0
1.842971 -0.711536 0.011871 255 255 0
1.731750 -0.763441 -0.042431 255 255 0
1.696939 -0.648244 -0.346431 255 255 0
1.753057 -0.653575 -0.359688 255 255 0
1.708164 -0.723775 -0.344432 255 255 0
1.744164 -0.690534 -0.226431 255 255 0
1.852303 -0.570392 -0.310432 255 255 0
1.678615 -0.744075 -0.148571 255 255 0
1.740541 -0.702032 -0.154432 255 255 0
1.803628 -0.656146 0.063205 255 255 0
1.706570 -0.670275 0.082203 255 255 0
1.852864 -0.586869 -0.312432 255 255 0
1.801180 -0.696519 0.066396 255 255 0
1.721559 -0.695952 -0.112238 255 255 0
1.814090 -0.731978 -0.099415 255 255 0
1.734013 -0.690421 -0.192431 255 255 0
1.694827 -0.610090 0.069569 255 255 0
1.825035 -0.651629 0.059569 255 255 0
1.708141 -0.720594 -0.372432 255 255 0
1.840806 -0.678361 0.055569 255 255 0
1.662419 -0.704836 -0.152431 255 255 0
1.743556 -0.611696 -0.328431 255 255 0
1.847393 -0.579571 -0.362432 255 255 0
1.770276 -0.673592 -0.374431 255 255 0
1.797097 -0.677249 -0.101366 255 255 0
1.676517 -0.657753 -0.239354 255 255 0
1.766357 -0.706438 -0.396431 255 255 0
1.739248 -0.689489 -0.360431 255 255 0
1.701388 -0.718246 -0.360431 255 255 0
1.816812 -0.603741 -0.335351 255 255 0
1.746674 -0.699246 0.057569 255 255 0
1.666338 -0.753734 -0.045924 255 255 0
1.768685 -0.710059 -0.384432 255 255 0
1.645481 -0.726809 -0.161351 255 255 0
1.784481 -0.650031 -0.318777 255 255 0
1.760087 -0.735935 -0.288432 255 255 0
1.773499 -0.682456 -0.062343 255 255 0
1.826858 -0.681530 0.062029 255 255 0
1.770437 -0.773816 -0.304637 255 255 0
1.721407 -0.773618 -0.073330 255 255 0
1.778806 -0.619011 -0.192431 255 255 0
1.723884 -0.665776 0.076623 255 255 0
1.754904 -0.713264 -0.404432 255 255 0
1.679125 -0.717603 -0.108432 255 255 0
1.736012 -0.690845 -0.160431 255 255 0
1.746007 -0.782936 -0.301941 255 255 0
1.785186 -0.704429 0.063569 255 255 0
1.726671 -0.662279 -0.050304 255 255 0
1.718997 -0.636112 -0.358432 255 255 0
1.709357 -0.666778 -0.330221 255 255 0
1.738606 -0.707755 0.075569 255 255 0
1.770664 -0.657318 -0.329296 255 255 0
1.710189 -0.662865 -0.104422 255 255 0
1.672950 -0.684149 -0.144432 255 255 0
1.756969 -0.654407 -0.154671 255 255 0
1.794498 -0.583665 -0.410431 255 255 0
1.727538 -0.625659 -0.212431 255 255 0
1.712310 -0.710600 -0.412432 255 255 0
1.724856 -0.747770 -0.032422 255 255 0
1.719647 -0.803914 -0.042431 255 255 0
1.733204 -0.689261 -0.068431 255 255 0
1.713951 -0.741363 -0.062577 255 255 0
1.743621 -0.684284 -0.350431 255 255 0
1.781958 -0.729237 -0.097143 255 255 0
1.736868 -0.662402 -0.365390 255 255 0
1.670326 -0.715733 0.040725 255 255 0
1.700577 -0.679224 -0.367315 255 255 0
1.701211 -0.724342 -0.139408 255 255 0
1.696202 -0.651714 -0.055300 255 255 0
1.676270 -0.678147 -0.333404 255 255 0
1.801134 -0.667883 -0.197426 255 255 0
1.703450 -0.659388 -0.234431 255 255 0
1.686005 -0.651591 -0.052682 255 255 0
1.724574 -0.585573 -0.162431 255 255 0
1.649468 -0.688808 -0.245225 255 255 0
1.663361 -0.642688 -0.239389 255 255 0
1.665658 -0.679981 -0.111369 255 255 0
1.733277 -0.688913 -0.248431 255 255 0
1.660268 -0.768801 -0.048432 255 255 0
1.764065 -0.726838 -0.348432 255 255 0
1.735085 -0.699655 -0.124431 255 255 0
1.827085 -0.565031 -0.363277 255 255 0
1.730366 -0.616037 -0.161336 255 255 0
1.730066 -0.773414 -0.300431 255 255 0
1.850749 -0.684564 0.011352 255 255 0
1.785161 -0.723784 0.016598 255 255 0
1.747190 -0.638015 -0.068431 255 255 0
1.663026 -0.692357 0.043569 255 255 0
1.733145 -0.776113 -0.066455 255 255 0
1.707052 -0.744956 -0.304431 255 255 0
1.686932 -0.704949 -0.103044 255 255 0
1.788427 -0.631464 -0.070432 255 255 0
1.667122 -0.721186 -0.144926 255 255 0
1.723126 -0.630856 -0.063395 255 255 0
1.781844 -0.575862 -0.358130 255 255 0
1.689964 -0.681058 -0.057416 255 255 0
1.794508 -0.631716 -0.321738 255 255 0
1.642290 -0.717952 -0.154432 255 255 0
1.629821 -0.682587 -0.336431 255 255 0
1.769785 -0.632594 -0.359408 255 255 0
1.689303 -0.703409 -0.138004 255 255 0
1.780211 -0.690017 -0.370432 255 255 0
1.789233 -0.656532 -0.190432 255 255 0
1.727333 -0.639928 -0.210012 255 255 0
1.762792 -0.627019 -0.066932 255 255 0
1.704553 -0.775956 -0.042431 255 255 0
1.822587 -0.666309 0.015569 255 255 0
1.732530 -0.711675 -0.380432 255 255 0
1.653919 -0.677486 -0.331987 255 255 0
1.794152 -0.670489 -0.188431 255 255 0
1.677518 -0.672278 -0.232680 255 255 0
1.695619 -0.667947 -0.106431 255 255 0
1.764518 -0.756201 -0.034432 255 255 0
1.693652 -0.750290 -0.146431 255 255 0
1.791825 -0.753826 -0.100431 255 255 0
1.813457 -0.686860 -0.098346 255 255 0
1.769681 -0.738896 -0.292111 255 255 0
1.866087 -0.583545 -0.310943 255 255 0
1.728940 -0.767040 -0.030240 255 255 0
1.758876 -0.616579 -0.068431 255 255 0
1.757178 -0.687166 0.061569 255 255 0
1.784227 -0.705183 -0.350431 255 255 0
1.784853 -0.576501 -0.386432 255 255 0
1.707225 -0.750157 -0.064431 255 255 0
1.724951 -0.805042 -0.071729 255 255 0
1.728797 -0.652276 -0.158432 255 255 0
1.777995 -0.589356 -0.198431 255 255 0
1.791370 -0.761908 0.008605 255 255 0
1.635652 -0.696094 -0.113671 255 255 0
1.756649 -0.761730 -0.038432 255 255 0
1.770465 -0.706348 -0.409748 255 255 0
1.747108 -0.676847 -0.070432 255 255 0
1.820757 -0.748706 0.011569 255 255 0
1.811038 -0.659765 -0.073375 255 255 0
1.703935 -0.644195 -0.238431 255 255 0
1.706588 -0.766379 -0.065923 255 255 0
1.780079 -0.689975 0.069569 255 255 0
1.838975 -0.576422 -0.324432 255 255 0
1.754890 -0.712285 -0.376432 255 255 0
1.817610 -0.679564 -0.102431 255 255 0
1.628025 -0.645401 -0.343426 255 255 0
1.713786 -0.674802 -0.058431 255 255 0
1.772450 -0.639295 -0.373425 255 255 0
1.681942 -0.728425 -0.142824 255 255 0
1.761837 -0.641129 -0.362982 255 255 0
1.635018 -0.650977 -0.334635 255 255 0
1.682364 -0.649483 -0.112432 255 255 0
1.721152 -0.640659 -0.054431 255 255 0
1.628734 -0.651685 -0.249312 255 255 0
1.820498 -0.721072 0.059479 255 255 0
1.742929 -0.696405 -0.184431 255 255 0
1.856851 -0.588526 -0.362432 255 255 0
1.812087 -0.702926 0.014597 255 255 0
1.707817 -0.664406 -0.048771 255 255 0
1.743393 -0.626985 -0.158432 255 255 0
1.649639 -0.707246 -0.152660 255 255 0
1.692331 -0.660302 0.039569 255 255 0
1.827974 -0.599980 -0.332431 255 255 0
1.771309 -0.702380 -0.098432 255 255 0
1.685956 -0.651817 -0.328431 255 255 0
1.762546 -0.647413 -0.329374 255 255 0
1.794479 -0.583751 -0.380432 255 255 0
1.664461 -0.685614 -0.328431 255 255 0
1.743814 -0.639342 -0.209332 255 255 0
1.786929 -0.609658 -0.326949 255 255 0
1.772182 -0.626970 -0.068431 255 255 0
1.735814 -0.690803 -0.120431 255 255 0
1.700572 -0.732385 -0.044431 255 255 0
1.626578 -0.700300 -0.119076 255 255 0
1.742551 -0.706548 0.043569 255 255 0
1.745327 -0.709183 -0.412701 255 255 0
1.699991 -0.662742 -0.367328 255 255 0
1.681376 -0.692607 -0.332431 255 255 0
1.785605 -0.654359 -0.064146 255 255 0
1.743745 -0.692489 -0.116432 255 255 0
1.804431 -0.719701 0.020992 255 255 0
1.727579 -0.619534 0.072112 255 255 0
1.693202 -0.704308 -0.340431 255 255 0
1.690627 -0.658707 -0.355447 255 255 0
1.722408 -0.749671 -0.296432 255 255 0
1.716248 -0.778655 -0.043411 255 255 0
1.800943 -0.601438 -0.330432 255 255 0
1.732804 -0.739236 -0.288853 255 255 0
1.842288 -0.703212 -0.108432 255 255 0
1.680277 -0.736250 -0.042013 255 255 0
1.725671 -0.724697 -0.356432 255 255 0
1.743200 -0.690329 -0.135415 255 255 0
1.732710 -0.681965 -0.345404 255 255 0
1.692829 -0.638728 -0.332733 255 255 0
1.710850 -0.640514 -0.053923 255 255 0
1.680064 -0.674864 -0.054431 255 255 0
1.724446 -0.682366 -0.336431 255 255 0
1.830445 -0.683889 0.015569 255 255 0
1.715292 -0.792765 -0.075408 255 255 0
1.743495 -0.717802 -0.384432 255 255 0
1.723886 -0.713863 -0.368431 255 255 0
1.714120 -0.759801 -0.037336 255 255 0
1.671547 -0.661892 -0.332431 255 255 0
1.682281 -0.765301 -0.051308 255 255 0
1.854464 -0.734425 -0.112203 255 255 0
1.696751 -0.687611 -0.110431 255 255 0
1.800090 -0.663572 -0.188431 255 255 0
1.656461 -0.694384 -0.115428 255 255 0
1.654327 -0.675565 -0.236432 255 255 0
1.715306 -0.710981 -0.380432 255 255 0
1.705312 -0.637710 0.075569 255 255 0
1.712860 -0.717639 -0.352432 255 255 0
1.768054 -0.727311 0.019569 255 255 0
1.740613 -0.692884 -0.102431 255 255 0
1.783989 -0.690820 -0.069419 255 255 0
1.703044 -0.734955 -0.147312 255 255 0
1.737639 -0.683013 -0.200432 255 255 0
1.816975 -0.693742 0.019569 255 255 0
1.789906 -0.720703 0.023794 255 255 0
1.776608 -0.619732 -0.225402 255 255 0
1.701178 -0.613922 -0.162431 255 255 0
1.749086 -0.677267 -0.194431 255 255 0
1.732916 -0.794466 -0.040431 255 255 0
1.696788 -0.668196 -0.232785 255 255 0
1.667566 -0.651761 0.070588 255 255 0
1.754944 -0.740894 -0.298432 255 255 0
1.644213 -0.718361 -0.112432 255 255 0
1.735961 -0.705148 -0.027828 255 255 0
1.662666 -0.674815 0.041569 255 255 0
1.729611 -0.662904 -0.222431 255 255 0
1.737413 -0.698314 -0.010431 255 255 0
1.708818 -0.678931 -0.360448 255 255 0
1.666216 -0.648494 -0.114431 255 255 0
1.807806 -0.732687 0.012632 255 255 0
1.680258 -0.688242 -0.238431 255 255 0
1.707538 -0.791117 -0.044431 255 255 0
1.779006 -0.627695 -0.188431 255 255 0
1.816755 -0.738678 -0.109406 255 255 0
1.710905 -0.779564 -0.074431 255 255 0
1.740767 -0.745018 -0.298432 255 255 0
1.731093 -0.704113 -0.020432 255 255 0
1.692279 -0.641308 -0.348432 255 255 0
1.683925 -0.719093 -0.140432 255 255 0
1.829796 -0.600367 -0.363377 255 255 0
1.680428 -0.706687 -0.240431 255 255 0
1.749012 -0.711089 -0.384432 255 255 0
1.658050 -0.725391 -0.157404 255 255 0
1.687858 -0.731727 -0.042431 255 255 0
1.652331 -0.646478 -0.063401 255 255 0
1.825729 -0.725319 0.011569 255 255 0
1.796811 -0.654696 -0.070432 255 255 0
1.748851 -0.644502 0.068593 255 255 0
1.795630 -0.621731 -0.194431 255 255 0
1.685960 -0.686341 -0.102431 255 255 0
1.735234 -0.698948 -0.088431 255 255 0
1.748388 -0.617823 -0.323612 255 255 0
1.785557 -0.695243 -0.344432 255 255 0
1.709038 -0.610564 -0.162431 255 255 0
1.687375 -0.635525 -0.245300 255 255 0
1.740939 -0.681732 -0.290431 255 255 0
1.779320 -0.655068 -0.183772 255 255 0
1.661451 -0.670908 -0.113402 255 255 0
1.839864 -0.575926 -0.342432 255 255 0
1.841336 -0.651893 0.054741 255 255 0
1.724083 -0.602434 -0.162431 255 255 0
1.694831 -0.667780 -0.333419 255 255 0
1.795428 -0.656447 -0.322431 255 255 0
1.775612 -0.703352 -0.384432 255 255 0
1.841948 -0.613173 -0.360431 255 255 0
1.775480 -0.663516 0.065569 255 255 0
1.709574 -0.713852 -0.043742 255 255 0
1.726273 -0.712253 -0.402432 255 255 0
1.711578 -0.742903 -0.147311 255 255 0
1.788270 -0.661060 -0.071425 255 255 0
1.705832 -0.731458 -0.064931 255 255 0
1.713148 -0.725901 -0.070432 255 255 0
1.799762 -0.683949 0.016605 255 255 0
1.785501 -0.760661 -0.105304 255 255 0
1.758878 -0.626187 -0.320737 255 255 0
1.781229 -0.626848 -0.325358 255 255 0
1.663502 -0.728595 -0.147585 255 255 0
1.664116 -0.677609 -0.054380 255 255 0
1.677854 -0.723467 -0.150432 255 255 0
1.734080 -0.665899 -0.167356 255 255 0
1.751289 -0.709990 0.009569 255 255 0
1.684095 -0.679810 -0.231439 255 255 0
1.820450 -0.655632 -0.072431 255 255 0
1.780329 -0.655283 -0.366432 255 255 0
1.720883 -0.670270 -0.364431 255 255 0
1.762495 -0.704653 -0.098432 255 255 0
1.745033 -0.700942 0.006528 255 255 0
1.717769 -0.684923 -0.242030 255 255 0
1.809721 -0.632904 0.055569 255 255 0
1.757132 -0.711364 -0.414431 255 255 0
1.739235 -0.583932 -0.220431 255 255 0
1.703496 -0.713596 -0.368431 255 255 0
1.683619 -0.643572 -0.054431 255 255 0
1.842432 -0.723689 -0.115396 255 255 0
1.761790 -0.718303 -0.382431 255 255 0
1.797279 -0.705251 0.023569 255 255 0
1.704858 -0.649464 -0.331201 255 255 0
1.745358 -0.694877 -0.364431 255 255 0
1.750863 -0.654281 -0.070432 255 255 0
1.763659 -0.603695 -0.162431 255 255 0
1.818957 -0.718700 0.012592 255 255 0
