ply
format ascii 1.0
element vertex 1220
property float x
property float y
property float z
property uchar red
property uchar green
property uchar blue
end_header
-0.267459 0.238486 0.270802 154 147 135
-0.266681 0.266991 0.276574 150 147 135
-0.266500 0.251538 0.289754 154 150 141
-0.196100 0.558033 -0.153213 255 235 204
-0.229473 0.539105 -0.152885 254 235 202
-0.224268 0.522443 -0.153528 254 234 201
0.270562 0.376755 -0.180663 147 138 118
-0.267693 0.499257 0.222468 184 191 179
-0.267705 0.474095 0.232398 183 189 179
-0.266854 0.486938 0.228439 183 191 179
-0.129870 -0.138268 -0.254663 254 244 226
-0.186666 0.086895 -0.111055 253 243 210
-0.193723 0.084780 -0.102365 244 235 201
0.266175 0.112456 -0.335966 84 76 65
-0.267247 0.073175 0.012336 249 236 205
-0.267015 0.058401 0.035336 245 233 202
-0.168088 0.223743 -0.107408 203 220 159
-0.180392 0.226245 -0.083383 196 216 148
-0.162970 0.219757 -0.120120 203 212 152
-0.176169 0.220092 -0.094664 196 204 144
-0.267852 0.171733 0.011587 247 235 207
-0.268013 0.169300 0.042086 230 220 188
0.163828 -0.480655 -0.142185 0 0 255
0.242886 -0.553079 -0.158186 0 0 255
0.245776 -0.462932 -0.158186 0 0 255
0.171822 -0.553591 -0.140186 0 0 255
0.205197 -0.464480 -0.140186 0 0 255
0.152845 -0.519465 -0.160185 0 0 255
0.209338 -0.552308 -0.140186 0 0 255
0.156604 -0.524567 -0.123831 0 0 255
0.179648 -0.459423 -0.144184 0 0 255
0.152521 -0.544170 -0.154186 0 0 255
0.162267 -0.505373 -0.142185 0 0 255
0.229848 -0.465009 -0.139604 0 0 255
0.156383 -0.461518 -0.154186 0 0 255
0.154433 -0.493020 -0.159185 0 0 255
0.158807 -0.492085 -0.123558 0 0 255
0.154968 -0.546868 -0.127806 0 0 255
0.190131 -0.546695 -0.146185 0 0 255
0.228912 -0.548509 -0.144184 0 0 255
0.161576 -0.529303 -0.144184 0 0 255
0.162060 -0.463534 -0.132185 0 0 255
0.163716 -0.476828 -0.160185 0 0 255
0.230350 -0.463074 -0.155161 0 0 255
0.161844 -0.532119 -0.160185 0 0 255
0.156455 -0.477217 -0.128185 0 0 255
0.154573 -0.492484 -0.140186 0 0 255
0.153299 -0.513384 -0.133316 0 0 255
0.155651 -0.552215 -0.142185 0 0 255
0.152164 -0.533749 -0.134010 0 0 255
0.218231 -0.462005 -0.147172 0 0 255
0.167518 -0.466387 -0.146185 0 0 255
0.162546 -0.509578 -0.155176 0 0 255
0.153412 -0.517545 -0.146185 0 0 255
0.193014 -0.459615 -0.146185 0 0 255
0.228180 -0.551342 -0.157172 0 0 255
0.154692 -0.472429 -0.146185 0 0 255
0.163052 -0.493182 -0.150185 0 0 255
0.158239 -0.502267 -0.130757 0 0 255
0.152336 -0.529660 -0.152185 0 0 255
0.160442 -0.541677 -0.138185 0 0 255
0.165132 -0.491655 -0.134185 0 0 255
0.155750 -0.460306 -0.142185 0 0 255
0.161910 -0.521807 -0.134185 0 0 255
0.162375 -0.521929 -0.154186 0 0 255
0.157471 -0.537187 -0.122140 0 0 255
0.154720 -0.480698 -0.154186 0 0 255
0.184513 -0.552442 -0.138056 0 0 255
0.153571 -0.501059 -0.148185 0 0 255
0.178784 -0.546830 -0.146185 0 0 255
0.196632 -0.553511 -0.139877 0 0 255
0.222805 -0.556149 -0.138471 0 0 255
0.239461 -0.467783 -0.150185 0 0 255
0.218982 -0.551028 -0.148185 0 0 255
0.162846 -0.532379 -0.130344 0 0 255
0.161171 -0.538856 -0.150185 0 0 255
0.235530 -0.555308 -0.150185 0 0 255
0.164650 -0.549372 -0.147150 0 0 255
0.155186 -0.470490 -0.160185 0 0 255
0.152049 -0.541981 -0.144184 0 0 255
0.163111 -0.487001 -0.158186 0 0 255
0.164256 -0.466639 -0.158186 0 0 255
0.155663 -0.483008 -0.136185 0 0 255
0.164192 -0.472819 -0.136185 0 0 255
0.174166 -0.464644 -0.138185 0 0 255
0.184055 -0.465561 -0.138185 0 0 255
0.200071 -0.548204 -0.147150 0 0 255
0.163619 -0.483000 -0.130185 0 0 255
0.156416 -0.485352 -0.146185 0 0 255
0.153565 -0.512355 -0.154186 0 0 255
0.161542 -0.515516 -0.142185 0 0 255
0.153599 -0.536185 -0.161086 0 0 255
0.162912 -0.476208 -0.150185 0 0 255
0.153409 -0.509281 -0.142185 0 0 255
0.153015 -0.525704 -0.138185 0 0 255
0.221051 -0.467077 -0.140186 0 0 255
0.156445 -0.468750 -0.138185 0 0 255
0.152066 -0.546118 -0.136185 0 0 255
0.164389 -0.458410 -0.142185 0 0 255
0.236660 -0.462640 -0.161166 0 0 255
0.162379 -0.470285 -0.126857 0 0 255
0.161754 -0.512642 -0.134185 0 0 255
0.196766 -0.465126 -0.140186 0 0 255
0.153589 -0.532050 -0.144184 0 0 255
0.158874 -0.483838 -0.122192 0 0 255
0.163668 -0.497253 -0.140186 0 0 255
0.157205 -0.490293 -0.132185 0 0 255
0.153666 -0.527939 -0.161049 0 0 255
0.201739 -0.461872 -0.147177 0 0 255
0.158607 -0.516823 -0.127887 0 0 255
0.171441 -0.459206 -0.146185 0 0 255
0.159412 -0.539755 -0.130185 0 0 255
0.208316 -0.548270 -0.147169 0 0 255
0.163183 -0.459186 -0.150185 0 0 255
0.210235 -0.460969 -0.146185 0 0 255
0.225753 -0.464872 -0.148185 0 0 255
0.162345 -0.530183 -0.152185 0 0 255
0.154557 -0.500530 -0.140186 0 0 255
0.154251 -0.492973 -0.148185 0 0 255
0.213357 -0.464875 -0.139864 0 0 255
0.234722 -0.462139 -0.147290 0 0 255
0.158081 -0.550806 -0.134185 0 0 255
0.162209 -0.488833 -0.142185 0 0 255
0.159420 -0.510834 -0.148185 0 0 255
0.153153 -0.521936 -0.130185 0 0 255
0.156938 -0.483338 -0.161019 0 0 255
0.229055 -0.555945 -0.146185 0 0 255
0.162746 -0.484840 -0.150879 0 0 255
0.160771 -0.533909 -0.138185 0 0 255
0.161478 -0.521696 -0.146591 0 0 255
0.152297 -0.549207 -0.148185 0 0 255
0.159508 -0.465411 -0.148648 0 0 255
0.171460 -0.547002 -0.145225 0 0 255
0.154465 -0.524852 -0.146185 0 0 255
0.160860 -0.500118 -0.148185 0 0 255
0.161979 -0.519761 -0.161185 0 0 255
0.165688 -0.465476 -0.138185 0 0 255
0.156481 -0.477023 -0.140186 0 0 255
0.186188 -0.461982 -0.146185 0 0 255
0.159842 -0.543996 -0.155081 0 0 255
0.162276 -0.472324 -0.144184 0 0 255
0.154307 -0.530172 -0.128185 0 0 255
0.184785 -0.551394 -0.146185 0 0 255
0.156256 -0.497622 -0.154186 0 0 255
0.158657 -0.471388 -0.154186 0 0 255
0.202942 -0.553077 -0.142770 0 0 255
0.156506 -0.468766 -0.130185 0 0 255
0.217115 -0.552612 -0.140186 0 0 255
0.158741 -0.516304 -0.152185 0 0 255
0.155536 -0.485041 -0.128185 0 0 255
0.155831 -0.519568 -0.138185 0 0 255
0.155138 -0.474322 -0.134185 0 0 255
0.152930 -0.540144 -0.132185 0 0 255
0.155258 -0.497363 -0.134185 0 0 255
0.161988 -0.552815 -0.140186 0 0 255
0.160341 -0.544126 -0.146185 0 0 255
0.152822 -0.535985 -0.154186 0 0 255
0.165197 -0.475364 -0.130185 0 0 255
0.162129 -0.536325 -0.144184 0 0 255
0.160437 -0.496638 -0.128185 0 0 255
0.178705 -0.550941 -0.140644 0 0 255
0.224555 -0.549381 -0.152185 0 0 255
0.190674 -0.552584 -0.142185 0 0 255
0.154645 -0.488943 -0.154186 0 0 255
0.240723 -0.462902 -0.154186 0 0 255
0.233240 -0.467952 -0.144184 0 0 255
0.159212 -0.538446 -0.158186 0 0 255
0.158436 -0.508515 -0.138185 0 0 255
0.156604 -0.524567 -0.154680 0 0 255
0.153823 -0.538309 -0.138185 0 0 255
0.237896 -0.549723 -0.156185 0 0 255
0.157038 -0.530876 -0.122299 0 0 255
0.163226 -0.484965 -0.136185 0 0 255
0.161445 -0.523754 -0.140186 0 0 255
0.156504 -0.477028 -0.161060 0 0 255
0.162149 -0.488817 -0.128185 0 0 255
0.161342 -0.523727 -0.128185 0 0 255
0.152837 -0.519462 -0.152185 0 0 255
0.167028 -0.468284 -0.152185 0 0 255
0.190483 -0.465458 -0.140186 0 0 255
0.162313 -0.478531 -0.125605 0 0 255
0.157356 -0.462789 -0.136185 0 0 255
0.162106 -0.497068 -0.134185 0 0 255
0.213391 -0.552614 -0.146185 0 0 255
0.156873 -0.459621 -0.148185 0 0 255
0.159650 -0.525355 -0.160185 0 0 255
0.157038 -0.530876 -0.156634 0 0 255
0.157939 -0.479466 -0.145716 0 0 255
0.222371 -0.549839 -0.143312 0 0 255
0.164682 -0.481209 -0.156185 0 0 255
0.153218 -0.537658 -0.148185 0 0 255
0.162603 -0.478607 -0.136185 0 0 255
0.153497 -0.509304 -0.148185 0 0 255
0.162240 -0.528091 -0.136185 0 0 255
0.194969 -0.551951 -0.146185 0 0 255
0.231611 -0.466182 -0.150185 0 0 255
0.155129 -0.540713 -0.126186 0 0 255
0.163297 -0.506675 -0.150185 0 0 255
0.160266 -0.502792 -0.136185 0 0 255
0.225731 -0.461879 -0.142185 0 0 255
0.160187 -0.515166 -0.158186 0 0 255
0.235948 -0.465389 -0.156185 0 0 255
0.162446 -0.462039 -0.155093 0 0 255
0.157054 -0.530814 -0.134185 0 0 255
0.155097 -0.546369 -0.142185 0 0 255
0.156628 -0.532838 -0.150185 0 0 255
0.158306 -0.494021 -0.144188 0 0 255
0.180166 -0.465409 -0.142185 0 0 255
0.157191 -0.547444 -0.150185 0 0 255
-0.148374 -0.340340 -0.038185 255 125 0
-0.189426 -0.304933 0.124356 255 125 0
-0.181481 -0.282199 -0.163176 255 125 0
-0.176361 -0.278380 0.031815 255 125 0
-0.200061 -0.295986 -0.084184 255 125 0
-0.148535 -0.340298 -0.122185 255 125 0
-0.151709 -0.342817 0.067814 255 125 0
-0.191040 -0.341700 0.013815 255 125 0
-0.173751 -0.280066 -0.030185 255 125 0
-0.141057 -0.285650 0.081815 255 125 0
-0.140333 -0.298825 -0.080186 255 125 0
-0.135941 -0.318765 0.015815 255 125 0
-0.204371 -0.315528 0.067814 255 125 0
-0.195508 -0.336439 -0.154186 255 125 0
-0.201766 -0.326530 -0.038185 255 125 0
-0.181473 -0.346069 -0.082185 255 125 0
-0.168396 -0.351423 0.121816 255 125 0
-0.140600 -0.311362 -0.162185 255 125 0
-0.149345 -0.285741 -0.124185 255 125 0
-0.186063 -0.275952 0.081815 255 125 0
-0.201227 -0.299815 -0.000185 255 125 0
-0.201336 -0.299788 -0.128185 255 125 0
-0.148249 -0.313515 0.121816 255 125 0
-0.139152 -0.302244 -0.022185 255 125 0
-0.170597 -0.315999 0.089815 255 125 0
-0.143256 -0.294149 0.043943 255 125 0
-0.195309 -0.335671 -0.116185 255 125 0
-0.145496 -0.336952 -0.076185 255 125 0
-0.158292 -0.344301 -0.158186 255 125 0
-0.157578 -0.346223 -0.002185 255 125 0
-0.185152 -0.344320 0.051815 255 125 0
-0.171991 -0.277453 -0.096185 255 125 0
-0.195865 -0.309466 0.033815 255 125 0
-0.149765 -0.287367 0.009815 255 125 0
-0.154067 -0.343941 0.031815 255 125 0
-0.198280 -0.294379 -0.050185 255 125 0
-0.137146 -0.318452 0.084177 255 125 0
-0.136066 -0.312535 -0.110185 255 125 0
-0.147863 -0.288001 -0.050185 255 125 0
-0.190412 -0.340698 0.083815 255 125 0
-0.177515 -0.346746 -0.050185 255 125 0
-0.202553 -0.324263 -0.070184 255 125 0
-0.185199 -0.344502 -0.018185 255 125 0
-0.135395 -0.316841 -0.054184 255 125 0
-0.202046 -0.305801 -0.158533 255 125 0
-0.178799 -0.279819 -0.130185 255 125 0
-0.194887 -0.289061 0.055815 255 125 0
-0.136480 -0.322757 0.049816 255 125 0
-0.175525 -0.347037 -0.134185 255 125 0
-0.176607 -0.279328 -0.067641 255 125 0
-0.179044 -0.280763 -0.001797 255 125 0
-0.153132 -0.284415 -0.162185 255 125 0
-0.185753 -0.330672 0.113180 255 125 0
-0.139090 -0.328279 -0.012185 255 125 0
-0.136026 -0.320809 -0.136185 255 125 0
-0.205191 -0.313250 -0.104185 255 125 0
-0.201212 -0.326542 -0.006186 255 125 0
-0.169480 -0.347628 -0.106185 255 125 0
-0.166325 -0.295487 0.105816 255 125 0
-0.171297 -0.278635 0.059815 255 125 0
-0.202762 -0.303549 -0.026184 255 125 0
-0.161172 -0.330832 0.107815 255 125 0
-0.165792 -0.293425 0.079815 255 125 0
-0.194233 -0.299558 0.084337 255 125 0
-0.192862 -0.287519 -0.108185 255 125 0
-0.150236 -0.289192 -0.100185 255 125 0
-0.154282 -0.285101 -0.014185 255 125 0
-0.150585 -0.330482 -0.100185 255 125 0
-0.144689 -0.304108 0.065815 255 125 0
-0.203269 -0.322011 -0.136185 255 125 0
-0.140199 -0.298307 -0.142185 255 125 0
-0.194525 -0.289154 0.019816 255 125 0
-0.198546 -0.332209 -0.092185 255 125 0
-0.167760 -0.347721 0.083815 255 125 0
-0.196937 -0.333977 0.034817 255 125 0
-0.170129 -0.318187 0.125407 255 125 0
-0.203163 -0.322037 0.015815 255 125 0
-0.158404 -0.336748 -0.058185 255 125 0
-0.175398 -0.338557 0.029816 255 125 0
-0.138015 -0.303768 -0.000185 255 125 0
-0.194316 -0.289208 -0.146185 255 125 0
-0.136035 -0.318741 -0.088185 255 125 0
-0.163286 -0.339652 -0.022185 255 125 0
-0.190777 -0.312847 0.101815 255 125 0
-0.141036 -0.331908 -0.154186 255 125 0
-0.147427 -0.305466 0.101815 255 125 0
-0.135761 -0.320878 -0.032185 255 125 0
-0.163966 -0.338374 0.049816 255 125 0
-0.138393 -0.299314 0.023815 255 125 0
-0.191408 -0.285827 -0.018185 255 125 0
-0.152234 -0.333144 0.013815 255 125 0
-0.160989 -0.346745 -0.086185 255 125 0
-0.193001 -0.322600 0.051815 255 125 0
-0.147859 -0.323946 0.031815 255 125 0
-0.151235 -0.285065 0.061815 255 125 0
-0.156643 -0.329937 0.084280 255 125 0
-0.189897 -0.330717 -0.054184 255 125 0
-0.177574 -0.338986 -0.163179 255 125 0
-0.187122 -0.319990 0.078892 255 125 0
-0.154309 -0.285093 0.029816 255 125 0
-0.183020 -0.281463 -0.048631 255 125 0
-0.158645 -0.337683 -0.139179 255 125 0
-0.177333 -0.338050 -0.000185 255 125 0
-0.195736 -0.305367 -0.067169 255 125 0
-0.163186 -0.299323 0.124925 255 125 0
-0.154276 -0.285101 -0.078185 255 125 0
-0.175404 -0.338580 0.067814 255 125 0
-0.165324 -0.347533 0.015815 255 125 0
-0.205211 -0.313246 -0.052186 255 125 0
-0.147821 -0.323955 0.065815 255 125 0
-0.195364 -0.335880 0.065815 255 125 0
-0.185085 -0.336076 -0.036185 255 125 0
-0.137899 -0.337342 0.079815 255 125 0
-0.143823 -0.304332 -0.041189 255 125 0
-0.152870 -0.283399 -0.143198 255 125 0
-0.185687 -0.282488 -0.084184 255 125 0
-0.195385 -0.315788 -0.120185 255 125 0
-0.203146 -0.305517 0.051815 255 125 0
-0.191529 -0.325048 -0.022185 255 125 0
-0.196063 -0.314620 -0.086185 255 125 0
-0.153070 -0.308138 0.084141 255 125 0
-0.144269 -0.302151 -0.062184 255 125 0
-0.188453 -0.333121 -0.134185 255 125 0
-0.189344 -0.292559 0.037815 255 125 0
-0.179375 -0.290033 0.119815 255 125 0
-0.169540 -0.347859 -0.068185 255 125 0
-0.157431 -0.277074 0.079815 255 125 0
-0.143568 -0.303345 -0.124185 255 125 0
-0.144382 -0.318648 -0.070184 255 125 0
-0.150513 -0.286075 -0.032185 255 125 0
-0.193144 -0.287360 -0.068185 255 125 0
-0.187024 -0.343574 -0.102185 255 125 0
-0.177507 -0.330740 0.097306 255 125 0
-0.174170 -0.277891 -0.147160 255 125 0
-0.146442 -0.338424 0.047816 255 125 0
-0.180379 -0.299010 0.095816 255 125 0
-0.205617 -0.327600 0.080387 255 125 0
-0.192071 -0.339123 -0.070184 255 125 0
-0.189793 -0.290377 -0.035327 255 125 0
-0.161289 -0.312209 0.109815 255 125 0
-0.147857 -0.323946 -0.044184 255 125 0
-0.177326 -0.338021 -0.118185 255 125 0
-0.148897 -0.331940 0.119854 255 125 0
-0.197325 -0.319501 0.119815 255 125 0
-0.142703 -0.304621 -0.096185 255 125 0
-0.135976 -0.310493 0.037815 255 125 0
-0.146145 -0.321301 0.001816 255 125 0
-0.174670 -0.279828 0.014765 255 125 0
-0.187603 -0.289896 0.071815 255 125 0
-0.195276 -0.307552 -0.142185 255 125 0
-0.195869 -0.321859 -0.163122 255 125 0
-0.137933 -0.326514 -0.120185 255 125 0
-0.165476 -0.348116 -0.038185 255 125 0
-0.196361 -0.311403 -0.012185 255 125 0
-0.194806 -0.305608 0.015815 255 125 0
-0.150083 -0.328538 -0.026184 255 125 0
-0.141335 -0.331831 -0.060185 255 125 0
-0.164985 -0.333978 0.123816 255 125 0
-0.137449 -0.301849 0.083815 255 125 0
-0.194734 -0.301493 -0.099188 255 125 0
-0.179244 -0.305501 0.078869 255 125 0
-0.182950 -0.343792 0.122984 255 125 0
-0.179244 -0.305501 0.110806 255 125 0
-0.195318 -0.307542 -0.040185 255 125 0
-0.201624 -0.299712 0.069815 255 125 0
-0.182287 -0.281990 0.047816 255 125 0
-0.172012 -0.346621 -0.150185 255 125 0
-0.163106 -0.346943 -0.122185 255 125 0
-0.154365 -0.320198 0.097815 255 125 0
-0.192731 -0.293749 -0.163047 255 125 0
-0.172633 -0.327868 0.078964 255 125 0
-0.141741 -0.296284 -0.158186 255 125 0
-0.191330 -0.328271 0.005815 255 125 0
-0.149145 -0.340887 -0.014185 255 125 0
-0.192450 -0.287625 -0.124185 255 125 0
-0.154105 -0.344090 -0.108185 255 125 0
-0.141190 -0.296750 -0.110185 255 125 0
-0.192974 -0.322608 -0.104185 255 125 0
-0.192937 -0.287499 0.003816 255 125 0
-0.143890 -0.312578 -0.147233 255 125 0
-0.145343 -0.314267 -0.012185 255 125 0
-0.204219 -0.319700 0.041815 255 125 0
-0.203683 -0.311576 0.083815 255 125 0
-0.180980 -0.280262 -0.115071 255 125 0
-0.173460 -0.339053 -0.094186 255 125 0
-0.171570 -0.347722 -0.012185 255 125 0
-0.192130 -0.339352 -0.005733 255 125 0
-0.148832 -0.327827 -0.132185 255 125 0
-0.169643 -0.348257 0.039814 255 125 0
-0.193798 -0.301736 -0.114185 255 125 0
-0.145613 -0.336922 -0.000185 255 125 0
-0.136284 -0.307132 0.053815 255 125 0
-0.179268 -0.337546 -0.062184 255 125 0
-0.179111 -0.289009 0.084751 255 125 0
-0.165382 -0.347754 0.061815 255 125 0
-0.152870 -0.283399 0.046862 255 125 0
-0.144564 -0.291223 -0.004185 255 125 0
-0.189626 -0.329671 0.022817 255 125 0
-0.204530 -0.317552 -0.150185 255 125 0
-0.204940 -0.313315 0.003816 255 125 0
-0.191328 -0.328265 -0.080186 255 125 0
-0.150543 -0.286068 -0.064185 255 125 0
-0.148328 -0.325890 -0.086185 255 125 0
-0.177496 -0.346672 -0.030185 255 125 0
-0.160843 -0.338193 -0.074185 255 125 0
-0.160815 -0.306135 0.096817 255 125 0
-0.171990 -0.277450 0.079815 255 125 0
-0.204278 -0.317617 -0.024184 255 125 0
-0.154067 -0.343944 0.083815 255 125 0
-0.137903 -0.324455 -0.102185 255 125 0
-0.184969 -0.343614 -0.144184 255 125 0
-0.187058 -0.343702 0.037815 255 125 0
-0.177329 -0.338035 0.015815 255 125 0
-0.136445 -0.315740 0.065815 255 125 0
-0.149107 -0.340150 -0.090185 255 125 0
-0.184686 -0.318554 0.125679 255 125 0
-0.151298 -0.329253 -0.114185 255 125 0
-0.161884 -0.318253 0.078946 255 125 0
-0.199700 -0.296079 -0.014185 255 125 0
-0.151771 -0.295126 0.079815 255 125 0
-0.142319 -0.333642 0.023815 255 125 0
-0.145317 -0.336998 -0.142185 255 125 0
-0.199776 -0.297023 0.029816 255 125 0
-0.193597 -0.287327 -0.094186 255 125 0
-0.144266 -0.302151 0.011816 255 125 0
-0.193531 -0.324530 -0.146185 255 125 0
-0.162775 -0.337675 0.073815 255 125 0
-0.144848 -0.312330 0.023815 255 125 0
-0.174203 -0.341923 0.112789 255 125 0
-0.195122 -0.318970 -0.060185 255 125 0
-0.179913 -0.319788 0.105816 255 125 0
-0.204781 -0.311291 0.023815 255 125 0
-0.192995 -0.322602 0.065815 255 125 0
-0.154218 -0.332630 0.057816 255 125 0
-0.139311 -0.330289 0.009815 255 125 0
-0.176306 -0.302129 0.125118 255 125 0
-0.193787 -0.337768 -0.026184 255 125 0
-0.167144 -0.338592 -0.048185 255 125 0
-0.179044 -0.280763 -0.015121 255 125 0
-0.203871 -0.307395 -0.078185 255 125 0
-0.179506 -0.346451 0.077816 255 125 0
-0.151256 -0.329264 -0.162185 255 125 0
-0.195466 -0.336275 0.049816 255 125 0
-0.185806 -0.334789 -0.090185 255 125 0
-0.135237 -0.316882 -0.004185 255 125 0
-0.145337 -0.314269 -0.026184 255 125 0
-0.182226 -0.285078 -0.100185 255 125 0
-0.165222 -0.339152 0.005815 255 125 0
-0.154292 -0.285099 -0.112186 255 125 0
-0.153504 -0.301828 0.112705 255 125 0
-0.205509 -0.306972 -0.116185 255 125 0
-0.201199 -0.326677 -0.124185 255 125 0
-0.162768 -0.337651 0.023815 255 125 0
-0.160835 -0.338164 -0.098184 255 125 0
-0.177507 -0.330740 0.124251 255 125 0
-0.190746 -0.341987 -0.046185 255 125 0
-0.204483 -0.307237 -0.092626 255 125 0
-0.186911 -0.343133 -0.126186 255 125 0
-0.143256 -0.294149 0.057306 255 125 0
-0.143815 -0.316728 -0.126186 255 125 0
-0.145855 -0.316201 0.043815 255 125 0
-0.193804 -0.301734 0.059815 255 125 0
-0.183517 -0.282086 0.061815 255 125 0
-0.164388 -0.327935 0.095602 255 125 0
-0.137014 -0.308158 -0.134185 255 125 0
-0.172633 -0.327868 0.112749 255 125 0
-0.136464 -0.310367 -0.076185 255 125 0
-0.148330 -0.321759 0.078907 255 125 0
-0.195025 -0.286959 0.081815 255 125 0
-0.177339 -0.338075 0.043815 255 125 0
-0.146161 -0.289408 -0.088185 255 125 0
-0.167525 -0.304400 0.085816 255 125 0
-0.154339 -0.344994 0.055147 255 125 0
-0.202584 -0.323860 0.029816 255 125 0
-0.144210 -0.291836 0.069815 255 125 0
-0.138473 -0.326374 -0.078185 255 125 0
-0.194410 -0.320171 -0.046185 255 125 0
-0.154195 -0.332637 0.039814 255 125 0
-0.141696 -0.331737 0.057816 255 125 0
-0.175389 -0.338521 -0.074185 255 125 0
-0.199778 -0.296059 0.043815 255 125 0
-0.151282 -0.329258 -0.068185 255 125 0
-0.144545 -0.291150 -0.020186 255 125 0
-0.138449 -0.299525 -0.051381 255 125 0
-0.185852 -0.334778 0.073815 255 125 0
-0.154559 -0.321879 0.113814 255 125 0
-0.151272 -0.329262 -0.008185 255 125 0
-0.194621 -0.317034 -0.032185 255 125 0
-0.147857 -0.323946 -0.144184 255 125 0
-0.156223 -0.344507 -0.048185 255 125 0
-0.194810 -0.305607 -0.054184 255 125 0
-0.183044 -0.320197 0.093816 255 125 0
-0.151693 -0.342750 -0.026184 255 125 0
-0.136041 -0.320806 0.029816 255 125 0
-0.202896 -0.324174 -0.112186 255 125 0
-0.148096 -0.292898 -0.134185 255 125 0
-0.141508 -0.295379 -0.032185 255 125 0
-0.135991 -0.320817 -0.152185 255 125 0
-0.175579 -0.347249 0.007814 255 125 0
-0.144207 -0.291838 0.031815 255 125 0
-0.188461 -0.284525 -0.136185 255 125 0
-0.192982 -0.322606 0.037815 255 125 0
-0.159599 -0.337436 -0.034186 255 125 0
-0.140773 -0.329910 0.039814 255 125 0
-0.185644 -0.285253 0.027815 255 125 0
-0.197022 -0.334307 -0.104185 255 125 0
-0.143437 -0.335419 -0.048185 255 125 0
-0.165342 -0.347602 -0.056185 255 125 0
-0.204273 -0.317620 0.055815 255 125 0
-0.188860 -0.342683 0.025815 255 125 0
-0.204813 -0.311283 -0.130185 255 125 0
-0.162771 -0.337662 -0.010185 255 125 0
-0.189892 -0.311010 0.113814 255 125 0
-0.159012 -0.323127 0.125501 255 125 0
-0.186509 -0.333595 0.057816 255 125 0
-0.136067 -0.308404 -0.032185 255 125 0
-0.134808 -0.314926 -0.018185 255 125 0
-0.203536 -0.319876 -0.094186 255 125 0
-0.152294 -0.343456 -0.066186 255 125 0
-0.195051 -0.310708 0.073815 255 125 0
-0.145323 -0.314274 0.057816 255 125 0
-0.192323 -0.295921 -0.136185 255 125 0
-0.147350 -0.322013 0.013815 255 125 0
-0.186413 -0.289187 -0.006186 255 125 0
-0.190785 -0.342138 -0.058185 255 125 0
-0.185184 -0.344445 0.063815 255 125 0
-0.173543 -0.347361 0.051815 255 125 0
-0.198615 -0.332478 -0.062184 255 125 0
-0.140834 -0.331960 -0.034186 255 125 0
-0.167482 -0.347886 0.027815 255 125 0
-0.199932 -0.296018 -0.038185 255 125 0
-0.193917 -0.318233 0.023815 255 125 0
-0.137700 -0.324507 0.073815 255 125 0
-0.205172 -0.313256 -0.036185 255 125 0
-0.204814 -0.313348 -0.064185 255 125 0
-0.154030 -0.335815 -0.150185 255 125 0
-0.144226 -0.302162 -0.010185 255 125 0
-0.193499 -0.328669 0.083892 255 125 0
-0.136040 -0.310476 -0.064185 255 125 0
-0.197018 -0.292641 -0.026184 255 125 0
-0.177326 -0.338023 -0.106185 255 125 0
-0.189405 -0.292544 -0.058185 255 125 0
-0.184157 -0.284559 -0.150185 255 125 0
-0.195558 -0.312669 0.045815 255 125 0
-0.152709 -0.343349 0.019816 255 125 0
-0.185854 -0.283132 0.012805 255 125 0
-0.144343 -0.310395 0.075816 255 125 0
-0.195402 -0.315783 -0.074185 255 125 0
-0.159598 -0.337436 -0.116185 255 125 0
-0.173467 -0.339080 -0.038185 255 125 0
-0.179010 -0.336549 0.084100 255 125 0
-0.143375 -0.334550 0.069815 255 125 0
-0.143052 -0.293362 -0.070184 255 125 0
-0.136589 -0.314467 -0.042185 255 125 0
-0.181089 -0.309154 0.089815 255 125 0
-0.159881 -0.310507 0.125461 255 125 0
-0.148294 -0.325900 0.049816 255 125 0
-0.175939 -0.316685 0.078850 255 125 0
-0.158989 -0.346997 -0.146185 255 125 0
-0.175391 -0.338530 -0.020186 255 125 0
-0.186515 -0.333617 -0.014185 255 125 0
-0.202483 -0.323469 -0.082185 255 125 0
-0.198531 -0.332151 -0.016184 255 125 0
-0.187246 -0.332352 0.041815 255 125 0
-0.144741 -0.304093 0.033815 255 125 0
-0.190294 -0.292314 -0.079227 255 125 0
-0.195391 -0.315785 0.009815 255 125 0
-0.156314 -0.344647 0.043815 255 125 0
-0.188691 -0.334045 -0.163140 255 125 0
-0.201293 -0.299799 -0.148185 255 125 0
-0.185104 -0.344138 -0.156185 255 125 0
-0.200396 -0.328952 0.057816 255 125 0
-0.146858 -0.292106 0.019816 255 125 0
-0.142569 -0.333577 -0.108185 255 125 0
-0.199965 -0.296011 -0.062184 255 125 0
-0.144637 -0.315466 -0.100185 255 125 0
-0.163267 -0.346817 -0.134185 255 125 0
-0.145645 -0.319366 -0.114185 255 125 0
-0.153016 -0.343271 0.007814 255 125 0
-0.200355 -0.328962 -0.050185 255 125 0
-0.198541 -0.332187 0.013815 255 125 0
-0.169395 -0.347297 0.072386 255 125 0
-0.149377 -0.290500 -0.152185 255 125 0
-0.190929 -0.310742 0.084527 255 125 0
-0.183460 -0.285818 -0.026184 255 125 0
-0.144073 -0.305298 0.045815 255 125 0
-0.157157 -0.336002 -0.128185 255 125 0
-0.186797 -0.342696 -0.114185 255 125 0
-0.153371 -0.285336 0.072819 255 125 0
-0.154289 -0.285099 -0.000185 255 125 0
-0.146344 -0.318141 -0.056185 255 125 0
-0.138148 -0.322326 -0.162990 255 125 0
-0.173458 -0.339044 -0.142185 255 125 0
-0.135644 -0.312645 0.006547 255 125 0
-0.150086 -0.328550 -0.054184 255 125 0
-0.183237 -0.281004 -0.036185 255 125 0
-0.192836 -0.297854 0.007814 255 125 0
-0.171267 -0.278642 -0.120185 255 125 0
-0.177903 -0.312045 0.119815 255 125 0
-0.140150 -0.330070 -0.092917 255 125 0
-0.144810 -0.312340 -0.086185 255 125 0
-0.166391 -0.335680 0.084056 255 125 0
-0.195960 -0.317704 -0.002185 255 125 0
-0.153027 -0.331932 0.025815 255 125 0
-0.195555 -0.312654 0.061815 255 125 0
-0.192590 -0.330971 0.121816 255 125 0
-0.187190 -0.344216 0.003816 255 125 0
-0.168895 -0.345362 -0.160875 255 125 0
-0.160885 -0.343302 0.119815 255 125 0
-0.195368 -0.335897 -0.142185 255 125 0
-0.205732 -0.308979 -0.006186 255 125 0
-0.192034 -0.338984 -0.082185 255 125 0
-0.172013 -0.297042 0.115815 255 125 0
-0.163291 -0.339672 0.035815 255 125 0
-0.173722 -0.280074 -0.054184 255 125 0
-0.204020 -0.305291 0.039814 255 125 0
-0.186505 -0.333577 -0.148185 255 125 0
-0.205455 -0.306985 0.013815 255 125 0
-0.169605 -0.340119 -0.128185 255 125 0
-0.188867 -0.290616 -0.046185 255 125 0
-0.201375 -0.327175 -0.154186 255 125 0
-0.190658 -0.329404 -0.124185 255 125 0
-0.179269 -0.281634 0.071815 255 125 0
-0.164572 -0.320660 0.103816 255 125 0
-0.138457 -0.328444 -0.024184 255 125 0
-0.176607 -0.279328 -0.079150 255 125 0
-0.194420 -0.320168 -0.130185 255 125 0
-0.137070 -0.304013 -0.152185 255 125 0
-0.184155 -0.281506 -0.060185 255 125 0
-0.136535 -0.308102 0.017815 255 125 0
-0.179578 -0.346731 0.021816 255 125 0
-0.171602 -0.347839 -0.088185 255 125 0
-0.181467 -0.346048 -0.008185 255 125 0
-0.196351 -0.311405 -0.110185 255 125 0
-0.153028 -0.331941 0.073815 255 125 0
-0.154641 -0.334587 -0.082185 255 125 0
-0.181207 -0.337057 -0.046185 255 125 0
-0.181487 -0.346129 -0.068185 255 125 0
-0.143051 -0.293360 -0.120185 255 125 0
-0.159089 -0.314844 0.089815 255 125 0
-0.195803 -0.313613 -0.099193 255 125 0
-0.137446 -0.324574 -0.046185 255 125 0
-0.155461 -0.333362 -0.018185 255 125 0
-0.200537 -0.328914 -0.026184 255 125 0
-0.191531 -0.325045 -0.010185 255 125 0
-0.190655 -0.329404 -0.042185 255 125 0
-0.181393 -0.345764 -0.040185 255 125 0
-0.167804 -0.347709 -0.000185 255 125 0
-0.202513 -0.323586 0.003816 255 125 0
-0.159008 -0.291156 0.119815 255 125 0
-0.192843 -0.297851 -0.006186 255 125 0
-0.146144 -0.321295 -0.034186 255 125 0
-0.155973 -0.335339 -0.000185 255 125 0
-0.157745 -0.286271 0.084810 255 125 0
-0.143131 -0.309643 -0.050185 255 125 0
-0.154218 -0.332630 -0.042185 255 125 0
-0.144524 -0.331007 0.084818 255 125 0
-0.192102 -0.326964 -0.068185 255 125 0
-0.170155 -0.334260 0.103816 255 125 0
-0.177340 -0.338077 0.055815 255 125 0
-0.159814 -0.302261 0.078838 255 125 0
-0.179269 -0.337552 -0.132185 255 125 0
-0.142945 -0.292951 -0.042185 255 125 0
-0.196268 -0.291450 0.065815 255 125 0
-0.185819 -0.334787 0.031815 255 125 0
-0.192762 -0.325820 -0.114185 255 125 0
-0.145421 -0.336972 0.033815 255 125 0
-0.203918 -0.301185 0.079815 255 125 0
-0.203100 -0.319989 -0.014185 255 125 0
-0.171915 -0.346646 -0.116185 255 125 0
-0.165211 -0.339108 -0.152185 255 125 0
-0.184137 -0.284478 -0.074185 255 125 0
-0.136320 -0.310404 -0.122185 255 125 0
-0.199936 -0.296018 -0.108185 255 125 0
-0.194269 -0.303681 -0.078185 255 125 0
-0.141320 -0.294651 -0.098331 255 125 0
-0.200121 -0.329023 0.071815 255 125 0
-0.180496 -0.310344 0.101815 255 125 0
-0.152870 -0.283399 0.018746 255 125 0
-0.146751 -0.338694 -0.132185 255 125 0
-0.143333 -0.306525 -0.114185 255 125 0
-0.137083 -0.322602 -0.064185 255 125 0
-0.185300 -0.344896 -0.092185 255 125 0
-0.145248 -0.322556 -0.018185 255 125 0
-0.196316 -0.311415 -0.152185 255 125 0
-0.202600 -0.303592 -0.046185 255 125 0
-0.167425 -0.347664 -0.078185 255 125 0
-0.148890 -0.339899 -0.056185 255 125 0
-0.189293 -0.320397 0.109815 255 125 0
-0.195432 -0.336146 -0.036185 255 125 0
-0.195372 -0.307526 0.003816 255 125 0
-0.186505 -0.333577 -0.104185 255 125 0
-0.183140 -0.283834 0.037815 255 125 0
-0.167450 -0.347766 -0.028185 255 125 0
-0.183550 -0.298190 0.084640 255 125 0
-0.192110 -0.326963 -0.032185 255 125 0
-0.144769 -0.304088 -0.072184 255 125 0
-0.160850 -0.338217 0.063815 255 125 0
-0.180385 -0.321732 0.115815 255 125 0
-0.144851 -0.312329 0.011816 255 125 0
-0.198600 -0.332420 -0.132185 255 125 0
-0.200436 -0.328941 0.043815 255 125 0
-0.135597 -0.312467 -0.096185 255 125 0
-0.143613 -0.300255 0.075816 255 125 0
-0.165335 -0.347574 -0.096185 255 125 0
-0.148463 -0.338251 -0.158348 255 125 0
-0.175499 -0.346933 0.061815 255 125 0
-0.188841 -0.290624 0.047816 255 125 0
-0.193797 -0.301736 -0.020186 255 125 0
-0.161004 -0.346806 -0.014185 255 125 0
-0.203413 -0.315776 -0.160185 255 125 0
-0.177041 -0.296986 0.105816 255 125 0
-0.165605 -0.324654 0.085816 255 125 0
-0.203432 -0.305443 -0.016184 255 125 0
-0.200624 -0.297905 0.019816 255 125 0
-0.153504 -0.301828 0.122774 255 125 0
-0.142963 -0.293021 -0.058185 255 125 0
-0.138824 -0.328349 -0.144184 255 125 0
-0.195277 -0.307550 -0.130185 255 125 0
-0.136918 -0.306118 -0.086185 255 125 0
-0.186312 -0.326396 0.101815 255 125 0
-0.139753 -0.328533 -0.002185 255 125 0
-0.177402 -0.346308 -0.100185 255 125 0
-0.199426 -0.296149 -0.072184 255 125 0
-0.175482 -0.346869 -0.060185 255 125 0
-0.173702 -0.339986 0.123736 255 125 0
-0.136159 -0.308380 0.027815 255 125 0
-0.163145 -0.303467 0.115815 255 125 0
-0.203442 -0.305440 0.061815 255 125 0
-0.197305 -0.319422 0.084216 255 125 0
-0.142506 -0.294343 0.005815 255 125 0
-0.182816 -0.327300 0.084262 255 125 0
-0.135864 -0.320851 0.039814 255 125 0
-0.193822 -0.301730 -0.032185 255 125 0
-0.196379 -0.311398 -0.022185 255 125 0
-0.193794 -0.301739 0.049816 255 125 0
-0.183146 -0.336565 -0.026184 255 125 0
-0.194198 -0.323386 -0.094186 255 125 0
-0.162811 -0.318013 0.117815 255 125 0
-0.154183 -0.344390 -0.078185 255 125 0
-0.201239 -0.299812 -0.138185 255 125 0
-0.144845 -0.312330 -0.002185 255 125 0
-0.175392 -0.338537 -0.084184 255 125 0
-0.145309 -0.322539 -0.156185 255 125 0
-0.136633 -0.308485 -0.010185 255 125 0
-0.184051 -0.300126 0.117552 255 125 0
-0.172233 -0.278393 0.040750 255 125 0
-0.194233 -0.299558 -0.155251 255 125 0
-0.175401 -0.338566 -0.010185 255 125 0
-0.139221 -0.328246 -0.130185 255 125 0
-0.198389 -0.294352 -0.120185 255 125 0
-0.149999 -0.288274 0.038857 255 125 0
-0.140206 -0.298334 -0.132185 255 125 0
-0.152733 -0.314822 0.105816 255 125 0
-0.137121 -0.304000 -0.104185 255 125 0
-0.177519 -0.346758 -0.124185 255 125 0
-0.149189 -0.340129 -0.100185 255 125 0
-0.198535 -0.332167 -0.074185 255 125 0
-0.192796 -0.297864 0.073815 255 125 0
-0.165218 -0.339132 -0.108185 255 125 0
-0.153774 -0.283166 -0.044184 255 125 0
-0.187233 -0.332355 0.013815 255 125 0
-0.144911 -0.337102 -0.022185 255 125 0
-0.195382 -0.336446 0.075816 255 125 0
-0.204982 -0.309174 -0.139610 255 125 0
-0.204244 -0.314303 0.033815 255 125 0
-0.185073 -0.301926 0.103816 255 125 0
-0.185087 -0.336087 -0.076185 255 125 0
-0.192828 -0.297856 -0.090185 255 125 0
-0.180881 -0.280287 -0.140186 255 125 0
-0.198971 -0.331386 0.023815 255 125 0
-0.147153 -0.325193 -0.122185 255 125 0
-0.166403 -0.339809 -0.064185 255 125 0
-0.174803 -0.296320 0.078868 255 125 0
-0.180940 -0.280109 -0.092185 255 125 0
-0.194302 -0.303671 0.025815 255 125 0
-0.178550 -0.338732 -0.150185 255 125 0
-0.189379 -0.286353 -0.158186 255 125 0
-0.162775 -0.337673 -0.088185 255 125 0
-0.203374 -0.305456 -0.058185 255 125 0
-0.152870 -0.283399 -0.093199 255 125 0
-0.147044 -0.338618 0.077816 255 125 0
-0.204427 -0.317580 -0.122185 255 125 0
-0.192052 -0.326978 -0.156185 255 125 0
-0.148017 -0.292919 -0.078185 255 125 0
-0.155630 -0.294071 0.107815 255 125 0
-0.143316 -0.314793 0.033815 255 125 0
-0.195932 -0.317712 -0.140186 255 125 0
-0.201145 -0.326691 -0.100185 255 125 0
-0.143340 -0.314787 -0.136185 255 125 0
-0.186507 -0.333586 -0.000185 255 125 0
-0.193592 -0.324513 0.015815 255 125 0
-0.194888 -0.289061 0.029816 255 125 0
-0.195381 -0.336446 0.003816 255 125 0
-0.169562 -0.308005 0.120931 255 125 0
-0.203977 -0.319763 -0.044184 255 125 0
-0.140326 -0.330749 -0.070184 255 125 0
-0.147858 -0.323946 -0.106185 255 125 0
-0.137310 -0.324609 0.061815 255 125 0
-0.188846 -0.290623 -0.116185 255 125 0
-0.136059 -0.314602 0.075816 255 125 0
-0.158661 -0.345731 0.075816 255 125 0
-0.169863 -0.285203 0.084406 255 125 0
-0.147759 -0.279613 0.079815 255 125 0
-0.146023 -0.288879 -0.110185 255 125 0
-0.195276 -0.307552 -0.092185 255 125 0
-0.143256 -0.294149 0.084641 255 125 0
-0.138073 -0.301687 0.039814 255 125 0
-0.135870 -0.312587 -0.142185 255 125 0
-0.191062 -0.327234 0.074818 255 125 0
-0.157862 -0.331687 0.117815 255 125 0
-0.155966 -0.335311 -0.106185 255 125 0
-0.146402 -0.322293 0.119815 255 125 0
-0.145306 -0.322541 -0.094186 255 125 0
-0.142495 -0.333596 -0.084184 255 125 0
-0.136373 -0.307479 0.069815 255 125 0
-0.171530 -0.339578 -0.056185 255 125 0
-0.177465 -0.346548 0.033815 255 125 0
-0.148317 -0.325894 -0.076185 255 125 0
-0.160850 -0.338217 0.013815 255 125 0
-0.168327 -0.339311 0.057816 255 125 0
-0.193808 -0.301734 0.039814 255 125 0
-0.203566 -0.319868 0.075816 255 125 0
-0.161072 -0.304003 0.105816 255 125 0
-0.192381 -0.339287 -0.096185 255 125 0
-0.180980 -0.280262 0.021791 255 125 0
-0.167479 -0.347875 -0.142185 255 125 0
-0.202644 -0.322173 -0.056185 255 125 0
-0.135276 -0.327200 0.082520 255 125 0
-0.158799 -0.346261 -0.032185 255 125 0
-0.165384 -0.347763 0.047816 255 125 0
-0.146394 -0.322259 0.022837 255 125 0
-0.150241 -0.289206 0.053815 255 125 0
-0.154219 -0.332630 -0.092185 255 125 0
-0.175633 -0.323490 0.089815 255 125 0
-0.145941 -0.289323 -0.142185 255 125 0
-0.205786 -0.308965 0.073815 255 125 0
-0.187039 -0.343627 -0.030185 255 125 0
-0.171542 -0.339621 0.077816 255 125 0
-0.156372 -0.344869 -0.094186 255 125 0
-0.145298 -0.322543 -0.008185 255 125 0
-0.187068 -0.343743 0.073815 255 125 0
-0.169525 -0.347800 -0.046185 255 125 0
-0.143590 -0.335379 -0.009051 255 125 0
-0.145331 -0.314271 -0.040185 255 125 0
-0.147112 -0.338600 0.059815 255 125 0
-0.136751 -0.322687 0.005815 255 125 0
-0.135558 -0.318863 -0.072184 255 125 0
-0.202398 -0.303643 -0.104185 255 125 0
-0.136575 -0.322732 -0.112186 255 125 0
-0.145204 -0.337027 0.009815 255 125 0
-0.146327 -0.314013 0.083968 255 125 0
-0.151277 -0.329260 0.005815 255 125 0
-0.137925 -0.326515 0.019816 255 125 0
-0.171541 -0.339619 -0.028185 255 125 0
-0.181210 -0.337068 0.007814 255 125 0
-0.192770 -0.297871 -0.126186 255 125 0
-0.176054 -0.349080 0.117815 255 125 0
-0.178078 -0.332943 0.107815 255 125 0
-0.200205 -0.295948 0.053815 255 125 0
-0.151783 -0.331195 -0.140186 255 125 0
-0.185793 -0.334794 -0.118185 255 125 0
-0.194358 -0.289197 -0.010185 255 125 0
-0.188628 -0.341785 -0.136185 255 125 0
-0.171945 -0.297058 0.093816 255 125 0
-0.144500 -0.298962 -0.150185 255 125 0
-0.184147 -0.284518 -0.122185 255 125 0
-0.205207 -0.313246 0.047816 255 125 0
-0.197562 -0.292500 -0.100185 255 125 0
-0.161045 -0.346961 0.007814 255 125 0
-0.163059 -0.346763 -0.112186 255 125 0
-0.145202 -0.337029 -0.066186 255 125 0
-0.143277 -0.306539 -0.140186 255 125 0
-0.185650 -0.282341 0.003816 255 125 0
-0.160991 -0.346750 -0.064185 255 125 0
-0.186511 -0.333600 -0.066186 255 125 0
-0.192800 -0.297862 -0.146185 255 125 0
-0.171902 -0.325038 0.101815 255 125 0
-0.143607 -0.300256 -0.088185 255 125 0
-0.145763 -0.324487 -0.062184 255 125 0
-0.183358 -0.345371 0.011816 255 125 0
-0.191679 -0.313643 0.123816 255 125 0
-0.144282 -0.318673 -0.080186 255 125 0
-0.204462 -0.315142 -0.074185 255 125 0
-0.153996 -0.309964 0.115815 255 125 0
-0.181203 -0.337039 -0.098184 255 125 0
-0.177527 -0.346790 0.043815 255 125 0
-0.144319 -0.318665 0.071815 255 125 0
-0.179261 -0.345509 -0.110185 255 125 0
-0.152233 -0.343473 -0.140186 255 125 0
-0.142601 -0.333569 -0.122185 255 125 0
-0.166891 -0.337616 0.114670 255 125 0
-0.188048 -0.283627 0.077816 255 125 0
-0.178801 -0.279823 -0.106185 255 125 0
-0.200527 -0.328917 -0.142185 255 125 0
-0.192267 -0.295936 -0.066186 255 125 0
-0.192344 -0.341363 0.059815 255 125 0
-0.145685 -0.299719 -0.000185 255 125 0
-0.173673 -0.347861 -0.022185 255 125 0
-0.200988 -0.299877 0.009815 255 125 0
-0.189110 -0.323608 0.117815 255 125 0
-0.193862 -0.338063 -0.126186 255 125 0
-0.136954 -0.304043 0.061815 255 125 0
-0.144283 -0.302148 0.053815 255 125 0
-0.204550 -0.315482 -0.085100 255 125 0
-0.183149 -0.336577 0.023815 255 125 0
-0.184419 -0.285569 -0.109233 255 125 0
-0.156275 -0.344494 -0.126780 255 125 0
-0.168337 -0.339308 -0.002185 255 125 0
-0.136293 -0.312476 -0.154186 255 125 0
-0.135592 -0.314724 0.045815 255 125 0
-0.188174 -0.284114 0.053815 255 125 0
-0.195395 -0.336001 -0.050185 255 125 0
-0.144351 -0.310393 -0.066186 255 125 0
-0.147545 -0.290974 -0.012185 255 125 0
-0.196360 -0.311403 -0.162185 255 125 0
-0.195859 -0.309466 0.053815 255 125 0
-0.180776 -0.317499 0.085816 255 125 0
-0.150084 -0.328541 -0.152185 255 125 0
-0.167607 -0.312642 0.081815 255 125 0
-0.184819 -0.335046 0.123659 255 125 0
-0.167150 -0.338618 -0.136185 255 125 0
-0.193983 -0.298587 -0.044184 255 125 0
-0.189328 -0.292564 -0.152185 255 125 0
-0.136126 -0.320783 -0.126186 255 125 0
-0.155960 -0.335288 -0.050185 255 125 0
-0.135273 -0.316872 0.055815 255 125 0
-0.151756 -0.331201 -0.034186 255 125 0
-0.156646 -0.334068 0.047816 255 125 0
-0.187857 -0.290878 0.084424 255 125 0
-0.171541 -0.339620 0.021816 255 125 0
-0.203284 -0.305480 0.029816 255 125 0
-0.171545 -0.339633 0.037815 255 125 0
-0.191546 -0.325043 0.029816 255 125 0
-0.145759 -0.303832 0.084069 255 125 0
-0.143804 -0.308469 -0.018185 255 125 0
-0.181447 -0.337984 0.114786 255 125 0
-0.196327 -0.311411 -0.048185 255 125 0
-0.187948 -0.331167 0.065815 255 125 0
-0.178998 -0.280585 0.083815 255 125 0
-0.185091 -0.336097 0.049816 255 125 0
-0.167759 -0.324996 0.119032 255 125 0
-0.143562 -0.303321 -0.030185 255 125 0
-0.175503 -0.346952 -0.074185 255 125 0
-0.189379 -0.292550 -0.102185 255 125 0
-0.204144 -0.317652 -0.004185 255 125 0
-0.189355 -0.284294 -0.054184 255 125 0
-0.163968 -0.294363 0.113814 255 125 0
-0.192758 -0.325808 -0.136185 255 125 0
-0.194867 -0.317985 -0.017195 255 125 0
-0.188943 -0.290597 0.061815 255 125 0
-0.154021 -0.311816 0.097815 255 125 0
-0.202540 -0.323687 0.065815 255 125 0
-0.144759 -0.304091 -0.162185 255 125 0
-0.136743 -0.306163 -0.056185 255 125 0
-0.163553 -0.284769 0.078930 255 125 0
-0.167762 -0.293056 0.121816 255 125 0
-0.204398 -0.315522 -0.112186 255 125 0
-0.203232 -0.303428 -0.036185 255 125 0
-0.155413 -0.344716 -0.058185 255 125 0
-0.191824 -0.339430 -0.018185 255 125 0
-0.189887 -0.330683 -0.096185 255 125 0
-0.183137 -0.336533 -0.140186 255 125 0
-0.155429 -0.324054 0.105816 255 125 0
-0.173738 -0.280069 -0.008185 255 125 0
-0.192130 -0.339352 -0.108731 255 125 0
-0.196154 -0.290798 0.011816 255 125 0
-0.136281 -0.307118 -0.046185 255 125 0
-0.193814 -0.337874 0.041815 255 125 0
-0.146970 -0.338637 -0.114185 255 125 0
-0.203590 -0.309533 -0.148185 255 125 0
-0.158645 -0.337683 -0.163194 255 125 0
-0.139365 -0.328209 0.031815 255 125 0
-0.176842 -0.280237 0.053815 255 125 0
-0.188912 -0.290605 -0.088185 255 125 0
-0.199041 -0.294184 0.077816 255 125 0
-0.183222 -0.344849 -0.056185 255 125 0
-0.173763 -0.348210 0.015815 255 125 0
-0.136930 -0.324707 -0.056185 255 125 0
-0.155975 -0.335343 -0.026184 255 125 0
-0.202138 -0.301646 -0.008185 255 125 0
-0.202535 -0.323671 0.049816 255 125 0
-0.177255 -0.345739 -0.158186 255 125 0
-0.177442 -0.322494 0.125329 255 125 0
-0.177530 -0.346799 -0.142185 255 125 0
-0.177492 -0.346654 0.069815 255 125 0
-0.179481 -0.346356 -0.000185 255 125 0
-0.204814 -0.311283 -0.044184 255 125 0
-0.141246 -0.331853 0.047816 255 125 0
-0.165226 -0.339161 -0.040185 255 125 0
-0.145275 -0.306023 -0.080186 255 125 0
-0.137079 -0.310206 0.084242 255 125 0
-0.194786 -0.305613 -0.004185 255 125 0
-0.144785 -0.304082 0.019816 255 125 0
-0.183146 -0.336563 -0.054184 255 125 0
-0.169607 -0.340129 0.013815 255 125 0
-0.143803 -0.308469 -0.106185 255 125 0
-0.187490 -0.305433 0.078912 255 125 0
-0.147799 -0.323961 0.041815 255 125 0
-0.183183 -0.312745 0.078918 255 125 0
-0.194285 -0.303676 0.067814 255 125 0
-0.194781 -0.305613 -0.122185 255 125 0
-0.160910 -0.346441 -0.104185 255 125 0
-0.201069 -0.299855 -0.094186 255 125 0
-0.157093 -0.336018 0.031815 255 125 0
-0.144841 -0.312332 0.065815 255 125 0
-0.176451 -0.302689 0.087815 255 125 0
-0.173671 -0.347854 -0.038185 255 125 0
-0.150672 -0.341812 -0.006186 255 125 0
-0.151114 -0.332526 -0.122185 255 125 0
-0.146407 -0.338286 0.017815 255 125 0
-0.204412 -0.314952 0.011816 255 125 0
-0.148033 -0.292913 -0.162185 255 125 0
-0.178805 -0.279840 -0.154186 255 125 0
-0.149499 -0.286337 0.084130 255 125 0
-0.156576 -0.321692 0.084128 255 125 0
-0.167392 -0.339553 -0.079183 255 125 0
-0.162952 -0.330371 0.078887 255 125 0
-0.191839 -0.293980 -0.018185 255 125 0
-0.156103 -0.344537 -0.118185 255 125 0
-0.192334 -0.295917 0.023815 255 125 0
-0.192087 -0.326969 -0.002185 255 125 0
-0.161759 -0.314154 0.099815 255 125 0
-0.157102 -0.336016 -0.066186 255 125 0
-0.203292 -0.305478 -0.070184 255 125 0
-0.153735 -0.330690 0.065815 255 125 0
-0.180279 -0.313496 0.111815 255 125 0
-0.162936 -0.298357 0.097815 255 125 0
-0.160051 -0.345582 0.067814 255 125 0
-0.161122 -0.347259 0.037815 255 125 0
-0.166405 -0.339808 -0.120185 255 125 0
-0.194407 -0.289184 -0.132185 255 125 0
-0.196894 -0.313330 -0.066186 255 125 0
-0.139993 -0.297510 0.065815 255 125 0
-0.152636 -0.314447 0.078910 255 125 0
-0.178813 -0.279870 0.007814 255 125 0
-0.145713 -0.299711 -0.018185 255 125 0
-0.193932 -0.322360 -0.085181 255 125 0
-0.193751 -0.337633 0.021816 255 125 0
-0.143812 -0.308467 -0.154186 255 125 0
-0.199217 -0.331321 -0.084184 255 125 0
-0.135858 -0.314654 -0.026184 255 125 0
-0.185083 -0.336067 -0.156185 255 125 0
-0.143313 -0.334313 -0.100185 255 125 0
-0.153371 -0.285336 -0.131166 255 125 0
-0.186170 -0.283051 -0.012185 255 125 0
-0.203233 -0.319954 -0.032185 255 125 0
-0.197370 -0.292550 -0.002185 255 125 0
-0.146059 -0.336807 -0.150185 255 125 0
-0.136431 -0.320705 -0.012185 255 125 0
-0.137426 -0.303919 0.007814 255 125 0
-0.154339 -0.344994 -0.018968 255 125 0
-0.138471 -0.299617 -0.068185 255 125 0
-0.137929 -0.301724 -0.036185 255 125 0
-0.156055 -0.344550 -0.040185 255 125 0
-0.144333 -0.310397 -0.058185 255 125 0
-0.160961 -0.346634 -0.072184 255 125 0
-0.194304 -0.303671 -0.012185 255 125 0
-0.136159 -0.320774 -0.144184 255 125 0
-0.194734 -0.301493 -0.163193 255 125 0
-0.192778 -0.297869 0.015815 255 125 0
-0.148328 -0.325890 0.057816 255 125 0
-0.165209 -0.339101 -0.144184 255 125 0
-0.165917 -0.309884 0.091815 255 125 0
-0.174704 -0.343859 0.084084 255 125 0
-0.158776 -0.346172 0.025815 255 125 0
-0.184616 -0.326271 0.123816 255 125 0
-0.137447 -0.295653 0.078853 255 125 0
-0.148496 -0.340307 0.025815 255 125 0
-0.165094 -0.322679 0.111815 255 125 0
-0.194620 -0.317028 0.031815 255 125 0
-0.153537 -0.333906 -0.074185 255 125 0
-0.195843 -0.309472 -0.030185 255 125 0
-0.146597 -0.295350 -0.104185 255 125 0
-0.187076 -0.343776 -0.074185 255 125 0
-0.194456 -0.320158 0.073815 255 125 0
-0.200455 -0.297949 0.061815 255 125 0
-0.146527 -0.338751 -0.030643 255 125 0
-0.195122 -0.318970 -0.154186 255 125 0
-0.147154 -0.297274 0.037815 255 125 0
-0.148088 -0.292900 -0.036185 255 125 0
-0.143615 -0.331241 -0.162185 255 125 0
-0.159747 -0.294016 0.084847 255 125 0
-0.137356 -0.303289 -0.118185 255 125 0
-0.136401 -0.318647 -0.080186 255 125 0
-0.199156 -0.294153 -0.158186 255 125 0
-0.144070 -0.305287 -0.132185 255 125 0
-0.173460 -0.339050 -0.156185 255 125 0
-0.138414 -0.326390 -0.086185 255 125 0
-0.197872 -0.329603 -0.160797 255 125 0
-0.159881 -0.310507 0.081000 255 125 0
-0.168356 -0.339303 -0.016184 255 125 0
-0.195053 -0.310716 0.021816 255 125 0
-0.149053 -0.340534 -0.046185 255 125 0
-0.143890 -0.312578 -0.119159 255 125 0
-0.195024 -0.322078 -0.038185 255 125 0
-0.165353 -0.347642 -0.154186 255 125 0
-0.184663 -0.286517 -0.066186 255 125 0
-0.143890 -0.312578 -0.075184 255 125 0
-0.199402 -0.333340 0.081815 255 125 0
-0.145692 -0.295586 -0.127185 255 125 0
-0.155241 -0.316530 0.119815 255 125 0
-0.134819 -0.314924 0.023815 255 125 0
-0.145692 -0.295586 -0.051363 255 125 0
-0.207487 -0.318855 0.082442 255 125 0
-0.158645 -0.337683 0.084152 255 125 0
-0.182182 -0.308873 0.125438 255 125 0
-0.139796 -0.296746 -0.014185 255 125 0
-0.163277 -0.319958 0.093816 255 125 0
-0.143389 -0.310641 -0.033165 255 125 0
-0.195795 -0.290891 -0.042185 255 125 0
-0.149026 -0.340171 0.039814 255 125 0
-0.182950 -0.343792 0.084159 255 125 0
-0.198634 -0.332551 -0.042185 255 125 0
-0.169584 -0.348027 -0.126186 255 125 0
-0.183527 -0.285801 -0.042185 255 125 0
-0.176008 -0.279482 -0.046185 255 125 0
-0.185353 -0.313149 0.095816 255 125 0
-0.196909 -0.333870 -0.008185 255 125 0
-0.171537 -0.339606 0.049816 255 125 0
-0.148564 -0.290711 0.002833 255 125 0
-0.168172 -0.345549 0.115815 255 125 0
-0.160996 -0.346768 -0.024184 255 125 0
-0.191820 -0.339433 -0.148185 255 125 0
-0.202616 -0.303587 -0.086185 255 125 0
-0.172199 -0.334177 0.118935 255 125 0
-0.190247 -0.286129 0.041815 255 125 0
-0.190802 -0.286290 -0.028185 255 125 0
-0.170497 -0.303632 0.078840 255 125 0
-0.137146 -0.318452 -0.119007 255 125 0
-0.139883 -0.297088 0.050105 255 125 0
-0.146610 -0.295348 -0.026184 255 125 0
-0.139150 -0.299344 0.031815 255 125 0
-0.187603 -0.289898 0.009815 255 125 0
-0.188758 -0.342290 -0.038502 255 125 0
-0.186571 -0.285907 0.019816 255 125 0
-0.154541 -0.307756 0.107815 255 125 0
-0.167673 -0.340636 -0.100185 255 125 0
-0.148622 -0.340275 -0.082185 255 125 0
-0.194209 -0.323430 -0.054184 255 125 0
-0.202756 -0.324526 -0.020186 255 125 0
-0.192044 -0.339020 0.031815 255 125 0
-0.185800 -0.334792 -0.126186 255 125 0
-0.204331 -0.319671 0.023815 255 125 0
-0.145284 -0.322545 -0.136185 255 125 0
-0.144314 -0.318665 -0.048185 255 125 0
-0.192383 -0.295906 0.031815 255 125 0
-0.141577 -0.295646 0.015815 255 125 0
-0.143844 -0.316722 0.017815 255 125 0
-0.189827 -0.294501 0.001816 255 125 0
-0.202006 -0.301679 -0.120185 255 125 0
-0.190645 -0.329406 0.047816 255 125 0
-0.183148 -0.336572 -0.006186 255 125 0
-0.199137 -0.331343 -0.000185 255 125 0
-0.145697 -0.299715 0.027815 255 125 0
-0.183143 -0.336554 0.063815 255 125 0
-0.195130 -0.319003 -0.112186 255 125 0
-0.156661 -0.334065 0.007814 255 125 0
-0.150087 -0.328554 0.019816 255 125 0
-0.171530 -0.339576 -0.112186 255 125 0
-0.187201 -0.304318 0.111815 255 125 0
-0.190613 -0.329415 -0.088185 255 125 0
-0.189224 -0.331841 -0.026184 255 125 0
-0.192834 -0.297854 -0.054184 255 125 0
-0.153977 -0.343022 -0.152185 255 125 0
-0.159584 -0.337441 0.055815 255 125 0
-0.192091 -0.326967 0.059815 255 125 0
-0.192765 -0.297873 -0.106185 255 125 0
-0.167146 -0.338603 0.067814 255 125 0
-0.189890 -0.330692 -0.142185 255 125 0
-0.155968 -0.335319 -0.008185 255 125 0
-0.149222 -0.329791 -0.016184 255 125 0
-0.152183 -0.333158 -0.060185 255 125 0
-0.187082 -0.287881 -0.144184 255 125 0
-0.197897 -0.306875 0.083815 255 125 0
-0.190671 -0.329401 0.035815 255 125 0
-0.205088 -0.313278 -0.018185 255 125 0
-0.144892 -0.291660 0.077816 255 125 0
-0.196977 -0.292650 0.037815 255 125 0
-0.136678 -0.306180 0.045815 255 125 0
-0.135303 -0.316863 -0.102185 255 125 0
-0.196707 -0.290656 -0.058185 255 125 0
-0.196540 -0.290698 0.047816 255 125 0
-0.141544 -0.331777 -0.138185 255 125 0
-0.186040 -0.287217 -0.094186 255 125 0
-0.182049 -0.292381 0.078827 255 125 0
-0.179275 -0.337572 0.075816 255 125 0
-0.147360 -0.294044 -0.064185 255 125 0
-0.154606 -0.338041 0.119815 255 125 0
-0.159554 -0.337447 0.041815 255 125 0
-0.150942 -0.288031 -0.006186 255 125 0
-0.202755 -0.322143 -0.144184 255 125 0
-0.200032 -0.329967 -0.116185 255 125 0
-0.193683 -0.321395 0.003816 255 125 0
-0.176173 -0.285637 0.078855 255 125 0
-0.155972 -0.335334 0.019816 255 125 0
-0.140370 -0.296961 -0.006186 255 125 0
-0.139956 -0.330121 -0.052186 255 125 0
-0.140464 -0.329991 -0.042185 255 125 0
-0.150928 -0.288033 -0.022185 255 125 0
-0.165374 -0.347720 -0.008185 255 125 0
-0.147845 -0.287932 0.025815 255 125 0
-0.158381 -0.328672 0.099815 255 125 0
-0.189058 -0.319488 0.099121 255 125 0
-0.185554 -0.305935 0.097288 255 125 0
-0.145893 -0.320324 -0.163183 255 125 0
-0.140406 -0.331056 0.075816 255 125 0
-0.145392 -0.318387 0.050825 255 125 0
-0.136033 -0.314610 -0.130185 255 125 0
-0.196094 -0.290775 -0.114185 255 125 0
-0.147354 -0.294021 -0.094186 255 125 0
