ply
format ascii 1.0
element vertex 1299
property float x
property float y
property float z
property uchar red
property uchar green
property uchar blue
end_header
0.174255 0.219043 -0.061395 255 0 255
0.113844 0.232989 -0.060900 255 0 255
0.230778 0.312728 -0.067756 255 0 255
0.136640 0.340620 0.016257 255 0 255
0.170506 0.211697 -0.067678 255 0 255
0.091207 0.223847 -0.067717 255 0 255
0.138426 0.214998 -0.067655 255 0 255
0.220714 0.308894 -0.056756 255 0 255
0.221636 0.312787 -0.044756 255 0 255
0.125387 0.238534 -0.067705 255 0 255
0.100203 0.236139 -0.067687 255 0 255
0.143972 0.203455 -0.061524 255 0 255
0.220135 0.311080 -0.005913 255 0 255
0.175008 0.257867 -0.043311 255 0 255
0.198547 0.297591 0.000282 255 0 255
0.110702 0.299398 0.006398 255 0 255
0.201850 0.356354 0.008292 255 0 255
0.135285 0.281407 0.004375 255 0 255
0.218964 0.299035 -0.020756 255 0 255
0.158814 0.356649 0.021244 255 0 255
0.170618 0.247744 -0.060756 255 0 255
0.127348 0.371502 0.014348 255 0 255
0.111007 0.362958 0.016465 255 0 255
0.134089 0.320682 0.022032 255 0 255
0.189994 0.376130 0.015244 255 0 255
0.087120 0.288421 -0.036756 255 0 255
0.152980 0.349163 0.016260 255 0 255
0.162878 0.392036 0.015573 255 0 255
0.086479 0.256712 -0.066756 255 0 255
0.164822 0.338219 0.016293 255 0 255
0.208855 0.293158 -0.028756 255 0 255
0.114982 0.206042 -0.068756 255 0 255
0.130702 0.279341 -0.000756 255 0 255
0.200565 0.315225 0.015244 255 0 255
0.110895 0.371362 0.015244 255 0 255
0.144280 0.293698 0.015967 255 0 255
0.072925 0.295804 -0.067745 255 0 255
0.213932 0.333039 -0.000756 255 0 255
0.203642 0.284099 -0.049758 255 0 255
0.135742 0.363406 0.021884 255 0 255
0.174792 0.363621 0.013244 255 0 255
0.186261 0.359954 0.010246 255 0 255
0.097737 0.279812 -0.018756 255 0 255
0.188287 0.279823 0.007244 255 0 255
0.175810 0.335682 0.021244 255 0 255
0.081276 0.302086 -0.042756 255 0 255
0.178316 0.369998 0.018118 255 0 255
0.134984 0.271213 0.007901 255 0 255
0.119193 0.260491 -0.058756 255 0 255
0.197129 0.389249 0.003244 255 0 255
0.214892 0.359501 0.006256 255 0 255
0.172321 0.379592 0.012300 255 0 255
0.133935 0.275561 -0.005747 255 0 255
0.159339 0.399010 0.009244 255 0 255
0.186250 0.253219 -0.060657 255 0 255
0.093163 0.303447 -0.011722 255 0 255
0.184525 0.281308 -0.006756 255 0 255
0.200801 0.360701 0.013720 255 0 255
0.208447 0.367146 0.007663 255 0 255
0.189817 0.352974 0.011244 255 0 255
0.115800 0.312589 0.018743 255 0 255
0.184694 0.299822 0.009244 255 0 255
0.096078 0.289396 -0.030756 255 0 255
0.117620 0.262907 -0.066756 255 0 255
0.076513 0.311397 -0.034756 255 0 255
0.200339 0.225335 -0.067640 255 0 255
0.159203 0.233866 -0.066756 255 0 255
0.230659 0.341492 -0.048756 255 0 255
0.085423 0.252139 -0.060756 255 0 255
0.225076 0.252467 -0.067494 255 0 255
0.224718 0.339825 -0.024756 255 0 255
0.200639 0.235530 -0.061916 255 0 255
0.201393 0.274356 -0.019871 255 0 255
0.195666 0.269520 -0.032756 255 0 255
0.096763 0.319037 0.004272 255 0 255
0.227248 0.276597 -0.060756 255 0 255
0.196987 0.344178 0.011244 255 0 255
0.155132 0.198452 -0.064756 255 0 255
0.165561 0.327785 0.017244 255 0 255
0.145546 0.316964 0.019244 255 0 255
0.183354 0.262099 -0.032756 255 0 255
0.128480 0.231662 -0.060756 255 0 255
0.145609 0.254998 -0.030756 255 0 255
0.115491 0.222346 -0.067738 255 0 255
0.104098 0.208555 -0.061464 255 0 255
0.198136 0.295810 0.011244 255 0 255
0.126284 0.215748 -0.060757 255 0 255
0.102915 0.381247 0.004524 255 0 255
0.182441 0.236718 -0.066756 255 0 255
0.076773 0.358546 -0.020756 255 0 255
0.083641 0.333331 -0.008756 255 0 255
0.213902 0.341256 0.001244 255 0 255
0.118802 0.361159 0.018243 255 0 255
0.077402 0.257823 -0.066756 255 0 255
0.163549 0.368270 0.015244 255 0 255
0.138143 0.382696 0.017244 255 0 255
0.161213 0.215896 -0.067746 255 0 255
0.087609 0.310887 -0.014756 255 0 255
0.211432 0.228932 -0.067693 255 0 255
0.115198 0.292203 0.004342 255 0 255
0.123751 0.382595 0.012470 255 0 255
0.224542 0.324431 -0.032756 255 0 255
0.218787 0.331918 -0.009726 255 0 255
0.196203 0.278550 -0.040756 255 0 255
0.148923 0.251575 -0.067729 255 0 255
0.171628 0.269899 -0.018756 255 0 255
0.085392 0.301136 -0.050756 255 0 255
0.207229 0.277113 -0.066756 255 0 255
0.180053 0.275177 -0.014756 255 0 255
0.175830 0.279209 -0.000756 255 0 255
0.203692 0.213187 -0.062756 255 0 255
0.136102 0.302730 0.011244 255 0 255
0.145024 0.225791 -0.067738 255 0 255
0.108789 0.322418 0.011244 255 0 255
0.214438 0.304185 -0.021729 255 0 255
0.207526 0.287307 -0.060756 255 0 255
0.194495 0.253369 -0.067629 255 0 255
0.092347 0.268741 -0.066756 255 0 255
0.128734 0.266498 -0.050756 255 0 255
0.113712 0.263809 -0.044756 255 0 255
0.226277 0.266558 -0.067566 255 0 255
0.179178 0.204803 -0.066756 255 0 255
0.225262 0.328370 -0.046756 255 0 255
0.210067 0.360615 0.001244 255 0 255
0.080998 0.322676 -0.004756 255 0 255
0.211592 0.327421 0.002292 255 0 255
0.225518 0.361072 -0.044756 255 0 255
0.107108 0.337174 0.012350 255 0 255
0.094787 0.288704 -0.040756 255 0 255
0.093448 0.309539 -0.002756 255 0 255
0.069865 0.264764 -0.066756 255 0 255
0.135888 0.328478 0.022464 255 0 255
0.201447 0.283480 -0.028756 255 0 255
0.133645 0.372101 0.019633 255 0 255
0.080402 0.265956 -0.060756 255 0 255
0.153733 0.387989 0.017354 255 0 255
0.073132 0.334756 -0.028756 255 0 255
0.131981 0.222644 -0.067713 255 0 255
0.122543 0.324012 0.021244 255 0 255
0.072616 0.267792 -0.060756 255 0 255
0.167522 0.349911 0.020507 255 0 255
0.080028 0.302375 -0.030756 255 0 255
0.108872 0.282582 0.005244 255 0 255
0.149525 0.271961 0.010029 255 0 255
0.107110 0.363859 0.010272 255 0 255
0.127731 0.266472 -0.002756 255 0 255
0.220729 0.251418 -0.061095 255 0 255
0.156288 0.342241 0.023244 255 0 255
0.149892 0.304719 0.013244 255 0 255
0.214604 0.331577 0.009244 255 0 255
0.125005 0.299116 0.011244 255 0 255
0.219534 0.231167 -0.062756 255 0 255
0.124078 0.268430 -0.042756 255 0 255
0.139936 0.274883 0.011244 255 0 255
0.136594 0.215952 -0.060756 255 0 255
0.112952 0.309141 0.010323 255 0 255
0.153779 0.263713 -0.030756 255 0 255
0.178542 0.273174 0.007244 255 0 255
0.202175 0.290595 -0.014756 255 0 255
0.227085 0.356686 -0.024756 255 0 255
0.174791 0.256926 -0.054756 255 0 255
0.085490 0.309324 -0.002756 255 0 255
0.128452 0.269592 -0.028756 255 0 255
0.077574 0.307046 -0.067746 255 0 255
0.200685 0.282729 -0.002756 255 0 255
0.124176 0.259960 -0.034756 255 0 255
0.126444 0.314238 0.014255 255 0 255
0.138198 0.267352 -0.024756 255 0 255
0.187612 0.392483 0.007955 255 0 255
0.202747 0.333568 0.016153 255 0 255
0.194740 0.361121 0.009244 255 0 255
0.174413 0.317531 0.014297 255 0 255
0.079578 0.315731 -0.058756 255 0 255
0.100501 0.219649 -0.067674 255 0 255
0.122510 0.230988 -0.066756 255 0 255
0.164864 0.267275 -0.018756 255 0 255
0.200634 0.271068 -0.060756 255 0 255
0.116401 0.332977 0.014374 255 0 255
0.151185 0.394735 0.010419 255 0 255
0.203051 0.370445 0.009557 255 0 255
0.231978 0.326820 -0.055748 255 0 255
0.153137 0.296498 0.019244 255 0 255
0.216027 0.297661 -0.064756 255 0 255
0.082704 0.316125 -0.026756 255 0 255
0.126739 0.271064 0.005176 255 0 255
0.151736 0.361555 0.021244 255 0 255
0.108166 0.270630 -0.018756 255 0 255
0.089392 0.312528 0.007244 255 0 255
0.193464 0.265923 -0.048756 255 0 255
0.194094 0.382776 0.009244 255 0 255
0.079434 0.341778 -0.010756 255 0 255
0.127447 0.258586 -0.040756 255 0 255
0.226697 0.291092 -0.068756 255 0 255
0.218421 0.352528 -0.014756 255 0 255
0.179756 0.251759 -0.066756 255 0 255
0.103359 0.329830 0.010341 255 0 255
0.206190 0.277353 -0.032188 255 0 255
0.215437 0.370749 -0.014756 255 0 255
0.119217 0.274045 0.003244 255 0 255
0.151775 0.281706 0.015946 255 0 255
0.128151 0.259399 -0.028756 255 0 255
0.143759 0.255877 -0.020756 255 0 255
0.088811 0.249031 -0.067729 255 0 255
0.143828 0.265067 0.001735 255 0 255
0.163770 0.315882 0.021426 255 0 255
0.187010 0.372095 0.010304 255 0 255
0.224482 0.312129 -0.015540 255 0 255
0.174112 0.307338 0.020167 255 0 255
0.098600 0.296034 -0.010756 255 0 255
0.182959 0.327873 0.014245 255 0 255
0.135727 0.203306 -0.061598 255 0 255
0.190269 0.274871 -0.028756 255 0 255
0.203888 0.298411 -0.006756 255 0 255
0.090163 0.281561 -0.067710 255 0 255
0.180705 0.264763 -0.012545 255 0 255
0.173731 0.287902 0.007244 255 0 255
0.225621 0.330340 -0.056756 255 0 255
0.217769 0.364994 -0.008756 255 0 255
0.143838 0.371800 0.016303 255 0 255
0.094965 0.337926 0.006272 255 0 255
0.119846 0.303445 0.018817 255 0 255
0.081802 0.353280 -0.004756 255 0 255
0.075011 0.315848 -0.048756 255 0 255
0.204651 0.337234 0.007244 255 0 255
0.226347 0.336330 -0.014756 255 0 255
0.076028 0.309245 -0.048756 255 0 255
0.106650 0.255176 -0.061180 255 0 255
0.219685 0.309132 -0.049741 255 0 255
0.147131 0.323829 0.020673 255 0 255
0.166551 0.203458 -0.068756 255 0 255
0.086270 0.335828 -0.001720 255 0 255
0.215962 0.309991 0.001244 255 0 255
0.208137 0.307693 -0.002756 255 0 255
0.072888 0.246550 -0.066756 255 0 255
0.102067 0.253106 -0.066756 255 0 255
0.175767 0.350060 0.012323 255 0 255
0.079416 0.337410 -0.020756 255 0 255
0.087542 0.287990 -0.046756 255 0 255
0.136027 0.236078 -0.066756 255 0 255
0.125546 0.337023 0.021697 255 0 255
0.142635 0.259900 -0.008756 255 0 255
0.098450 0.357647 0.013244 255 0 255
0.160613 0.222191 -0.060445 255 0 255
0.162333 0.238528 -0.060756 255 0 255
0.153532 0.253755 -0.042756 255 0 255
0.222528 0.259212 -0.065572 255 0 255
0.185198 0.263726 -0.022756 255 0 255
0.147880 0.309289 0.019655 255 0 255
0.082891 0.267844 -0.066756 255 0 255
0.194197 0.269858 -0.019509 255 0 255
0.215382 0.367599 -0.002756 255 0 255
0.153793 0.263776 -0.052756 255 0 255
0.125385 0.211851 -0.067686 255 0 255
0.223279 0.271355 -0.060496 255 0 255
0.086074 0.286610 -0.058756 255 0 255
0.213090 0.286023 -0.034756 255 0 255
0.164222 0.344515 0.021244 255 0 255
0.109203 0.301797 0.014619 255 0 255
0.133338 0.308540 0.021104 255 0 255
0.182657 0.290997 0.015876 255 0 255
0.223375 0.347279 -0.030756 255 0 255
0.164819 0.311535 0.016373 255 0 255
0.095555 0.224896 -0.060648 255 0 255
0.140542 0.393087 0.010285 255 0 255
0.090608 0.230143 -0.069729 255 0 255
0.195068 0.331236 0.011244 255 0 255
0.114008 0.384844 0.012150 255 0 255
0.107398 0.240635 -0.060586 255 0 255
0.208549 0.278861 -0.042756 255 0 255
0.116754 0.272267 -0.044756 255 0 255
0.139688 0.264914 -0.044756 255 0 255
0.105897 0.216350 -0.061076 255 0 255
0.104375 0.348069 0.011244 255 0 255
0.153183 0.270026 -0.012756 255 0 255
0.083044 0.326310 -0.012756 255 0 255
0.149070 0.216646 -0.060883 255 0 255
0.096606 0.247232 -0.060854 255 0 255
0.228839 0.313176 -0.054756 255 0 255
0.162636 0.257623 -0.066756 255 0 255
0.167369 0.331473 0.022429 255 0 255
0.173236 0.259088 -0.028756 255 0 255
0.109582 0.312328 0.017244 255 0 255
0.224628 0.277201 -0.069755 255 0 255
0.218692 0.305255 -0.008756 255 0 255
0.085761 0.294893 -0.016756 255 0 255
0.192101 0.305236 0.008260 255 0 255
0.087843 0.289293 -0.022756 255 0 255
0.115565 0.284899 -0.004756 255 0 255
0.131893 0.266717 -0.036756 255 0 255
0.130194 0.348265 0.021490 255 0 255
0.145541 0.263593 -0.034756 255 0 255
0.103809 0.331778 0.016356 255 0 255
0.086301 0.350189 0.005244 255 0 255
0.111353 0.275548 -0.036756 255 0 255
0.132583 0.243032 -0.060671 255 0 255
0.150268 0.204054 -0.061642 255 0 255
0.230030 0.317006 -0.062756 255 0 255
0.145185 0.350962 0.022918 255 0 255
0.189849 0.268810 -0.065613 255 0 255
0.179502 0.223989 -0.067612 255 0 255
0.119991 0.241833 -0.061366 255 0 255
0.223372 0.320596 -0.046756 255 0 255
0.075850 0.335146 -0.048756 255 0 255
0.089559 0.234490 -0.061342 255 0 255
0.156723 0.303142 0.014303 255 0 255
0.093442 0.289015 -0.010756 255 0 255
0.162024 0.263864 -0.026756 255 0 255
0.220765 0.343776 -0.010756 255 0 255
0.143588 0.264028 -0.054756 255 0 255
0.104552 0.263871 -0.067690 255 0 255
0.179654 0.242427 -0.067694 255 0 255
0.198992 0.246173 -0.061072 255 0 255
0.083417 0.279013 -0.067752 255 0 255
0.155392 0.261811 -0.002756 255 0 255
0.147931 0.265055 -0.022756 255 0 255
0.117208 0.274234 -0.030756 255 0 255
0.124998 0.272413 -0.020756 255 0 255
0.215757 0.314144 -0.012756 255 0 255
0.159117 0.251274 -0.067674 255 0 255
0.217476 0.303484 -0.038756 255 0 255
0.214985 0.302007 -0.030756 255 0 255
0.195690 0.214094 -0.061612 255 0 255
0.171265 0.303890 0.014328 255 0 255
0.105604 0.286207 -0.019746 255 0 255
0.175747 0.252180 -0.060756 255 0 255
0.095814 0.261582 -0.060756 255 0 255
0.195105 0.353806 0.015952 255 0 255
0.198393 0.252470 -0.061601 255 0 255
0.110247 0.244083 -0.065559 255 0 255
0.205790 0.380076 0.003244 255 0 255
0.192407 0.368797 0.015427 255 0 255
0.187605 0.312433 0.018849 255 0 255
0.122537 0.350662 0.021244 255 0 255
0.083120 0.301661 -0.020756 255 0 255
0.170717 0.265952 -0.032756 255 0 255
0.114378 0.257496 -0.066756 255 0 255
0.086803 0.298758 -0.064756 255 0 255
0.217485 0.237365 -0.060756 255 0 255
0.223976 0.301045 -0.066756 255 0 255
0.141887 0.345566 0.016249 255 0 255
0.223888 0.371792 -0.057757 255 0 255
0.210684 0.243474 -0.060560 255 0 255
0.173532 0.264366 -0.060756 255 0 255
0.225981 0.309731 -0.024286 255 0 255
0.076819 0.329799 -0.014756 255 0 255
0.192755 0.281393 -0.016756 255 0 255
0.146610 0.243898 -0.060756 255 0 255
0.079475 0.329186 -0.024756 255 0 255
0.071576 0.289957 -0.062106 255 0 255
0.221910 0.300986 -0.028756 255 0 255
0.082175 0.295721 -0.048756 255 0 255
0.174836 0.346033 0.017244 255 0 255
0.202067 0.383965 -0.000756 255 0 255
0.134621 0.260751 -0.012756 255 0 255
0.099161 0.320536 0.014489 255 0 255
0.209244 0.291016 -0.004756 255 0 255
0.187688 0.304203 0.017244 255 0 255
0.219009 0.292867 -0.044756 255 0 255
0.215931 0.248420 -0.065572 255 0 255
0.231162 0.337271 -0.060756 255 0 255
0.143984 0.336872 0.023372 255 0 255
0.129476 0.265137 -0.056756 255 0 255
0.153880 0.353061 0.022301 255 0 255
0.083121 0.322186 -0.017755 255 0 255
0.177113 0.329224 0.016336 255 0 255
0.212413 0.295415 -0.050756 255 0 255
0.159579 0.386639 0.014824 255 0 255
0.211589 0.300738 0.002301 255 0 255
0.219684 0.366605 -0.020756 255 0 255
0.129290 0.291001 0.008287 255 0 255
0.213724 0.283315 -0.052756 255 0 255
0.089783 0.315476 -0.004756 255 0 255
0.113173 0.350143 0.013244 255 0 255
0.188048 0.234331 -0.067727 255 0 255
0.177195 0.231781 -0.066756 255 0 255
0.205738 0.248721 -0.067744 255 0 255
0.195251 0.318877 0.010337 255 0 255
0.093797 0.284828 -0.018756 255 0 255
0.185360 0.356056 0.016679 255 0 255
0.220587 0.339712 -0.015730 255 0 255
0.081550 0.355391 -0.016756 255 0 255
0.145568 0.343733 0.023244 255 0 255
0.143753 0.202506 -0.068756 255 0 255
0.083347 0.309819 -0.036756 255 0 255
0.128904 0.244878 -0.066756 255 0 255
0.227953 0.282710 -0.060756 255 0 255
0.108624 0.277299 -0.050756 255 0 255
0.100502 0.228548 -0.060756 255 0 255
0.109238 0.266387 -0.048756 255 0 255
0.186559 0.343463 0.018209 255 0 255
0.220888 0.349906 -0.002752 255 0 255
0.202425 0.265906 -0.066756 255 0 255
0.217456 0.290587 -0.032756 255 0 255
0.122551 0.368504 0.018647 255 0 255
0.223859 0.330747 -0.020756 255 0 255
0.220075 0.280305 -0.066756 255 0 255
0.083869 0.307646 -0.010385 255 0 255
0.129948 0.274428 0.009244 255 0 255
0.208291 0.295341 -0.019711 255 0 255
0.173067 0.338368 0.016402 255 0 255
0.143080 0.279607 0.004320 255 0 255
0.074430 0.326245 -0.054756 255 0 255
0.142039 0.364005 0.020944 255 0 255
0.148401 0.267092 0.005244 255 0 255
0.138160 0.267189 0.003244 255 0 255
0.098819 0.274601 -0.046756 255 0 255
0.207755 0.266352 -0.060756 255 0 255
0.162715 0.377704 0.015244 255 0 255
0.150083 0.314937 0.015244 255 0 255
0.122998 0.343769 0.021738 255 0 255
0.163469 0.305689 0.021820 255 0 255
0.186406 0.382498 0.009244 255 0 255
0.087320 0.331480 0.008118 255 0 255
0.223550 0.299203 -0.048756 255 0 255
0.133871 0.257498 -0.026756 255 0 255
0.209435 0.366918 -0.000756 255 0 255
0.113773 0.357152 0.013244 255 0 255
0.226706 0.334195 -0.038756 255 0 255
0.143902 0.274279 -0.004756 255 0 255
0.223894 0.242476 -0.062756 255 0 255
0.189408 0.346911 0.012287 255 0 255
0.226739 0.348578 -0.016756 255 0 255
0.184013 0.376892 0.016140 255 0 255
0.093659 0.287814 -0.054756 255 0 255
0.127938 0.258472 -0.065535 255 0 255
0.173370 0.375245 0.018436 255 0 255
0.224507 0.322386 -0.010756 255 0 255
0.155951 0.255341 -0.022756 255 0 255
0.208287 0.305605 0.009244 255 0 255
0.229470 0.337662 -0.028756 255 0 255
0.225942 0.354014 -0.044756 255 0 255
0.132265 0.226684 -0.060756 255 0 255
0.162723 0.346913 0.014339 255 0 255
0.096608 0.273915 -0.060671 255 0 255
0.136121 0.258357 -0.020756 255 0 255
0.155536 0.253545 -0.058756 255 0 255
0.073822 0.273018 -0.067733 255 0 255
0.086566 0.292654 -0.027608 255 0 255
0.181398 0.347783 0.013244 255 0 255
0.230229 0.325171 -0.048756 255 0 255
0.157678 0.262823 -0.042756 255 0 255
0.204395 0.249031 -0.060756 255 0 255
0.228948 0.317256 -0.042756 255 0 255
0.141302 0.254123 -0.042756 255 0 255
0.103063 0.373003 0.008418 255 0 255
0.094244 0.348355 0.011244 255 0 255
0.227124 0.315625 -0.028756 255 0 255
0.082808 0.231921 -0.060756 255 0 255
0.218388 0.358694 -0.002756 255 0 255
0.092378 0.282267 -0.030756 255 0 255
0.114205 0.279006 -0.016756 255 0 255
0.125298 0.264820 -0.008756 255 0 255
0.133036 0.271663 -0.015747 255 0 255
0.133492 0.264752 -0.002756 255 0 255
0.145633 0.326227 0.014255 255 0 255
0.104263 0.271507 -0.040756 255 0 255
0.123661 0.319967 0.015244 255 0 255
0.180101 0.217692 -0.061695 255 0 255
0.175763 0.323377 0.022027 255 0 255
0.201397 0.327722 0.016422 255 0 255
0.107998 0.234339 -0.060658 255 0 255
0.095415 0.339874 0.013611 255 0 255
0.122402 0.376749 0.012248 255 0 255
0.125688 0.248728 -0.060785 255 0 255
0.128243 0.322032 0.021864 255 0 255
0.139339 0.352312 0.021905 255 0 255
0.231328 0.331075 -0.044756 255 0 255
0.089032 0.356677 0.003244 255 0 255
0.210315 0.282558 -0.028756 255 0 255
0.107246 0.222196 -0.061172 255 0 255
0.072799 0.324569 -0.066756 255 0 255
0.226296 0.350711 -0.058756 255 0 255
0.192693 0.218891 -0.067639 255 0 255
0.129595 0.354562 0.016348 255 0 255
0.077571 0.280363 -0.061285 255 0 255
0.110095 0.225644 -0.067737 255 0 255
0.076223 0.301200 -0.067723 255 0 255
0.227325 0.262210 -0.061051 255 0 255
0.111363 0.275591 -0.042756 255 0 255
0.183549 0.214844 -0.067648 255 0 255
0.083631 0.306615 -0.048756 255 0 255
0.146535 0.356808 0.016253 255 0 255
0.225632 0.330337 -0.062756 255 0 255
0.103501 0.241535 -0.067720 255 0 255
0.103800 0.225045 -0.067670 255 0 255
0.199505 0.270686 -0.046756 255 0 255
0.207386 0.238077 -0.067673 255 0 255
0.176352 0.210348 -0.067649 255 0 255
0.223704 0.330783 -0.032756 255 0 255
0.200777 0.311444 0.005244 255 0 255
0.221013 0.319088 -0.024756 255 0 255
0.199742 0.258315 -0.061551 255 0 255
0.081537 0.315321 -0.032756 255 0 255
0.162114 0.246476 -0.065505 255 0 255
0.162269 0.291598 0.010287 255 0 255
0.177467 0.268518 -0.034756 255 0 255
0.208895 0.342412 0.004291 255 0 255
0.214368 0.321666 -0.004756 255 0 255
0.095567 0.358312 0.006416 255 0 255
0.208394 0.278007 -0.058756 255 0 255
0.164209 0.255548 -0.046756 255 0 255
0.161858 0.254257 -0.058756 255 0 255
0.173362 0.295195 0.018402 255 0 255
0.089608 0.296937 -0.032756 255 0 255
0.095603 0.287339 -0.060756 255 0 255
0.116899 0.264008 -0.026756 255 0 255
0.080119 0.273617 -0.065517 255 0 255
0.167521 0.354017 0.015244 255 0 255
0.137390 0.352762 0.016296 255 0 255
0.116100 0.322783 0.020123 255 0 255
0.109352 0.293552 0.012512 255 0 255
0.131837 0.284256 0.014382 255 0 255
0.179514 0.357405 0.018357 255 0 255
0.227348 0.351220 -0.032756 255 0 255
0.174855 0.401586 0.007244 255 0 255
0.139858 0.310107 0.011244 255 0 255
0.127193 0.326379 0.016327 255 0 255
0.158374 0.319181 0.022244 255 0 255
0.110704 0.326081 0.018168 255 0 255
0.134211 0.228287 -0.066756 255 0 255
0.200343 0.278699 -0.010756 255 0 255
0.141131 0.280057 0.013866 255 0 255
0.112867 0.342003 0.019244 255 0 255
0.169164 0.285901 0.016322 255 0 255
0.097367 0.366108 0.010019 255 0 255
0.226652 0.364997 -0.052756 255 0 255
0.180569 0.283268 0.013244 255 0 255
0.130343 0.340020 0.016315 255 0 255
0.157467 0.235234 -0.061147 255 0 255
0.154031 0.371499 0.020881 255 0 255
0.217053 0.320002 0.005244 255 0 255
0.196516 0.288798 -0.008756 255 0 255
0.177419 0.392783 0.011992 255 0 255
0.173657 0.269802 0.005244 255 0 255
0.209702 0.221436 -0.060756 255 0 255
0.185016 0.269926 -0.060756 255 0 255
0.100058 0.297750 -0.003717 255 0 255
0.085587 0.306196 -0.026756 255 0 255
0.140840 0.376597 0.014254 255 0 255
0.205562 0.287761 -0.038756 255 0 255
0.184098 0.261681 -0.046756 255 0 255
0.221037 0.341661 -0.002254 255 0 255
0.225127 0.306031 -0.038756 255 0 255
0.227178 0.297139 -0.069715 255 0 255
0.152978 0.322480 0.016280 255 0 255
0.231596 0.307378 -0.064756 255 0 255
0.075317 0.317830 -0.042756 255 0 255
0.078695 0.239051 -0.062756 255 0 255
0.154322 0.274959 -0.001740 255 0 255
0.188045 0.207648 -0.065440 255 0 255
0.089967 0.262928 -0.060756 255 0 255
0.177411 0.312734 0.020307 255 0 255
0.110865 0.273432 -0.056756 255 0 255
0.143001 0.403737 0.009244 255 0 255
0.208437 0.260413 -0.061374 255 0 255
0.231002 0.347571 -0.062756 255 0 255
0.155227 0.332223 0.022893 255 0 255
0.189535 -0.488530 0.055244 0 0 255
0.237900 -0.483275 0.411597 0 0 255
0.231204 -0.504309 0.231244 0 0 255
0.240476 -0.502343 -0.086756 0 0 255
0.190721 -0.478541 0.321244 0 0 255
0.216828 -0.458968 0.145244 0 0 255
0.203572 -0.463035 -0.023022 0 0 255
0.232678 -0.502596 0.101244 0 0 255
0.190981 -0.464232 -0.083715 0 0 255
0.235183 -0.499069 0.015244 0 0 255
0.197868 -0.505523 0.179244 0 0 255
0.212411 -0.460311 0.267244 0 0 255
0.239997 -0.491970 0.351995 0 0 255
0.190223 -0.478426 0.379244 0 0 255
0.231001 -0.504261 0.294192 0 0 255
0.214394 -0.460615 0.203244 0 0 255
0.201369 -0.508142 -0.050756 0 0 255
0.194734 -0.469205 0.101244 0 0 255
0.237073 -0.477961 0.059244 0 0 255
0.198022 -0.504858 0.131790 0 0 255
0.189575 -0.484434 0.235244 0 0 255
0.212431 -0.460227 0.023244 0 0 255
0.235712 -0.457184 -0.080756 0 0 255
0.238048 -0.491520 -0.029608 0 0 255
0.238852 -0.487600 0.173244 0 0 255
0.191977 -0.495484 0.005244 0 0 255
0.203375 -0.508347 0.409244 0 0 255
0.191914 -0.495752 0.279244 0 0 255
0.201372 -0.508131 0.349244 0 0 255
0.230972 -0.469360 0.317244 0 0 255
0.214216 -0.461387 0.352067 0 0 255
0.208777 -0.458275 0.407244 0 0 255
0.186330 -0.502158 -0.085740 0 0 255
0.220457 -0.510037 0.049244 0 0 255
0.238458 -0.487510 0.135244 0 0 255
0.197905 -0.505368 0.087244 0 0 255
0.238440 -0.485453 0.263244 0 0 255
0.195927 -0.469480 0.173094 0 0 255
0.228302 -0.505691 0.383244 0 0 255
0.228061 -0.466636 0.235244 0 0 255
0.229087 -0.468099 0.093244 0 0 255
0.230957 -0.468890 0.381244 0 0 255
0.207798 -0.461958 0.067244 0 0 255
0.213078 -0.510771 -0.016756 0 0 255
0.211482 -0.460756 -0.056756 0 0 255
0.231330 -0.469444 -0.004756 0 0 255
0.226204 -0.507259 0.198024 0 0 255
0.205284 -0.508964 0.315244 0 0 255
0.215111 -0.510856 0.259673 0 0 255
0.221589 -0.509467 0.155244 0 0 255
0.238256 -0.483358 -0.060756 0 0 255
0.190103 -0.482504 0.203244 0 0 255
0.213761 -0.516702 -0.078480 0 0 255
0.204674 -0.463289 0.297244 0 0 255
0.191598 -0.474638 0.135244 0 0 255
0.190360 -0.490774 -0.026756 0 0 255
0.203172 -0.508100 0.219244 0 0 255
0.237898 -0.481222 0.209244 0 0 255
0.189176 -0.480942 0.409244 0 0 255
0.235701 -0.499188 0.323244 0 0 255
0.189780 -0.482429 -0.058756 0 0 255
0.231244 -0.469423 0.287244 0 0 255
0.199923 -0.505518 0.379244 0 0 255
0.223960 -0.463636 0.176500 0 0 255
0.209210 -0.509740 0.023244 0 0 255
0.235544 -0.475692 0.031244 0 0 255
0.190064 -0.482494 0.351244 0 0 255
0.232682 -0.502596 0.073244 0 0 255
0.190675 -0.478530 0.029244 0 0 255
0.227407 -0.466485 0.120541 0 0 255
0.190475 -0.493094 0.155244 0 0 255
0.195517 -0.467332 0.003244 0 0 255
0.223892 -0.508384 0.127244 0 0 255
0.228335 -0.505699 -0.050756 0 0 255
0.191242 -0.476609 0.261244 0 0 255
0.229009 -0.468439 -0.038756 0 0 255
0.203424 -0.463000 0.229244 0 0 255
0.190989 -0.492971 0.109244 0 0 255
0.190337 -0.480505 0.079244 0 0 255
0.208002 -0.461634 0.327244 0 0 255
0.228544 -0.506013 0.409244 0 0 255
0.200588 -0.489029 0.301244 0 0 255
0.223657 -0.508724 0.359244 0 0 255
0.207964 -0.461798 0.377244 0 0 255
0.213614 -0.481774 0.411428 0 0 255
0.197858 -0.505566 0.243244 0 0 255
0.207126 -0.509883 0.291244 0 0 255
0.233166 -0.471919 0.341244 0 0 255
0.211166 -0.510161 0.107244 0 0 255
0.211864 -0.453792 -0.080756 0 0 255
0.234059 -0.473237 0.155244 0 0 255
0.223089 -0.463435 0.047244 0 0 255
0.207167 -0.500812 0.066233 0 0 255
0.233722 -0.500784 -0.008756 0 0 255
0.237149 -0.495417 0.043149 0 0 255
0.219418 -0.509982 0.335244 0 0 255
0.202703 -0.497728 -0.070756 0 0 255
0.198602 -0.466780 0.047244 0 0 255
0.199325 -0.505158 0.043244 0 0 255
0.204552 -0.463260 0.121244 0 0 255
0.238144 -0.485384 0.303244 0 0 255
0.219233 -0.510781 0.177244 0 0 255
0.238164 -0.485389 0.241244 0 0 255
0.200653 -0.475678 -0.040756 0 0 255
0.238019 -0.483303 0.111244 0 0 255
0.205430 -0.499441 0.199244 0 0 255
0.193267 -0.498780 0.331244 0 0 255
0.238834 -0.487596 0.389244 0 0 255
0.248300 -0.482678 -0.082756 0 0 255
0.202593 -0.489492 0.393244 0 0 255
0.238741 -0.487575 0.087244 0 0 255
0.230966 -0.463201 0.409244 0 0 255
0.212772 -0.503206 0.003244 0 0 255
0.192778 -0.474910 0.283244 0 0 255
0.231182 -0.503482 0.271244 0 0 255
0.202193 -0.472980 0.153244 0 0 255
0.219354 -0.510259 0.087244 0 0 255
0.230703 -0.487771 0.370204 0 0 255
0.202442 -0.494602 0.261244 0 0 255
0.205419 -0.467566 0.249244 0 0 255
0.229071 -0.468169 0.257244 0 0 255
0.183543 -0.483042 -0.078756 0 0 255
0.231004 -0.477578 0.190241 0 0 255
0.209869 -0.462436 0.087654 0 0 255
0.189934 -0.486570 0.183244 0 0 255
0.200008 -0.482738 -0.010756 0 0 255
0.202893 -0.492649 0.363244 0 0 255
0.227293 -0.502542 -0.070756 0 0 255
0.226013 -0.468215 0.073244 0 0 255
0.232901 -0.502647 0.251244 0 0 255
0.214387 -0.460646 0.001244 0 0 255
0.231210 -0.469415 0.361244 0 0 255
0.237149 -0.495417 0.155021 0 0 255
0.201055 -0.487085 0.219244 0 0 255
0.196193 -0.468324 0.395244 0 0 255
0.215093 -0.510934 -0.036756 0 0 255
0.238262 -0.487464 0.283244 0 0 255
0.193345 -0.498444 0.025244 0 0 255
0.202157 -0.472971 0.191244 0 0 255
0.236850 -0.478927 0.012126 0 0 255
0.198022 -0.467911 0.361244 0 0 255
0.226743 -0.469366 -0.068756 0 0 255
0.202464 -0.507936 0.157244 0 0 255
0.196523 -0.502459 -0.011995 0 0 255
0.226299 -0.506846 0.031244 0 0 255
0.201397 -0.476900 -0.072756 0 0 255
0.223826 -0.508667 0.311244 0 0 255
0.195510 -0.467331 0.341244 0 0 255
0.221482 -0.501042 0.215244 0 0 255
0.213095 -0.510697 0.393244 0 0 255
0.201546 -0.485145 0.123244 0 0 255
0.213970 -0.510593 0.235244 0 0 255
0.199888 -0.487885 0.093244 0 0 255
0.213237 -0.501189 0.275244 0 0 255
0.198775 -0.466032 0.211297 0 0 255
0.215077 -0.461586 0.105244 0 0 255
0.225680 -0.465073 0.217244 0 0 255
0.229280 -0.489496 0.337244 0 0 255
0.237149 -0.495417 0.189542 0 0 255
0.234644 -0.474313 -0.022756 0 0 255
0.212042 -0.461912 -0.038756 0 0 255
0.201064 -0.487087 0.169244 0 0 255
0.192456 -0.472784 0.063244 0 0 255
0.209984 -0.461938 0.165244 0 0 255
0.200594 -0.489031 0.141244 0 0 255
0.201683 -0.493388 -0.040756 0 0 255
0.230258 -0.471918 0.137244 0 0 255
0.199305 -0.481520 0.013244 0 0 255
0.200796 -0.483953 0.337244 0 0 255
0.231904 -0.473680 -0.085731 0 0 255
0.228185 -0.505664 -0.024756 0 0 255
0.212766 -0.503230 0.141244 0 0 255
0.223960 -0.463636 0.302030 0 0 255
0.231122 -0.481711 0.225244 0 0 255
0.215143 -0.510715 -0.060756 0 0 255
0.236007 -0.497206 0.121244 0 0 255
0.216164 -0.461837 0.284114 0 0 255
0.199930 -0.505486 -0.028756 0 0 255
0.232229 -0.486072 -0.044756 0 0 255
0.221123 -0.462981 0.395244 0 0 255
0.192708 -0.472842 0.305244 0 0 255
0.225662 -0.465152 0.013244 0 0 255
0.201525 -0.485141 0.247244 0 0 255
0.215179 -0.501668 0.373244 0 0 255
0.191872 -0.495933 0.071244 0 0 255
0.199065 -0.486625 0.041244 0 0 255
0.201171 -0.491216 0.318208 0 0 255
0.191577 -0.497212 0.405514 0 0 255
0.230457 -0.493873 0.059244 0 0 255
0.226279 -0.498045 0.169244 0 0 255
0.230493 -0.515355 -0.080756 0 0 255
0.237053 -0.495831 0.217244 0 0 255
0.238551 -0.485478 -0.004756 0 0 255
0.231417 -0.504357 0.345244 0 0 255
0.196811 -0.467632 -0.058756 0 0 255
0.192660 -0.497462 0.209244 0 0 255
0.201271 -0.508570 -0.086756 0 0 255
0.207389 -0.499847 0.119244 0 0 255
0.191965 -0.474723 -0.024756 0 0 255
0.231015 -0.504264 0.141244 0 0 255
0.238166 -0.483337 0.321244 0 0 255
0.203423 -0.463682 0.137244 0 0 255
0.223097 -0.463437 -0.024756 0 0 255
0.228892 -0.491459 0.401244 0 0 255
0.234081 -0.473143 0.397244 0 0 255
0.219232 -0.510786 0.071244 0 0 255
0.193300 -0.498641 0.229244 0 0 255
0.206570 -0.467832 0.312272 0 0 255
0.192675 -0.472834 0.117244 0 0 255
0.230879 -0.491917 0.029244 0 0 255
0.211285 -0.500752 0.303244 0 0 255
0.192793 -0.474164 0.223244 0 0 255
0.232684 -0.484123 0.073244 0 0 255
0.209141 -0.462267 0.181244 0 0 255
0.229955 -0.473231 0.272169 0 0 255
0.190924 -0.492956 0.373244 0 0 255
0.209339 -0.500290 0.169244 0 0 255
0.221131 -0.462984 0.337244 0 0 255
0.199904 -0.466293 0.031244 0 0 255
0.192954 -0.497530 -0.058756 0 0 255
0.203497 -0.472251 0.271244 0 0 255
0.214362 -0.496314 0.406359 0 0 255
0.229571 -0.492673 0.203244 0 0 255
0.207371 -0.499925 0.337244 0 0 255
0.213237 -0.501191 0.247244 0 0 255
0.223305 -0.508642 0.015244 0 0 255
0.213061 -0.510845 0.191244 0 0 255
0.206350 -0.468785 -0.008756 0 0 255
0.223421 -0.501529 0.113244 0 0 255
0.213063 -0.510836 0.207244 0 0 255
0.194860 -0.500777 0.293244 0 0 255
0.224763 -0.463822 0.031244 0 0 255
0.231630 -0.479775 0.045244 0 0 255
0.199824 -0.470380 0.410727 0 0 255
0.229583 -0.469040 0.203244 0 0 255
0.214400 -0.460593 0.239244 0 0 255
0.207197 -0.509570 0.363244 0 0 255
0.196220 -0.490074 -0.082756 0 0 255
0.239933 -0.492244 -0.074756 0 0 255
0.202882 -0.479295 0.371244 0 0 255
0.203719 -0.497963 0.014217 0 0 255
0.234023 -0.473395 0.171244 0 0 255
0.228410 -0.493400 0.311244 0 0 255
0.232808 -0.502626 0.369244 0 0 255
0.212775 -0.503192 0.037244 0 0 255
0.222236 -0.462215 0.371244 0 0 255
0.223960 -0.463636 0.160368 0 0 255
0.227531 -0.497302 0.087244 0 0 255
0.191070 -0.478621 0.161244 0 0 255
0.232499 -0.471100 -0.054756 0 0 255
0.196477 -0.467100 0.079244 0 0 255
0.194809 -0.471274 0.239244 0 0 255
0.205716 -0.462643 -0.070756 0 0 255
0.191372 -0.495112 0.251244 0 0 255
0.215181 -0.501660 0.323244 0 0 255
0.207392 -0.499838 0.097244 0 0 255
0.199877 -0.505716 0.271244 0 0 255
0.224165 -0.462747 0.191244 0 0 255
0.197890 -0.505429 0.395244 0 0 255
0.189473 -0.486464 -0.044756 0 0 255
0.194860 -0.500774 0.309244 0 0 255
0.192449 -0.497413 0.353244 0 0 255
0.193392 -0.498244 0.191244 0 0 255
0.206352 -0.468776 0.013244 0 0 255
0.190609 -0.492513 0.129244 0 0 255
0.232503 -0.479977 0.124216 0 0 255
0.189862 -0.480395 -0.000756 0 0 255
0.232633 -0.470519 0.107244 0 0 255
0.189948 -0.486573 0.291244 0 0 255
0.215181 -0.501662 0.349244 0 0 255
0.203792 -0.475401 0.385244 0 0 255
0.221492 -0.509886 0.283244 0 0 255
0.227931 -0.495342 0.003244 0 0 255
0.221807 -0.464069 -0.082756 0 0 255
0.200442 -0.480785 0.107244 0 0 255
0.196523 -0.502459 0.056989 0 0 255
0.200337 -0.485937 0.273244 0 0 255
0.199532 -0.484681 0.067244 0 0 255
0.189911 -0.480406 0.365244 0 0 255
0.211625 -0.463719 0.217244 0 0 255
0.212040 -0.461922 0.037244 0 0 255
0.201621 -0.489268 0.411422 0 0 255
0.190477 -0.482590 0.395244 0 0 255
0.231753 -0.488014 -0.016756 0 0 255
0.220561 -0.505030 -0.082756 0 0 255
0.225135 -0.498802 0.183244 0 0 255
0.227535 -0.497303 -0.036756 0 0 255
0.201419 -0.507926 0.257244 0 0 255
0.214719 -0.503662 -0.048756 0 0 255
0.231738 -0.488010 0.099244 0 0 255
0.210004 -0.461851 0.053244 0 0 255
0.229286 -0.489497 0.253244 0 0 255
0.208037 -0.461478 0.391244 0 0 255
0.196442 -0.502441 0.145244 0 0 255
0.194258 -0.499884 0.167244 0 0 255
0.237149 -0.495417 -0.054324 0 0 255
0.199748 -0.479603 0.053244 0 0 255
0.225550 -0.496845 0.241244 0 0 255
0.231160 -0.481719 0.355244 0 0 255
0.189929 -0.486569 0.309464 0 0 255
0.198022 -0.504858 0.110628 0 0 255
0.223869 -0.508484 -0.002756 0 0 255
0.201825 -0.464684 0.283244 0 0 255
0.210822 -0.502757 0.079244 0 0 255
0.218573 -0.468550 0.411244 0 0 255
0.203052 -0.474182 0.325244 0 0 255
0.191960 -0.495549 0.387244 0 0 255
0.207384 -0.499870 0.229244 0 0 255
0.229287 -0.489497 0.293244 0 0 255
0.232731 -0.484134 0.147244 0 0 255
0.226723 -0.496125 0.355244 0 0 255
0.201322 -0.476883 0.295244 0 0 255
0.200873 -0.474727 0.090275 0 0 255
0.219343 -0.510308 0.297244 0 0 255
0.190128 -0.480457 0.147244 0 0 255
0.216387 -0.460874 -0.012756 0 0 255
0.215182 -0.461609 0.131244 0 0 255
0.202587 -0.489491 0.349244 0 0 255
0.207223 -0.509459 0.053244 0 0 255
0.194128 -0.477274 -0.085784 0 0 255
0.204220 -0.473447 0.349244 0 0 255
0.203643 -0.493840 0.285244 0 0 255
0.193536 -0.506505 -0.074756 0 0 255
0.201659 -0.493382 0.081244 0 0 255
0.211030 -0.510751 0.129244 0 0 255
0.209340 -0.500289 0.183244 0 0 255
0.190676 -0.492223 -0.070756 0 0 255
0.202894 -0.492644 0.379244 0 0 255
0.233694 -0.480252 -0.072756 0 0 255
0.234186 -0.472689 0.245244 0 0 255
0.199938 -0.505449 0.001244 0 0 255
0.232783 -0.502620 0.395244 0 0 255
0.216164 -0.461837 0.254263 0 0 255
0.196377 -0.467531 0.374930 0 0 255
0.190553 -0.490818 0.265244 0 0 255
0.222697 -0.500292 0.261244 0 0 255
0.199098 -0.486633 0.193244 0 0 255
0.228024 -0.495364 0.281244 0 0 255
0.230643 -0.475442 0.299244 0 0 255
0.211148 -0.465785 0.365244 0 0 255
0.226657 -0.478627 0.406415 0 0 255
0.234619 -0.474308 0.083244 0 0 255
0.190473 -0.490800 0.341244 0 0 255
0.227971 -0.495351 0.131244 0 0 255
0.202887 -0.479298 0.401244 0 0 255
0.236493 -0.478845 -0.034756 0 0 255
0.201217 -0.464346 0.261244 0 0 255
0.216364 -0.460974 0.317244 0 0 255
0.194248 -0.471145 0.019244 0 0 255
0.193295 -0.498657 0.097244 0 0 255
0.228105 -0.468698 0.059244 0 0 255
0.200898 -0.478838 0.209244 0 0 255
0.238234 -0.495668 0.379244 0 0 255
0.203418 -0.508156 0.327934 0 0 255
0.203003 -0.460851 -0.086756 0 0 255
0.226272 -0.506966 0.061244 0 0 255
0.190266 -0.480489 0.097244 0 0 255
0.230575 -0.475426 0.329244 0 0 255
0.189912 -0.478354 0.045244 0 0 255
0.194330 -0.471164 -0.012756 0 0 255
0.190366 -0.490775 -0.012756 0 0 255
0.217249 -0.510481 0.405244 0 0 255
0.225089 -0.498791 0.045244 0 0 255
0.237420 -0.479059 0.377244 0 0 255
0.201180 -0.464503 -0.046756 0 0 255
0.207583 -0.463447 0.341244 0 0 255
0.211280 -0.500777 0.385244 0 0 255
0.238595 -0.485489 0.197244 0 0 255
0.238507 -0.483416 0.161244 0 0 255
0.199895 -0.487856 0.027244 0 0 255
0.202434 -0.494641 0.159244 0 0 255
0.223780 -0.508869 0.245244 0 0 255
0.238007 -0.495616 0.409244 0 0 255
0.212776 -0.503185 -0.026756 0 0 255
0.237904 -0.491487 0.229244 0 0 255
0.219078 -0.502562 0.101244 0 0 255
0.196490 -0.502606 0.367244 0 0 255
0.226367 -0.507297 0.325244 0 0 255
0.221585 -0.509486 0.225244 0 0 255
0.207225 -0.509451 -0.070756 0 0 255
0.230191 -0.485601 0.273244 0 0 255
0.200940 -0.478848 0.313244 0 0 255
0.208877 -0.502295 -0.008756 0 0 255
0.225653 -0.465190 0.349244 0 0 255
0.190269 -0.480490 0.249244 0 0 255
0.200939 -0.478848 0.231244 0 0 255
0.202445 -0.494593 0.239244 0 0 255
0.202254 -0.472994 0.129244 0 0 255
0.205060 -0.469536 0.109244 0 0 255
0.238060 -0.483312 0.343244 0 0 255
0.237151 -0.468734 -0.075278 0 0 255
0.200943 -0.478849 0.179244 0 0 255
0.200473 -0.494238 -0.020756 0 0 255
0.190199 -0.488684 0.017244 0 0 255
0.217193 -0.510728 0.381244 0 0 255
0.190113 -0.478400 0.339244 0 0 255
0.189836 -0.484495 0.215244 0 0 255
0.195478 -0.467323 0.317244 0 0 255
0.190028 -0.484539 0.119244 0 0 255
0.207387 -0.499853 0.211244 0 0 255
0.198567 -0.488563 -0.052756 0 0 255
0.194282 -0.471153 0.201244 0 0 255
0.220306 -0.501792 0.397244 0 0 255
0.191913 -0.495760 0.045244 0 0 255
0.207442 -0.461875 0.193244 0 0 255
0.222259 -0.502243 -0.014756 0 0 255
0.222953 -0.463403 0.273244 0 0 255
0.236488 -0.476792 0.097244 0 0 255
0.229597 -0.479306 0.387244 0 0 255
0.200402 -0.480776 0.359244 0 0 255
0.214957 -0.510820 0.165244 0 0 255
0.228447 -0.493409 0.387244 0 0 255
0.227581 -0.465733 0.147244 0 0 255
0.205868 -0.461982 0.149244 0 0 255
0.190054 -0.472230 -0.074756 0 0 255
0.236488 -0.497318 0.303244 0 0 255
0.230822 -0.491904 -0.064756 0 0 255
0.199549 -0.484684 -0.032756 0 0 255
0.237449 -0.479066 0.365244 0 0 255
0.201985 -0.496586 0.035244 0 0 255
0.201118 -0.464776 -0.034756 0 0 255
0.206120 -0.469781 0.202241 0 0 255
0.199971 -0.505308 0.074916 0 0 255
0.199541 -0.484683 0.153244 0 0 255
0.225094 -0.498792 0.151244 0 0 255
0.190543 -0.492798 0.087244 0 0 255
0.203964 -0.470228 0.059244 0 0 255
0.236473 -0.497315 0.261244 0 0 255
0.201821 -0.474946 0.039244 0 0 255
0.201809 -0.474943 0.141244 0 0 255
0.191987 -0.474728 -0.048756 0 0 255
0.189516 -0.480315 0.273244 0 0 255
0.199891 -0.487876 -0.064756 0 0 255
0.203501 -0.472233 0.071244 0 0 255
0.199633 -0.492914 -0.004756 0 0 255
0.190890 -0.476528 0.191244 0 0 255
0.200934 -0.492245 0.181244 0 0 255
0.235706 -0.499189 0.335244 0 0 255
0.194902 -0.500591 0.121244 0 0 255
0.237149 -0.495417 0.109651 0 0 255
0.203191 -0.495788 0.049244 0 0 255
0.189765 -0.480373 0.173244 0 0 255
0.231613 -0.479771 0.311244 0 0 255
0.238276 -0.489520 0.007244 0 0 255
0.219988 -0.509930 0.271244 0 0 255
0.221042 -0.462963 0.383244 0 0 255
0.215185 -0.501648 0.289244 0 0 255
0.238118 -0.487431 0.021244 0 0 255
0.231105 -0.503815 0.209244 0 0 255
0.225084 -0.498790 0.021244 0 0 255
0.238296 -0.485420 0.037244 0 0 255
0.190438 -0.490791 0.323244 0 0 255
0.199917 -0.505540 0.283244 0 0 255
0.206929 -0.501841 -0.060756 0 0 255
0.190065 -0.490706 0.033244 0 0 255
0.217124 -0.462057 -0.068756 0 0 255
0.217255 -0.510459 0.117244 0 0 255
0.235011 -0.499029 0.177244 0 0 255
0.209022 -0.510558 0.093244 0 0 255
0.208881 -0.502276 -0.080756 0 0 255
0.202600 -0.476141 0.259244 0 0 255
0.194274 -0.499887 -0.046756 0 0 255
0.207503 -0.468047 0.401244 0 0 255
0.229302 -0.489501 0.325244 0 0 255
0.224815 -0.463834 0.325244 0 0 255
0.229955 -0.473231 0.020208 0 0 255
0.211072 -0.510566 0.343244 0 0 255
0.231001 -0.504261 0.159449 0 0 255
0.187948 -0.469690 0.407244 0 0 255
0.223960 -0.463636 0.083991 0 0 255
0.237773 -0.493509 0.363244 0 0 255
0.201470 -0.507706 0.031447 0 0 255
0.231081 -0.481701 0.179244 0 0 255
0.223875 -0.499564 0.337244 0 0 255
0.222695 -0.500291 0.303244 0 0 255
0.238170 -0.487443 0.051244 0 0 255
0.207288 -0.509180 0.011244 0 0 255
0.203722 -0.471279 0.220289 0 0 255
0.224851 -0.463842 0.247244 0 0 255
0.236848 -0.505611 -0.076538 0 0 255
0.204096 -0.463155 0.099244 0 0 255
0.234230 -0.472496 0.217244 0 0 255
0.238051 -0.495626 0.143244 0 0 255
0.195989 -0.460319 0.407244 0 0 255
0.240724 -0.492138 0.293244 0 0 255
0.223624 -0.491763 0.411244 0 0 255
0.204233 -0.508344 -0.038756 0 0 255
0.228000 -0.495358 0.225244 0 0 255
0.195061 -0.469280 0.253244 0 0 255
0.202436 -0.494633 0.109244 0 0 255
0.201387 -0.476898 0.003244 0 0 255
0.215175 -0.501691 0.361244 0 0 255
0.237446 -0.494129 0.273244 0 0 255
0.202445 -0.494592 0.131244 0 0 255
0.223930 -0.454871 -0.076756 0 0 255
0.230397 -0.469228 0.039244 0 0 255
0.222010 -0.463186 -0.045712 0 0 255
0.201786 -0.506337 0.191244 0 0 255
0.204636 -0.498174 0.401244 0 0 255
0.201550 -0.507361 0.303244 0 0 255
0.216164 -0.461837 0.228314 0 0 255
0.237681 -0.493488 0.077244 0 0 255
0.196495 -0.502580 0.321244 0 0 255
0.221511 -0.509804 0.143244 0 0 255
0.196254 -0.468062 0.161244 0 0 255
0.198785 -0.466035 0.183244 0 0 255
0.238347 -0.472448 0.409244 0 0 255
0.237900 -0.483275 0.399527 0 0 255
0.236536 -0.476803 0.255244 0 0 255
0.222244 -0.502240 -0.060756 0 0 255
0.239997 -0.491970 0.252118 0 0 255
0.225553 -0.496846 0.375244 0 0 255
0.236401 -0.497297 0.239244 0 0 255
0.202132 -0.491438 0.329244 0 0 255
0.193183 -0.499147 -0.034756 0 0 255
0.202895 -0.479299 0.283244 0 0 255
0.223448 -0.508675 0.371244 0 0 255
0.211064 -0.501711 0.264255 0 0 255
0.212767 -0.503225 0.157244 0 0 255
0.214691 -0.510759 0.061244 0 0 255
0.189733 -0.490629 0.141244 0 0 255
0.222010 -0.463186 0.360319 0 0 255
0.201330 -0.476885 0.027244 0 0 255
0.200612 -0.489035 0.205244 0 0 255
0.195987 -0.502336 0.341244 0 0 255
0.190876 -0.478577 -0.036756 0 0 255
0.199074 -0.482522 -0.021821 0 0 255
0.201385 -0.476898 0.165244 0 0 255
0.231081 -0.481701 0.003244 0 0 255
0.205440 -0.499398 0.025244 0 0 255
0.213076 -0.510780 0.307244 0 0 255
0.214216 -0.461387 0.076056 0 0 255
0.232055 -0.477820 -0.012756 0 0 255
0.229738 -0.474168 0.371244 0 0 255
0.214216 -0.461387 0.306334 0 0 255
0.214216 -0.461387 0.116088 0 0 255
0.236517 -0.476798 0.281244 0 0 255
0.230578 -0.469269 0.183244 0 0 255
0.222265 -0.502244 0.077244 0 0 255
0.190337 -0.488715 0.225244 0 0 255
0.200940 -0.492219 0.059244 0 0 255
0.195437 -0.467314 0.293244 0 0 255
0.237623 -0.481159 0.293244 0 0 255
0.207960 -0.509205 0.175244 0 0 255
0.238334 -0.487480 0.331244 0 0 255
0.189872 -0.488608 0.165244 0 0 255
0.214216 -0.461387 0.012031 0 0 255
0.235497 -0.475900 0.233244 0 0 255
0.211133 -0.510306 0.149244 0 0 255
0.201773 -0.470830 -0.081745 0 0 255
0.234445 -0.474268 0.069244 0 0 255
0.223144 -0.508606 0.187244 0 0 255
0.200644 -0.489042 0.005244 0 0 255
0.216667 -0.504116 -0.072756 0 0 255
0.223960 -0.463636 -0.060074 0 0 255
0.200205 -0.477623 -0.060756 0 0 255
0.235798 -0.497159 -0.020756 0 0 255
0.207099 -0.509993 0.247244 0 0 255
0.221161 -0.462990 0.065244 0 0 255
0.200031 -0.482743 0.083244 0 0 255
0.191720 -0.495193 0.239244 0 0 255
0.203572 -0.463035 0.351595 0 0 255
0.228833 -0.491445 0.161244 0 0 255
0.236370 -0.497291 -0.042756 0 0 255
0.186325 -0.489842 -0.086756 0 0 255
0.206641 -0.498637 0.355244 0 0 255
0.206152 -0.500578 0.149244 0 0 255
0.232255 -0.502498 0.053244 0 0 255
0.190243 -0.490747 0.361244 0 0 255
0.206570 -0.467832 0.238172 0 0 255
0.196073 -0.504408 0.199991 0 0 255
0.201796 -0.474940 -0.028756 0 0 255
0.191854 -0.496012 0.177244 0 0 255
0.211098 -0.510454 0.281244 0 0 255
0.227977 -0.468669 -0.016756 0 0 255
0.197564 -0.459595 -0.076756 0 0 255
0.202516 -0.507948 -0.018756 0 0 255
0.229739 -0.487549 0.235244 0 0 255
0.193234 -0.472253 0.331244 0 0 255
0.236758 -0.497111 0.093244 0 0 255
0.217133 -0.502098 0.199244 0 0 255
0.206570 -0.467832 0.002241 0 0 255
0.190154 -0.480463 0.109244 0 0 255
0.189552 -0.478272 0.011244 0 0 255
0.204608 -0.471484 0.335244 0 0 255
0.206354 -0.468770 0.173244 0 0 255
0.226157 -0.507460 -0.038756 0 0 255
0.230551 -0.506211 -0.085755 0 0 255
0.238386 -0.487492 0.063244 0 0 255
0.214398 -0.460599 0.155244 0 0 255
0.227593 -0.497317 0.193244 0 0 255
0.203194 -0.495789 -0.030756 0 0 255
0.203938 -0.497011 0.251244 0 0 255
0.190978 -0.492969 0.301244 0 0 255
0.235429 -0.476193 -0.044756 0 0 255
0.236808 -0.496893 0.167244 0 0 255
0.203329 -0.508545 0.233244 0 0 255
0.205669 -0.498413 0.312237 0 0 255
0.202209 -0.507877 0.101244 0 0 255
0.190964 -0.476544 0.295244 0 0 255
0.204689 -0.498187 0.295244 0 0 255
0.232719 -0.502606 0.313244 0 0 255
0.190528 -0.492865 0.200224 0 0 255
0.194337 -0.471165 0.351244 0 0 255
0.194876 -0.500706 0.219244 0 0 255
0.221577 -0.509521 0.347244 0 0 255
0.230186 -0.472229 0.007244 0 0 255
0.190730 -0.480596 -0.014756 0 0 255
0.209039 -0.510481 0.269244 0 0 255
0.238580 -0.485484 0.219244 0 0 255
0.221019 -0.503047 0.233244 0 0 255
0.213078 -0.510772 -0.004756 0 0 255
0.213096 -0.510690 0.219244 0 0 255
0.209928 -0.466555 0.277244 0 0 255
0.200081 -0.490965 0.229244 0 0 255
0.203154 -0.495780 0.273244 0 0 255
0.224615 -0.465840 0.131244 0 0 255
0.237798 -0.492607 0.315244 0 0 255
0.229280 -0.489496 0.215244 0 0 255
0.228381 -0.493394 0.069244 0 0 255
0.215111 -0.510856 0.317334 0 0 255
0.189593 -0.482386 0.065244 0 0 255
0.233769 -0.501166 0.035244 0 0 255
0.191800 -0.474685 0.211244 0 0 255
0.209120 -0.510131 0.373244 0 0 255
0.190262 -0.480487 -0.068756 0 0 255
0.205415 -0.499508 0.371244 0 0 255
0.200023 -0.482741 0.133244 0 0 255
0.213072 -0.510796 0.353244 0 0 255
0.225162 -0.498808 0.319244 0 0 255
0.228688 -0.505389 0.007244 0 0 255
0.238378 -0.485438 0.185244 0 0 255
0.203956 -0.508281 0.141244 0 0 255
0.199500 -0.466199 0.385244 0 0 255
0.216663 -0.504134 0.027244 0 0 255
0.202987 -0.508057 0.123244 0 0 255
0.214712 -0.503694 0.017244 0 0 255
0.228398 -0.493397 0.141244 0 0 255
0.209179 -0.509877 0.071244 0 0 255
0.221069 -0.462968 0.097244 0 0 255
0.202231 -0.472988 -0.018756 0 0 255
0.214216 -0.461387 0.293985 0 0 255
0.222874 -0.512648 -0.074756 0 0 255
0.189879 -0.484504 0.331244 0 0 255
0.221026 -0.503013 0.135244 0 0 255
0.196582 -0.466641 -0.068756 0 0 255
0.223250 -0.463473 -0.004756 0 0 255
0.231329 -0.469442 0.049244 0 0 255
0.203378 -0.508148 0.207244 0 0 255
0.213288 -0.461172 -0.024756 0 0 255
0.201725 -0.506599 0.167244 0 0 255
0.213050 -0.510892 0.327244 0 0 255
0.194845 -0.500834 0.263244 0 0 255
0.226204 -0.507259 0.095171 0 0 255
0.201806 -0.474942 -0.050756 0 0 255
0.230935 -0.504246 0.219244 0 0 255
0.235453 -0.476089 0.199244 0 0 255
0.237879 -0.493533 0.397244 0 0 255
0.190136 -0.482512 0.129244 0 0 255
0.191432 -0.474600 0.181244 0 0 255
0.238545 -0.487529 0.121244 0 0 255
0.205669 -0.498413 0.411226 0 0 255
0.223981 -0.508798 0.255244 0 0 255
0.233371 -0.471966 0.351244 0 0 255
0.193301 -0.498637 0.015244 0 0 255
0.203871 -0.479524 0.411256 0 0 255
0.205275 -0.509004 0.387244 0 0 255
0.202574 -0.471014 0.303244 0 0 255
0.192376 -0.472765 0.053244 0 0 255
0.229757 -0.487554 0.347244 0 0 255
0.235023 -0.474401 -0.064756 0 0 255
0.212766 -0.503227 0.047244 0 0 255
0.211002 -0.510873 -0.086756 0 0 255
0.228842 -0.491447 0.265244 0 0 255
0.225571 -0.496850 0.365244 0 0 255
0.206349 -0.468794 0.023244 0 0 255
0.215183 -0.501653 0.313244 0 0 255
0.200930 -0.478845 0.199244 0 0 255
0.215185 -0.501644 0.223244 0 0 255
0.211611 -0.463780 -0.080756 0 0 255
0.230629 -0.483649 0.169244 0 0 255
0.202736 -0.497736 -0.052756 0 0 255
0.200346 -0.485903 0.291244 0 0 255
0.199544 -0.484683 0.263244 0 0 255
0.197191 -0.499565 -0.086756 0 0 255
0.231829 -0.482893 -0.026756 0 0 255
0.234075 -0.473165 0.117244 0 0 255
0.219360 -0.510230 -0.024756 0 0 255
0.233873 -0.500710 0.025244 0 0 255
0.222010 -0.463186 0.262065 0 0 255
0.232887 -0.502644 0.359244 0 0 255
0.201690 -0.493389 0.071244 0 0 255
0.202286 -0.473001 0.119244 0 0 255
0.229574 -0.492660 0.115244 0 0 255
0.204091 -0.514137 -0.078756 0 0 255
0.238261 -0.495675 0.199244 0 0 255
0.198223 -0.503988 -0.064756 0 0 255
0.228131 -0.505651 0.175244 0 0 255
0.230072 -0.469152 0.307244 0 0 255
0.228713 -0.469723 0.225244 0 0 255
0.231106 -0.481706 0.247244 0 0 255
0.189638 -0.486501 0.281244 0 0 255
0.243895 -0.492869 -0.083625 0 0 255
0.193021 -0.473177 0.387244 0 0 255
0.219587 -0.509837 0.039244 0 0 255
0.206805 -0.466816 0.079244 0 0 255
0.237616 -0.479105 0.271244 0 0 255
0.207520 -0.468051 0.043244 0 0 255
0.226055 -0.499014 0.122225 0 0 255
0.223960 -0.463636 0.289958 0 0 255
0.205429 -0.499444 0.323244 0 0 255
0.198022 -0.504858 0.357692 0 0 255
0.195232 -0.469319 0.267244 0 0 255
0.236701 -0.495314 -0.000756 0 0 255
0.200139 -0.505347 0.019244 0 0 255
0.235161 -0.499064 0.287244 0 0 255
0.231862 -0.502408 -0.060756 0 0 255
0.231320 -0.463282 -0.086756 0 0 255
0.190634 -0.492406 0.397244 0 0 255
0.194881 -0.471291 0.147244 0 0 255
0.236943 -0.478523 0.139244 0 0 255
0.231232 -0.476591 0.263244 0 0 255
0.223284 -0.508637 0.391244 0 0 255
0.230026 -0.490705 0.185244 0 0 255
0.220717 -0.510098 0.107244 0 0 255
0.223657 -0.500513 0.250253 0 0 255
0.192735 -0.472848 0.037244 0 0 255
0.189673 -0.486509 0.385244 0 0 255
0.206152 -0.500577 0.087244 0 0 255
0.189577 -0.486487 0.193244 0 0 255
0.232278 -0.480950 -0.052756 0 0 255
0.217229 -0.510574 0.007244 0 0 255
0.185756 -0.495752 -0.078756 0 0 255
0.222749 -0.513332 -0.086756 0 0 255
0.228237 -0.468728 0.391244 0 0 255
0.190214 -0.490739 -0.002756 0 0 255
0.223890 -0.508395 0.167244 0 0 255
0.231618 -0.479772 0.105244 0 0 255
0.229025 -0.473016 0.163244 0 0 255
0.231298 -0.489961 0.015244 0 0 255
0.222697 -0.500292 0.275244 0 0 255
0.205511 -0.467588 -0.062756 0 0 255
