ply
format ascii 1.0
element vertex 1284
property float x
property float y
property float z
property uchar red
property uchar green
property uchar blue
end_header
0.569691 0.553830 -1.062647 5 6 8
0.577098 0.555536 -1.078106 7 8 10
0.562537 0.536147 -1.037655 5 6 8
0.576743 0.551834 -1.043951 5 6 8
0.565914 0.550563 -1.072659 5 6 8
0.568686 0.546017 -1.050382 5 6 8
0.653972 0.359722 -1.143645 21 23 32
0.643853 0.360914 -1.152815 6 8 10
0.643911 0.368414 -1.137246 16 19 26
0.630272 0.118471 -0.989562 26 30 38
0.534370 0.468457 -0.995866 8 9 11
0.697433 0.366284 -1.102141 20 24 34
0.693790 0.372587 -1.059831 19 23 33
0.695472 0.366546 -1.086931 19 23 33
0.618089 0.316220 -1.221837 36 34 40
0.618969 0.300973 -1.200497 32 39 43
0.622061 0.307336 -1.212313 23 29 35
0.606501 0.302056 -1.209118 25 31 34
0.705734 0.384339 -1.201800 59 64 74
0.729762 0.389461 -1.199923 57 61 71
0.720910 0.383806 -1.213318 62 64 79
0.723782 0.379039 -1.222764 59 65 75
0.664395 0.359774 -1.080364 21 24 33
0.684297 0.367554 -1.082529 20 24 32
0.556165 0.612592 -1.363887 8 9 10
0.545415 0.632007 -1.367226 6 8 7
0.539672 0.599451 -1.372468 6 8 7
0.612392 0.547947 -0.968464 9 13 16
0.604186 0.555994 -0.967499 9 10 11
0.602732 0.555462 -0.942247 11 14 14
0.528814 0.750786 -1.357038 7 7 7
0.533761 0.741046 -1.336932 8 8 8
0.556968 0.683546 -1.301128 6 7 7
0.547737 0.673394 -1.313371 7 8 10
0.551565 0.677043 -1.305289 5 8 7
0.632041 0.513720 -1.171975 15 16 18
0.628833 0.522549 -1.201936 14 16 15
0.633869 0.502154 -1.182055 14 16 18
0.633789 0.508010 -1.163157 14 19 21
0.630820 0.525988 -1.180389 10 12 14
0.600789 0.676911 -1.346502 9 11 14
0.597368 0.688129 -1.336125 9 11 15
0.605455 0.675103 -1.362341 8 10 11
0.691687 0.335616 -0.971109 24 29 39
0.699624 0.340905 -0.962835 28 31 42
0.709958 0.345521 -0.951779 33 35 48
0.628496 0.429178 -1.027470 9 10 15
0.622049 0.403039 -1.038465 9 9 14
0.646290 0.324363 -1.028746 22 23 32
0.659707 0.331005 -1.034324 22 24 33
0.644742 0.314702 -1.005634 20 25 30
0.655989 0.331115 -1.012947 19 24 31
0.603529 0.497405 -1.232561 6 8 9
0.635771 0.501170 -1.195577 14 15 17
0.642039 0.482315 -1.191499 14 18 20
0.638112 0.494780 -1.168990 11 14 15
0.640226 0.481373 -1.183237 18 21 22
0.644009 0.468357 -1.182967 14 18 18
0.636164 0.492311 -1.176888 13 18 19
0.721501 0.344537 -1.212965 54 65 69
0.643049 0.403184 -1.264997 24 33 36
0.787712 0.402397 -1.105712 17 25 32
0.756969 0.388820 -1.068238 19 23 30
0.766296 0.397574 -1.093413 18 24 33
0.774356 0.395218 -1.080834 17 24 31
0.787079 0.399679 -1.089265 17 24 32
0.562431 0.770761 -1.322829 11 11 11
0.575024 0.338801 -1.173053 15 17 24
0.586760 0.342278 -1.180292 16 20 27
0.627337 0.489414 -1.092339 5 8 10
0.624233 0.505919 -1.077648 7 10 12
0.632028 0.505188 -1.121637 9 11 12
0.629427 0.515268 -1.121964 8 9 11
0.631571 0.511893 -1.143288 15 16 18
0.628599 0.528689 -1.126594 17 18 19
0.628033 0.520987 -1.111428 8 9 10
0.563788 0.542978 -1.078943 5 6 8
0.571575 0.548934 -1.094067 5 7 9
0.596048 0.555664 -1.079549 6 9 9
0.703950 0.343044 -1.075140 20 25 34
0.702887 0.327918 -1.106918 26 30 40
0.696685 0.330037 -1.090949 24 28 33
0.717223 0.341893 -1.083938 24 27 36
0.723196 0.341781 -1.094414 27 30 40
0.590301 0.591937 -1.283893 6 7 7
0.594086 0.567861 -1.281108 5 7 7
0.576101 0.575712 -1.284870 6 7 7
0.570863 0.569964 -1.288267 5 7 6
0.648311 0.452183 -1.187811 21 21 21
0.647722 0.458228 -1.172400 16 20 21
0.580438 0.542405 -1.241505 5 7 8
0.583512 0.549843 -1.244316 5 7 7
0.589076 0.555178 -1.235758 5 7 8
0.579703 0.533277 -1.249828 5 7 7
0.576039 0.425386 -1.360888 42 50 53
0.710949 0.377979 -1.067111 21 23 33
0.700128 0.347694 -1.053411 20 23 33
0.709602 0.348117 -1.054344 19 22 32
0.715566 0.350279 -1.036069 19 23 29
0.715383 0.388563 -1.008809 23 26 37
0.709575 0.386748 -1.019456 23 26 37
0.700977 0.393138 -1.016562 21 27 36
0.717642 0.388640 -1.037578 22 26 34
0.706343 0.385615 -1.004580 19 22 30
0.545183 0.375591 -1.227720 5 6 8
0.771324 0.395645 -1.122739 20 24 33
0.752353 0.391079 -1.121349 20 24 33
0.788348 0.402866 -1.130589 20 24 33
0.766678 0.394809 -1.107519 20 23 32
0.826517 0.386458 -0.943568 10 11 13
0.826591 0.384199 -0.929116 9 10 12
0.812406 0.382023 -0.919878 9 10 12
0.754974 0.354086 -1.168292 58 67 78
0.779839 0.366234 -1.170977 73 71 81
0.800761 0.377458 -0.953157 9 11 11
0.812146 0.383606 -0.950037 9 12 11
0.802751 0.380937 -0.974927 24 28 37
0.817388 0.383673 -0.965066 11 12 12
0.563597 0.129022 -0.989029 21 27 35
0.688129 0.331744 -1.080430 21 25 32
0.673861 0.330837 -1.074022 24 26 36
0.666338 0.318945 -1.101213 25 29 40
0.669591 0.323188 -1.093951 26 29 40
0.665644 0.330445 -1.072386 21 24 33
0.622018 0.392483 -1.069268 11 11 15
0.622784 0.388333 -1.087640 8 10 13
0.625104 0.396608 -1.097459 8 10 13
0.620058 0.531412 -0.974733 9 12 13
0.614786 0.545835 -0.957140 9 12 13
0.731337 0.385612 -1.071051 19 22 33
0.745018 0.387963 -1.064079 19 23 33
0.717720 0.382106 -1.056417 19 23 32
0.741849 0.389668 -1.044702 27 30 42
0.560392 0.153723 -1.077393 18 21 28
0.553235 0.178555 -1.091130 16 18 24
0.560324 0.518760 -0.993359 4 6 8
0.559460 0.532681 -0.984573 4 6 8
0.612758 0.543303 -1.357506 17 21 21
0.611444 0.552872 -1.365053 15 19 22
0.627598 0.564460 -1.365247 12 16 16
0.624870 0.510408 -1.091647 7 9 10
0.626789 0.523295 -1.079283 8 9 11
0.621476 0.310603 -1.188122 45 54 60
0.602376 0.295811 -1.197078 31 37 45
0.604890 0.301910 -1.181406 41 53 60
0.663851 0.334508 -1.024839 20 23 31
0.693267 0.342763 -1.024099 19 23 33
0.689198 0.342501 -1.011784 19 23 32
0.676619 0.338343 -1.019468 19 23 32
0.666186 0.342737 -1.011981 20 23 31
0.771007 0.366507 -0.907033 13 14 15
0.762687 0.365891 -0.896470 18 24 31
0.775936 0.360214 -0.898923 15 22 29
0.756179 0.369393 -0.887161 17 24 31
0.778266 0.362984 -0.884476 17 22 28
0.785610 0.371265 -0.889343 12 13 14
0.577124 0.542262 -1.316689 7 9 8
0.589889 0.527606 -1.316645 6 8 9
0.579889 0.521687 -1.311116 7 9 8
0.558839 0.473392 -0.902297 9 12 15
0.731130 0.350373 -0.986072 47 48 66
0.743475 0.353428 -0.974169 45 48 68
0.725756 0.350622 -0.959545 48 51 66
0.742131 0.354194 -0.951331 47 50 64
0.758427 0.344939 -0.939887 41 44 60
0.750012 0.345077 -0.936733 41 44 60
0.729652 0.355370 -0.949433 49 49 64
0.651986 0.323553 -1.060601 22 24 33
0.616697 0.388771 -1.224400 37 47 52
0.616030 0.385457 -1.214007 51 55 63
0.614705 0.379244 -1.225636 53 59 67
0.612919 0.376448 -1.200863 32 36 39
0.621691 0.365999 -1.060970 7 11 15
0.621099 0.382954 -1.054617 9 11 16
0.623259 0.358779 -1.064851 8 12 16
0.604387 0.355997 -1.047343 14 16 22
0.614056 0.366818 -1.058177 8 10 12
0.608261 0.360342 -1.064543 11 10 16
0.607507 0.351886 -1.059530 12 8 15
0.623490 0.354868 -1.056870 12 7 13
0.563105 0.557252 -0.889951 7 9 7
0.545397 0.542970 -0.896010 3 6 7
0.539055 0.541087 -0.912680 4 5 7
0.634513 0.134366 -0.992908 25 29 38
0.629525 0.142308 -0.991335 28 29 39
0.634223 0.138228 -0.997954 23 29 37
0.629695 0.120261 -0.998303 20 21 29
0.628324 0.107749 -0.998780 19 22 30
0.576565 0.505415 -1.013996 8 10 14
0.579080 0.506677 -1.024459 8 9 12
0.580169 0.546584 -1.266020 5 7 6
0.571921 0.542676 -1.290230 6 8 7
0.579298 0.556281 -1.281664 5 7 6
0.583974 0.552967 -1.268841 5 7 7
0.591173 0.559041 -1.272194 6 7 9
0.592150 0.466613 -1.352475 34 40 46
0.616553 0.446340 -1.352441 36 38 45
0.610314 0.432244 -1.354869 32 44 46
0.842172 0.345530 -1.005486 39 44 58
0.823940 0.347549 -1.001090 44 45 58
0.836024 0.345657 -0.997559 38 45 60
0.660474 0.377196 -1.041984 18 23 31
0.673093 0.372159 -1.055135 21 23 33
0.676133 0.366779 -1.065804 19 22 33
0.646429 0.356256 -1.062840 19 23 32
0.631448 0.535995 -1.088945 10 11 13
0.561739 0.603641 -1.356977 7 8 10
0.561527 0.611667 -1.327512 7 8 10
0.559178 0.634712 -1.335007 7 8 10
0.559896 0.619670 -1.354775 8 9 10
0.543404 0.411074 -1.208804 5 7 9
0.539424 0.426372 -1.211645 6 7 9
0.532108 0.435947 -1.220669 6 7 9
0.539292 0.406327 -1.219812 5 7 8
0.535772 0.420136 -1.224190 5 6 8
0.610784 0.141256 -1.157148 29 33 40
0.616626 0.136262 -1.148118 39 45 52
0.610549 0.141001 -1.139379 22 31 36
0.584371 0.609549 -1.336164 5 5 7
0.577374 0.612605 -1.349979 9 10 14
0.564376 0.620282 -1.351943 6 8 9
0.575965 0.622103 -1.343735 9 10 14
0.566982 0.606535 -1.350163 7 8 11
0.572046 0.613526 -1.354317 9 10 14
0.578689 0.598121 -1.346902 9 10 14
0.571427 0.616534 -1.330487 8 9 12
0.570027 0.629013 -1.333544 6 7 9
0.573318 0.625322 -1.357242 9 10 14
0.577725 0.609686 -1.335099 8 9 12
0.535994 0.512604 -1.369408 29 34 43
0.564982 0.512275 -1.365815 21 23 29
0.545487 0.519394 -1.371289 6 7 7
0.554153 0.533701 -1.368639 6 7 7
0.634179 0.507071 -1.303207 8 11 13
0.632579 0.527948 -1.303549 10 13 14
0.632408 0.526426 -1.318511 11 14 15
0.634655 0.500947 -1.317124 11 16 16
0.536135 0.695465 -1.369208 5 10 6
0.744405 0.356081 -1.093934 25 27 34
0.734959 0.349464 -1.078470 21 24 33
0.638269 0.139807 -0.890066 20 23 31
0.637653 0.152505 -0.882854 21 25 34
0.536470 0.407617 -1.088322 4 7 9
0.535275 0.408714 -1.098108 5 8 9
0.562497 0.134725 -1.024697 15 21 26
0.562678 0.117774 -1.013369 15 22 27
0.557340 0.134625 -1.009111 19 23 30
0.597852 0.511574 -1.293336 5 7 8
0.602799 0.513558 -1.275886 6 8 9
0.606388 0.509752 -1.264143 6 9 10
0.577523 0.560924 -0.916723 9 11 10
0.586211 0.566288 -0.919182 9 11 10
0.569627 0.560262 -0.943457 8 8 10
0.585469 0.564926 -0.929635 12 13 14
0.634267 0.545862 -1.361885 23 28 35
0.528881 0.482893 -0.990717 7 8 12
0.544395 0.384394 -1.369176 41 49 52
0.558146 0.401748 -1.364407 31 37 42
0.558723 0.384603 -1.364899 34 37 42
0.744219 0.396426 -1.201074 62 61 75
0.759851 0.397871 -1.206899 65 68 77
0.748282 0.385328 -1.221426 59 66 73
0.740552 0.382588 -1.224537 55 64 76
0.736080 0.390547 -1.206680 59 65 74
0.690633 0.366988 -1.119148 19 23 32
0.635604 0.350367 -1.055740 15 17 24
0.629479 0.357219 -1.060284 9 9 15
0.637634 0.351945 -1.067265 10 9 15
0.642019 0.359572 -1.046920 14 16 21
0.711884 0.366463 -1.225439 64 65 75
0.728511 0.369309 -1.224919 64 69 75
0.703585 0.373020 -1.221400 60 66 76
0.701734 0.344719 -1.217548 64 65 76
0.710162 0.355276 -1.223636 55 64 70
0.640004 0.497040 -1.251230 12 14 16
0.630959 0.527289 -1.245689 10 12 14
0.633093 0.516344 -1.254310 9 10 12
0.547874 0.664054 -1.321771 6 7 8
0.552503 0.653384 -1.303414 7 8 10
0.559991 0.635355 -1.296533 6 7 9
0.550842 0.639484 -1.318636 7 8 10
0.557020 0.660732 -1.297783 6 7 9
0.842667 0.389674 -0.959679 12 13 15
0.718747 0.341707 -1.181517 61 65 76
0.743215 0.350380 -1.171574 60 64 76
0.736484 0.349027 -1.182396 62 63 74
0.743231 0.346576 -1.202077 61 70 75
0.748957 0.351537 -1.179406 63 66 75
0.588902 0.284698 -1.127871 22 24 30
0.578198 0.285599 -1.130418 21 23 29
0.569218 0.286454 -1.135648 11 17 23
0.585417 0.596175 -1.337128 5 5 7
0.576542 0.558673 -1.352924 6 8 10
0.575089 0.578393 -1.347452 7 8 11
0.582876 0.576745 -1.348881 9 10 13
0.584564 0.579041 -1.330400 9 10 13
0.576202 0.600480 -1.356245 9 10 14
0.575072 0.590084 -1.329073 9 10 14
0.582177 0.583140 -1.342952 9 10 13
0.570245 0.600278 -1.357442 6 7 10
0.572251 0.585507 -1.352074 6 7 9
0.637004 0.310567 -1.206248 54 59 61
0.651250 0.316972 -1.205029 47 63 70
0.634000 0.339694 -1.229297 55 58 59
0.655536 0.353622 -1.231948 56 58 63
0.639995 0.325902 -1.222064 34 38 44
0.654862 0.331373 -1.222008 54 58 63
0.624171 0.610195 -1.365026 8 12 14
0.621978 0.582048 -1.360723 11 15 17
0.617308 0.593972 -1.357571 10 13 15
0.628825 0.522840 -1.096019 10 12 14
0.551432 0.367141 -1.206333 6 7 9
0.545074 0.370451 -1.221137 5 7 9
0.551855 0.354910 -1.212275 5 6 9
0.553375 0.343595 -1.212116 5 6 8
0.537140 0.767129 -1.324408 7 8 6
0.698805 0.375588 -1.145164 20 23 29
0.620519 0.559976 -1.336609 8 11 13
0.614664 0.535121 -1.336680 10 14 15
0.607024 0.573146 -1.350814 10 14 15
0.623543 0.542973 -1.333472 7 11 12
0.615605 0.541848 -1.345549 7 11 12
0.623285 0.538710 -1.356788 22 27 31
0.614092 0.552402 -1.351243 15 19 20
0.616345 0.561281 -1.358893 11 15 16
0.759729 0.364051 -1.075873 21 24 33
0.782985 0.363800 -1.102247 27 29 38
0.755660 0.361851 -1.092300 22 25 34
0.774624 0.366666 -1.093783 22 26 33
0.596719 0.551155 -0.894607 10 12 11
0.586880 0.561957 -0.900281 9 11 10
0.584128 0.559077 -0.886110 14 18 19
0.610390 0.490341 -1.278836 6 7 9
0.611998 0.477760 -1.267596 6 8 9
0.605285 0.500997 -1.279274 7 10 13
0.559989 0.145537 -1.003553 20 24 33
0.560507 0.124280 -0.998755 20 22 30
0.560966 0.145035 -0.992138 21 27 35
0.665939 0.338471 -0.964765 18 23 32
0.670799 0.342196 -0.956354 23 26 37
0.696736 0.335713 -0.945716 24 28 36
0.683872 0.332005 -0.943261 27 34 43
0.677872 0.342222 -0.955465 23 26 36
0.668899 0.342816 -0.983570 19 23 32
0.579806 0.531047 -1.269005 5 7 7
0.585337 0.513986 -1.296444 6 8 7
0.587542 0.521632 -1.257792 5 7 8
0.595179 0.514209 -1.282385 4 8 9
0.572308 0.529476 -1.290686 6 8 7
0.585155 0.521321 -1.278720 5 7 8
0.679047 0.388293 -1.037225 18 22 31
0.691263 0.389510 -1.032881 18 22 30
0.768435 0.392787 -1.038661 29 34 44
0.762765 0.391045 -1.053163 26 30 40
0.775771 0.394592 -1.061908 27 30 40
0.798047 0.395830 -1.057999 33 37 48
0.622285 0.548092 -1.134607 14 16 18
0.620212 0.553810 -1.102045 15 18 19
0.615908 0.556136 -1.110430 8 10 11
0.606622 0.559742 -1.126505 7 9 10
0.625612 0.542492 -1.123417 15 19 20
0.642726 0.308109 -1.082784 21 25 34
0.653570 0.319691 -1.082470 21 25 35
0.643889 0.316213 -1.065452 21 24 33
0.799625 0.384703 -0.997798 39 45 59
0.811655 0.387782 -0.989312 36 43 54
0.790726 0.379999 -1.003050 41 46 59
0.575305 0.553918 -1.110655 5 6 8
0.585944 0.556314 -1.105664 6 7 9
0.570991 0.547237 -1.115088 5 6 8
0.584640 0.556126 -1.127668 5 7 8
0.590252 0.342234 -1.025802 7 10 10
0.590969 0.329404 -1.025273 7 10 10
0.565961 0.282560 -1.226547 33 35 46
0.571980 0.292553 -1.208425 38 44 55
0.567420 0.301460 -1.219771 24 29 34
0.572956 0.306202 -1.219611 23 31 35
0.570047 0.280635 -1.205347 24 31 35
0.593374 0.297225 -1.209499 24 30 35
0.579468 0.289626 -1.195749 21 29 33
0.579842 0.297506 -1.209522 21 30 34
0.743119 0.361548 -0.886408 9 10 14
0.731589 0.376326 -0.898383 21 24 30
0.750437 0.368407 -0.897427 13 17 22
0.743271 0.373758 -0.889711 15 21 27
0.735698 0.374955 -0.885524 18 23 29
0.726870 0.380100 -0.904265 19 22 26
0.633805 0.125398 -0.958570 19 23 32
0.633594 0.141257 -0.961637 20 24 33
0.631675 0.145397 -0.971063 19 24 31
0.530989 0.447459 -1.014086 6 7 10
0.733506 0.389113 -1.088211 21 24 33
0.742362 0.387078 -1.073395 18 23 32
0.753279 0.392957 -1.094434 20 24 33
0.718272 0.382714 -1.114290 20 23 32
0.604511 0.351780 -1.143131 11 12 18
0.615654 0.358281 -1.165686 10 12 17
0.601485 0.346058 -1.132250 7 7 10
0.610613 0.371432 -1.140781 12 13 18
0.600003 0.349334 -1.148628 6 7 10
0.606728 0.360339 -1.148292 7 9 12
0.606726 0.353868 -1.172652 9 12 16
0.542143 0.360022 -1.118428 6 5 10
0.542022 0.376659 -1.109547 6 6 10
0.547897 0.343252 -1.130123 4 5 8
0.543642 0.354848 -1.110059 6 6 6
0.598819 0.555058 -1.011163 8 9 11
0.609656 0.555997 -1.038160 8 9 11
0.609828 0.551916 -1.020274 7 8 10
0.619712 0.543178 -1.036087 8 9 12
0.615600 0.549999 -1.035616 8 9 12
0.527781 0.813454 -1.341640 9 8 8
0.815219 0.394834 -1.066838 46 51 64
0.821574 0.400809 -1.077028 45 52 64
0.800947 0.401847 -1.081756 18 25 33
0.803857 0.376093 -1.093040 23 28 35
0.718029 0.381694 -1.091817 19 23 32
0.708036 0.377125 -1.080846 19 23 33
0.861954 0.391426 -0.968280 12 13 15
0.850383 0.389544 -0.938236 11 12 14
0.581744 0.728902 -1.322301 9 12 11
0.569328 0.754432 -1.318565 9 12 13
0.562643 0.732267 -1.307588 8 11 13
0.527966 0.422991 -1.053547 6 7 9
0.534300 0.405163 -1.054078 5 7 9
0.625627 0.520346 -1.013245 8 9 12
0.624261 0.522859 -1.026919 9 10 12
0.747915 0.354226 -0.996487 46 49 64
0.752318 0.350605 -0.977190 47 50 67
0.726107 0.351181 -1.003581 24 29 39
0.715056 0.382310 -1.153376 19 24 31
0.724960 0.383561 -1.139130 19 23 32
0.741222 0.392276 -1.149018 19 22 30
0.738546 0.391329 -1.161738 20 24 33
0.564790 0.510460 -0.966201 6 8 9
0.560594 0.524710 -0.973165 5 6 8
0.563234 0.503687 -0.962350 6 8 9
0.558360 0.502634 -0.961040 4 5 5
0.547281 0.534353 -0.942637 7 8 10
0.552464 0.515769 -0.951184 10 11 14
0.554335 0.529674 -0.952617 5 7 9
0.625352 0.540505 -1.239995 7 9 10
0.622706 0.546672 -1.216585 8 9 11
0.608348 0.561704 -1.196527 7 8 10
0.612994 0.558551 -1.224014 8 9 10
0.614158 0.558679 -1.209616 7 9 10
0.782315 0.392788 -1.048975 46 50 66
0.760355 0.388823 -1.016512 45 46 62
0.785286 0.392058 -1.032289 47 51 65
0.791051 0.392257 -1.017642 48 48 64
0.775869 0.388066 -1.018108 47 49 65
0.800190 0.407438 -1.109425 19 25 33
0.588338 0.344836 -1.145426 5 7 9
0.573496 0.524669 -1.364775 8 9 9
0.641526 0.307244 -1.071519 21 24 32
0.639870 0.299208 -1.104091 23 29 36
0.647842 0.306381 -1.099555 26 30 37
0.656124 0.314344 -1.092561 27 30 40
0.633120 0.304769 -1.084867 25 30 38
0.637362 0.300614 -1.093295 25 29 38
0.536558 0.415881 -1.106191 6 7 10
0.528791 0.428509 -1.119488 5 6 9
0.535118 0.418672 -1.119044 5 7 9
0.622406 0.397766 -1.048910 10 10 15
0.561965 0.794928 -1.335433 10 9 12
0.573911 0.784740 -1.354554 9 11 8
0.543329 0.484724 -1.362185 32 39 45
0.571648 0.494888 -1.359017 26 34 41
0.551891 0.501778 -1.365440 36 40 49
0.534608 0.491040 -1.364249 34 37 46
0.644856 0.406094 -1.255952 6 10 12
0.717781 0.347986 -0.932039 44 49 63
0.609926 0.588097 -1.289473 8 9 11
0.601571 0.604839 -1.288913 5 9 10
0.604082 0.572956 -1.282324 8 9 11
0.627300 0.293910 -1.050374 16 22 27
0.638557 0.309841 -1.035135 21 24 30
0.632262 0.303120 -1.048871 19 21 27
0.633322 0.302992 -1.065391 16 18 23
0.642235 0.448300 -1.147472 9 10 13
0.641130 0.475676 -1.165927 15 17 16
0.646540 0.458859 -1.154514 9 10 13
0.609237 0.355730 -1.194833 45 43 53
0.615725 0.360268 -1.179967 36 33 42
0.601207 0.350764 -1.176400 14 17 22
0.614958 0.371820 -1.194553 32 36 37
0.762607 0.354743 -1.121449 19 22 29
0.747046 0.352267 -1.133677 19 23 30
0.731395 0.344746 -1.111286 20 23 33
0.765977 0.365661 -0.926450 11 13 13
0.754825 0.369550 -0.915193 13 13 16
0.780227 0.373853 -0.904353 10 11 12
0.767240 0.371276 -0.940601 10 11 14
0.625336 0.147396 -1.009889 21 26 34
0.629120 0.510363 -1.203300 12 14 16
0.629420 0.532160 -1.227265 11 12 15
0.635678 0.507518 -1.228687 9 11 13
0.628423 0.526713 -1.210011 16 18 20
0.632257 0.512842 -1.212174 10 12 15
0.568066 0.510654 -1.019884 5 6 8
0.567624 0.511104 -1.034747 5 6 8
0.549163 0.681222 -1.357426 6 7 8
0.550734 0.683233 -1.345385 6 7 9
0.541775 0.691288 -1.331367 7 9 9
0.577400 0.632969 -1.343733 10 11 14
0.571229 0.640501 -1.333122 6 7 9
0.569173 0.648130 -1.341014 10 11 14
0.571462 0.639482 -1.346833 9 10 14
0.596978 0.513968 -1.311480 7 8 11
0.609470 0.634879 -1.334368 7 11 12
0.603978 0.655751 -1.350870 8 11 11
0.613215 0.635983 -1.358374 7 11 12
0.604485 0.658856 -1.335846 10 11 13
0.628803 0.533433 -1.140471 14 16 18
0.569754 0.334585 -1.157116 4 6 8
0.590467 0.342923 -1.167273 4 6 8
0.562715 0.327604 -1.149631 5 6 8
0.585261 0.340052 -1.135565 6 6 8
0.571458 0.335164 -1.144104 6 7 9
0.715854 0.346621 -0.942193 46 50 66
0.717592 0.346940 -0.971593 36 39 50
0.631218 0.497859 -0.990498 8 11 14
0.627901 0.519850 -0.985079 9 13 14
0.629029 0.531769 -1.152171 13 16 17
0.623852 0.408608 -1.269746 8 8 11
0.708397 0.380459 -0.973823 26 29 38
0.713891 0.381046 -0.960976 22 25 35
0.564747 0.600729 -1.327114 8 10 9
0.569208 0.578563 -1.321295 6 8 8
0.781636 0.404284 -1.147232 17 22 28
0.760417 0.395503 -1.140527 21 27 36
0.592504 0.561103 -0.912794 10 12 12
0.610671 0.538864 -0.930844 8 10 9
0.600320 0.554201 -0.930375 10 13 13
0.608689 0.544499 -0.917149 10 12 11
0.614599 0.536925 -0.916287 10 12 12
0.629653 0.131600 -1.010967 18 21 27
0.561991 0.129479 -1.117604 15 15 21
0.801686 0.345329 -0.975758 44 44 60
0.807091 0.347025 -0.988463 38 45 59
0.789522 0.354206 -1.000751 43 45 59
0.595896 0.353063 -1.017783 11 14 16
0.598743 0.355085 -1.040420 16 17 26
0.600392 0.362730 -1.024749 15 17 22
0.607408 0.355228 -1.034904 9 11 14
0.567657 0.407114 -1.363847 26 33 38
0.528209 0.432070 -1.369197 35 40 43
0.531401 0.415818 -1.372392 33 42 45
0.540893 0.420879 -1.365816 36 40 44
0.551505 0.185942 -1.077283 18 22 29
0.547531 0.201736 -1.080719 11 15 19
0.545890 0.206599 -1.093098 12 15 19
0.609991 0.333324 -1.232831 26 30 37
0.619520 0.349062 -1.230995 33 38 43
0.665199 0.325919 -1.173338 53 53 62
0.666523 0.322318 -1.198056 52 59 66
0.666180 0.325898 -1.185544 56 57 63
0.532337 0.414178 -1.069879 5 7 9
0.526391 0.437424 -1.079815 5 6 8
0.533159 0.525419 -1.367691 5 7 6
0.557409 0.343508 -1.100751 7 8 11
0.543738 0.354503 -1.096122 5 6 8
0.562289 0.344443 -1.085185 8 9 12
0.539583 0.373331 -1.090423 6 7 7
0.541959 0.368612 -1.096110 5 7 6
0.533938 0.437098 -1.196880 6 7 9
0.531698 0.451346 -1.211879 6 7 9
0.822205 0.379627 -1.109154 24 27 35
0.789250 0.365212 -1.114783 19 21 28
0.807372 0.372122 -1.121866 18 24 32
0.602734 0.418182 -1.355089 40 43 52
0.883402 0.395452 -0.964646 14 19 22
0.882827 0.396199 -0.946258 13 14 17
0.867192 0.397457 -0.890644 10 10 12
0.626953 0.296070 -1.105023 21 26 34
0.621454 0.299650 -1.075348 23 27 36
0.611517 0.291598 -1.100839 16 20 26
0.621953 0.292962 -1.094985 22 26 34
0.615394 0.295547 -1.105384 22 26 34
0.730070 0.344291 -1.117580 20 22 29
0.596577 0.671153 -1.312333 8 11 14
0.606975 0.644589 -1.326249 9 11 15
0.596732 0.649667 -1.300086 8 10 13
0.618413 0.688943 -0.475800 11 11 16
0.606788 0.689246 -0.463872 11 11 16
0.612252 0.660236 -0.467284 34 39 45
0.625427 0.654497 -0.247656 54 64 91
0.632019 0.557553 -0.351068 48 55 78
0.627885 0.570672 -0.334126 54 60 82
0.633539 0.545347 -0.335648 31 37 50
0.751553 0.399763 -0.373576 141 141 147
0.554814 0.605692 -0.416004 40 46 65
0.529312 0.618027 -0.408814 34 40 59
0.540465 0.611851 -0.404094 36 46 62
0.787461 0.411233 -0.419145 141 142 146
0.564787 0.798521 -0.634851 156 163 189
0.534912 0.804361 -0.631223 143 150 174
0.524245 0.813332 -0.634612 208 220 242
0.528991 0.796516 -0.629360 152 159 184
0.591276 0.561793 -0.616174 87 93 105
0.682878 0.966586 -0.642220 236 230 242
0.595822 0.762836 -0.306051 54 63 89
0.682501 0.533071 -0.465948 64 70 81
0.671811 0.523753 -0.490921 22 29 41
0.682688 0.526240 -0.473223 17 21 30
0.665290 0.523249 -0.482380 19 25 36
0.675698 0.515145 -0.501079 16 23 32
0.638123 0.945809 -0.369798 102 109 134
0.633330 0.923557 -0.345764 62 68 100
0.651614 0.641879 -0.503836 7 11 14
0.655468 0.648718 -0.517185 9 13 16
0.653451 0.651066 -0.501893 10 12 15
0.649367 0.624415 -0.502226 12 15 19
0.862301 0.382497 -0.636204 111 111 120
0.878165 0.385253 -0.654124 49 50 61
0.855597 0.379227 -0.654978 42 47 58
0.610403 0.722722 -0.471446 44 51 70
0.611012 0.701793 -0.470826 20 25 37
0.599020 0.710831 -0.463462 36 45 63
0.613054 0.713082 -0.474213 46 52 74
0.585297 0.827459 -0.284209 61 73 101
0.571698 0.447349 -0.835090 12 11 15
0.569219 0.458968 -0.825514 14 13 16
0.566622 0.459954 -0.835591 8 8 11
0.561770 0.439512 -0.847922 8 7 9
0.751597 1.037080 -0.688384 16 18 25
0.729145 1.039749 -0.686418 22 13 12
0.729975 0.740282 -0.637233 125 122 135
0.900548 0.402542 -0.846439 21 28 39
0.890428 0.396329 -0.842554 21 28 38
0.564035 0.579057 -0.612588 98 104 117
0.590221 0.579336 -0.613555 102 116 132
0.582993 0.596904 -0.606954 84 95 111
0.588491 0.593980 -0.612319 52 56 65
0.555634 0.705421 -0.360023 51 58 82
0.538708 0.708819 -0.368887 45 56 78
0.678887 1.024260 -0.688897 16 14 14
0.659738 1.021648 -0.689720 58 36 27
0.628319 0.638379 -0.247488 54 64 91
0.557028 0.564411 -0.616041 23 31 39
0.547185 0.568532 -0.618468 35 38 53
0.562977 0.597231 -0.594597 176 189 213
0.537818 0.588238 -0.622339 37 45 60
0.564491 0.590895 -0.608769 96 108 133
0.548205 0.593024 -0.614113 39 45 63
0.554862 0.595245 -0.603726 105 118 143
0.682831 0.376506 -0.406027 142 141 147
0.698525 0.383099 -0.416242 141 141 146
0.668236 0.730918 -0.365568 41 47 56
0.664943 0.747041 -0.386033 38 45 53
0.670961 0.729260 -0.383658 37 44 53
0.764878 0.263586 -0.657867 88 71 72
0.643688 0.852970 -0.330366 47 48 69
0.604775 0.560402 -0.624447 96 106 130
0.733833 0.966533 -0.640980 211 197 214
0.568587 0.340437 -0.530149 142 141 145
0.845156 0.392797 -0.881457 13 16 19
0.848187 0.379865 -0.862309 17 18 22
0.827374 0.388034 -0.861261 17 19 22
0.650372 0.473680 -0.421731 20 26 31
0.574983 0.895403 -0.296252 66 76 107
0.603161 0.634774 -0.347576 51 57 81
0.611398 0.630323 -0.339527 46 50 74
0.753773 0.398930 -0.523122 140 141 146
0.726448 0.405759 -0.504063 144 151 165
0.749298 0.396340 -0.506057 144 142 146
0.597963 0.727509 -0.643342 72 68 73
0.564023 0.739728 -0.642461 50 53 56
0.566219 0.757592 -0.640855 58 60 62
0.577262 0.433284 -0.631438 23 25 31
0.565895 0.422130 -0.638345 19 20 25
0.730064 0.120761 -0.654942 76 66 68
0.676017 0.517330 -0.410479 42 47 57
0.676235 0.518463 -0.399678 22 27 34
0.691237 0.512824 -0.397975 41 47 59
0.687877 0.523124 -0.430832 89 95 111
0.681230 0.531791 -0.426599 61 67 80
0.684415 0.518129 -0.412210 38 46 57
0.680362 0.529196 -0.412727 50 56 68
0.675303 0.503535 -0.421670 30 36 44
0.683678 0.523367 -0.418687 56 62 75
0.675776 0.520096 -0.425592 72 81 92
0.685100 0.530344 -0.404098 40 46 56
0.680620 0.534413 -0.395266 81 90 107
0.689405 0.534831 -0.419127 117 124 146
0.591361 0.173205 -0.654802 87 65 62
0.598649 0.548205 -0.622586 52 55 64
0.585407 0.535757 -0.623193 82 80 88
0.559877 0.345779 -0.613875 81 82 87
0.539806 0.612114 -0.510145 37 44 58
0.555946 0.349630 -0.597369 132 132 140
0.559014 0.604189 -0.519091 52 57 75
0.567444 0.345632 -0.606611 124 125 133
0.573564 0.710645 -0.451915 37 49 68
0.571936 0.712128 -0.434614 42 55 77
0.575628 0.697760 -0.459956 35 42 59
0.585481 0.704157 -0.429853 8 12 15
0.599019 0.703438 -0.435270 15 20 28
0.575169 0.707986 -0.437518 52 58 83
0.589019 0.712371 -0.438621 48 57 78
0.672548 0.370882 -0.522814 142 141 145
0.812743 0.417929 -0.442617 140 142 148
0.852378 0.621336 -0.631653 124 103 109
0.853246 0.382109 -0.586239 143 141 152
0.837253 0.377122 -0.581990 142 142 152
0.706471 0.751506 -0.635076 107 112 136
0.696583 0.736501 -0.631069 96 101 123
0.627653 0.559183 -0.638770 102 113 127
0.650336 0.572345 -0.636088 102 114 135
0.633217 0.548243 -0.630385 119 120 135
0.549034 0.494493 -0.770613 7 8 8
0.612255 0.355295 -0.412273 143 143 150
0.632374 0.359692 -0.528078 142 139 145
0.635586 0.360513 -0.557006 141 138 146
0.661951 0.369483 -0.538893 137 137 142
0.644285 0.364232 -0.531690 138 137 144
0.625268 0.611074 -0.284409 46 59 78
0.620887 0.635935 -0.278702 45 56 80
0.620978 0.621166 -0.304989 45 52 78
0.627297 0.956944 -0.441897 67 70 99
0.634869 0.952806 -0.462367 67 73 97
0.739783 0.346751 -0.538183 142 139 148
0.663334 0.764408 -0.575175 80 72 88
0.661922 0.776636 -0.576186 101 85 99
0.667804 0.758046 -0.569336 59 60 76
0.688670 0.575718 -0.274374 85 92 112
0.690477 0.554253 -0.284257 77 86 103
0.626416 0.580262 -0.319663 44 52 74
0.624191 0.591393 -0.324715 44 51 74
0.508878 0.940086 -0.645832 233 227 243
0.708628 1.021461 -0.641559 252 252 253
0.540042 0.333584 -0.256961 156 156 165
0.551105 0.336439 -0.255177 157 157 166
0.535449 0.336936 -0.254112 148 148 158
0.640890 0.218953 -0.655863 84 66 65
0.575358 0.611067 -0.388818 35 43 63
0.582867 0.611429 -0.401686 37 44 64
0.579040 0.609349 -0.377151 38 43 64
0.586013 0.617600 -0.383612 39 44 65
0.566994 0.607053 -0.388583 37 44 66
0.823846 0.422184 -0.624292 131 131 137
0.840846 0.430768 -0.627698 131 132 137
0.544320 0.651087 -0.719177 32 37 50
0.571891 0.707660 -0.477598 33 40 55
0.571644 0.708234 -0.497976 21 26 36
0.573362 0.693141 -0.475324 12 13 16
0.564515 0.713071 -0.475291 47 54 77
0.531878 0.142336 -0.652935 64 48 42
0.547878 0.142336 -0.653184 78 58 55
0.571878 0.163336 -0.654625 81 59 55
0.541302 0.121690 -0.698418 22 26 36
0.608565 0.697046 -0.296275 48 59 83
0.603965 0.692389 -0.322623 47 59 82
0.613594 0.659567 -0.301262 48 57 81
0.619984 1.003497 -0.693385 15 12 11
0.615515 0.996299 -0.694912 15 13 14
0.604757 0.989282 -0.697765 24 27 38
0.595941 1.006209 -0.692069 68 43 33
0.609956 1.017532 -0.688270 65 39 30
0.825613 0.373721 -0.550717 147 143 153
0.849416 0.381020 -0.535330 147 143 154
0.660399 0.785288 -0.476820 33 41 50
0.661861 0.790336 -0.488759 30 35 44
0.665331 0.798096 -0.501142 45 52 74
0.716496 1.057862 -0.652714 77 46 29
0.698211 1.055763 -0.660914 76 46 31
0.720368 1.062633 -0.667490 76 47 29
0.713120 1.058343 -0.673507 41 24 22
0.841894 0.804556 -0.634216 128 102 107
0.825255 0.803940 -0.637271 132 104 109
0.665807 0.711255 -0.305320 40 47 58
0.664434 0.723742 -0.321631 41 46 57
0.670632 0.706827 -0.313051 41 49 58
0.669340 0.709243 -0.323418 44 46 56
0.621878 1.004336 -0.644371 252 251 253
0.584062 1.016541 -0.644887 253 253 253
0.686302 0.641388 -0.358258 38 45 56
0.679266 0.671523 -0.331213 43 46 59
0.682815 0.645892 -0.332691 90 101 118
0.555621 0.336809 -0.443345 135 137 145
0.539465 0.336626 -0.460646 84 84 92
0.535651 0.340673 -0.457238 26 27 35
0.825721 0.645581 -0.632966 137 125 138
0.695520 0.508319 -0.415924 90 94 113
0.691904 0.526855 -0.419668 113 124 144
0.693772 0.509249 -0.401583 40 44 56
0.697797 0.524673 -0.409610 112 124 142
0.699732 0.538578 -0.402226 125 139 159
0.697878 0.515169 -0.402053 85 96 113
0.637601 0.894474 -0.416424 32 39 49
0.638276 0.905931 -0.422298 32 37 47
0.635463 0.899693 -0.398965 35 42 50
0.644981 0.911248 -0.439900 30 34 42
0.648654 0.920221 -0.424417 29 33 42
0.527566 0.211307 -0.707197 16 16 23
0.528396 0.207716 -0.688292 13 16 24
0.542348 0.139824 -0.797662 26 30 42
0.539380 0.158959 -0.798341 25 31 43
0.532222 0.147888 -0.807635 23 29 39
0.540578 0.139046 -0.804617 24 30 42
0.543415 0.121663 -0.804558 21 26 31
0.546920 0.114915 -0.795678 25 29 36
0.760394 0.354952 -0.473291 146 141 151
0.583136 0.923867 -0.435332 55 66 93
0.580215 0.907295 -0.408414 58 65 93
0.536128 0.164836 -0.652995 75 58 54
0.557253 0.168899 -0.653810 82 56 53
0.634919 0.116849 -0.836760 20 24 35
0.594104 0.781547 -0.280825 57 71 96
0.601845 0.676805 -0.337880 49 59 79
0.596089 0.679572 -0.346523 47 59 83
0.665283 0.454195 -0.330190 28 30 39
0.667375 0.452580 -0.315030 26 33 42
0.688049 0.462002 -0.318788 91 100 116
0.687580 0.449527 -0.327687 135 147 170
0.666413 0.456661 -0.308711 38 47 56
0.685547 0.469741 -0.305637 89 99 117
0.680942 0.447762 -0.309519 131 146 171
0.785092 0.409119 -0.473899 139 139 144
0.768268 0.402975 -0.479678 140 142 145
0.767556 0.402917 -0.500012 143 142 146
0.687732 0.642626 -0.401115 89 101 117
0.684903 0.655974 -0.408897 89 100 116
0.686757 0.657993 -0.423800 93 101 118
0.597121 0.727686 -0.336045 56 61 88
0.598004 0.717002 -0.332777 51 59 82
0.594257 0.704690 -0.345842 48 56 82
0.636174 0.362561 -0.390637 142 143 148
0.660619 0.370269 -0.389778 141 144 146
0.661298 0.370277 -0.365152 142 142 147
0.594085 0.778836 -0.446802 40 49 71
0.597304 0.769042 -0.462046 45 54 72
0.597801 0.798809 -0.246670 57 72 97
0.693720 0.380488 -0.400813 141 141 147
0.702701 0.392230 -0.416165 145 146 152
0.720072 0.396493 -0.411741 150 162 186
0.710124 0.399462 -0.425781 155 166 187
0.725738 0.391132 -0.400433 139 141 147
0.723633 0.415050 -0.416326 133 144 168
0.719812 0.397207 -0.402444 140 141 149
0.698979 0.401498 -0.409539 212 225 246
0.647328 0.737323 -0.571103 78 74 94
0.659151 0.735350 -0.575193 109 92 107
0.635505 0.757849 -0.560851 61 60 76
0.658919 0.761348 -0.576748 117 95 104
0.659250 0.370907 -0.296696 144 144 148
0.651335 0.367669 -0.317435 141 143 148
0.538283 0.700548 -0.363375 48 59 77
0.550376 0.693461 -0.358688 49 58 80
0.544954 0.675587 -0.359173 50 56 79
0.640709 0.515132 -0.349573 16 21 27
0.638586 0.520862 -0.370669 17 21 29
0.635417 0.542147 -0.351495 27 31 43
0.635731 0.533954 -0.324710 20 24 33
0.541209 0.921066 -0.645900 171 158 173
0.564378 0.888899 -0.644809 161 147 167
0.525658 0.907010 -0.644677 167 153 170
0.684409 0.919805 -0.641739 176 153 166
0.809878 0.882336 -0.637833 154 125 137
0.710593 0.539934 -0.380799 56 63 78
0.708525 0.549941 -0.371198 102 112 131
0.704077 0.568156 -0.371769 98 107 125
0.697852 0.556917 -0.363621 122 135 154
0.707066 0.551106 -0.382060 145 160 182
0.701620 0.572257 -0.380756 128 140 160
0.708729 0.539931 -0.370858 95 107 124
0.711607 0.539888 -0.395032 127 140 160
0.618533 0.306139 -0.344011 146 146 155
0.612680 0.304562 -0.331342 145 145 154
0.720297 0.634039 -0.631710 113 114 125
0.730289 0.666937 -0.633477 118 120 132
0.741418 0.656676 -0.635966 122 126 136
0.757528 0.653966 -0.637666 98 102 111
0.730069 0.946415 -0.640120 183 163 178
0.680173 0.942524 -0.641466 189 170 187
0.695569 0.583433 -0.363713 93 102 119
0.696116 0.574293 -0.356272 94 102 121
0.693829 0.597300 -0.353581 120 128 148
0.570999 0.544969 -0.791793 11 12 13
0.581442 0.549581 -0.794661 9 11 12
0.579307 0.548213 -0.809493 10 11 11
0.564491 0.543418 -0.811044 10 12 12
0.590421 0.541254 -0.809756 9 12 12
0.592244 0.819177 -0.632461 168 177 198
0.621807 0.827362 -0.639513 171 179 200
0.612965 0.802788 -0.632308 94 88 112
0.577649 0.637216 -0.580755 46 46 52
0.578172 0.645267 -0.571351 50 52 58
0.575373 0.644323 -0.590125 38 42 48
0.574862 0.663870 -0.570715 35 39 42
0.584790 0.637474 -0.562095 44 40 47
0.651615 0.805453 -0.380200 39 45 52
0.655558 0.799469 -0.391006 37 45 53
0.651420 0.813275 -0.391663 40 45 54
0.553440 0.495619 -0.890470 10 13 15
0.821008 0.372798 -0.534552 145 144 151
0.586206 0.294696 -0.457634 146 145 154
0.569195 0.287731 -0.426460 144 146 153
0.596209 0.874022 -0.515369 57 62 86
0.727267 0.455459 -0.547190 87 101 123
0.729586 0.464845 -0.541850 48 56 69
0.728920 0.437904 -0.530253 84 93 111
0.728279 0.459184 -0.535688 83 92 110
0.722900 0.449407 -0.531662 79 86 104
0.722632 0.470492 -0.533131 93 106 126
0.686228 0.696357 -0.557979 36 38 50
0.662870 0.679787 -0.569926 130 113 123
0.661748 0.695692 -0.570814 93 89 97
0.669518 0.651706 -0.568886 121 107 113
0.670282 0.670698 -0.571439 103 90 98
0.681392 0.684815 -0.564067 32 27 32
0.604180 0.282610 -0.656346 47 40 42
0.546893 0.334570 -0.413997 144 145 153
0.535694 0.340573 -0.431902 107 108 118
0.541056 0.336208 -0.435417 136 137 143
0.535905 0.337427 -0.405059 125 125 134
0.564513 0.341119 -0.425721 139 142 150
0.697296 0.524662 -0.446055 88 100 115
0.698503 0.538828 -0.444448 89 100 114
0.696979 0.525987 -0.436416 113 125 145
0.694888 0.540788 -0.428040 114 125 146
0.696858 0.535369 -0.455158 103 116 135
0.590196 0.796188 -0.291787 58 67 95
0.588452 0.812121 -0.282101 59 69 97
0.586326 0.823494 -0.303495 57 68 97
0.687472 0.375467 -0.486664 141 142 148
0.675465 0.373050 -0.480216 140 141 147
0.534909 0.126809 -0.682760 28 35 43
0.537444 0.137162 -0.691965 26 33 42
0.590424 0.780127 -0.379747 53 59 83
0.598435 0.297835 -0.306845 146 146 153
0.691472 0.528670 -0.479939 112 124 145
0.701338 0.517791 -0.490858 16 24 33
0.702057 0.500121 -0.488976 17 22 29
0.691779 0.510178 -0.479665 16 23 32
0.695322 0.534454 -0.471444 113 124 145
0.574757 0.344893 -0.399541 144 144 150
0.577064 0.345940 -0.380104 143 145 152
0.596139 0.351114 -0.378560 141 145 151
0.544822 0.277555 -0.560999 148 146 157
0.541346 0.276337 -0.588306 148 147 154
0.681924 0.661837 -0.354674 42 49 58
0.675327 0.689985 -0.340947 41 48 57
0.677145 0.687941 -0.357123 43 47 56
0.682173 0.672660 -0.366275 41 47 57
0.655401 0.319593 -0.497847 144 142 150
0.640587 0.715396 -0.529065 51 59 80
0.648966 0.699043 -0.557055 27 34 48
0.641413 0.716108 -0.558786 60 63 84
0.535347 0.609757 -0.532356 79 79 96
0.562909 0.610720 -0.530695 98 101 119
0.555380 0.605365 -0.547180 71 69 87
0.551407 0.602945 -0.536390 107 111 130
0.559893 0.603871 -0.529984 102 104 124
0.536510 0.609361 -0.555358 85 79 92
0.796183 0.379813 -0.881929 14 17 20
0.658365 0.319396 -0.623912 128 126 136
0.654600 0.315519 -0.646366 31 34 41
0.608483 0.525414 -0.630846 118 112 126
0.612545 0.544192 -0.629921 106 105 116
0.603608 0.513013 -0.632947 67 67 74
0.623533 0.645290 -0.452111 88 96 106
0.608633 0.660972 -0.451820 20 22 29
0.623493 0.636046 -0.461260 106 115 127
0.618225 0.642252 -0.457552 48 53 63
0.614883 0.655922 -0.445842 61 67 75
0.868143 0.439133 -0.623095 133 133 140
0.892183 0.445414 -0.597728 132 132 137
0.664313 0.316314 -0.651087 29 33 41
0.689404 0.317497 -0.655839 34 37 42
0.684216 0.322678 -0.650202 29 36 42
0.701766 0.806325 -0.641197 143 150 174
0.662284 0.801798 -0.487356 34 42 59
0.660687 0.826738 -0.502996 25 28 37
0.725953 0.603950 -0.633141 115 111 120
0.737641 0.617836 -0.635662 126 119 129
0.794738 0.842950 -0.640194 151 120 130
0.819361 0.825950 -0.638755 147 115 125
0.857150 0.532086 -0.631325 128 102 111
0.628391 0.817139 -0.565889 97 86 102
0.646759 0.801755 -0.575751 123 100 108
0.649063 0.814256 -0.576251 136 105 110
0.650187 0.830610 -0.575545 138 109 117
0.698321 0.444965 -0.538122 32 36 44
0.711167 0.439708 -0.542112 66 73 87
0.708321 0.448849 -0.538202 142 156 179
0.702818 0.453958 -0.536956 45 52 59
0.709989 0.466403 -0.554624 17 20 26
0.720120 0.433770 -0.550736 105 116 136
0.709645 0.445535 -0.550831 74 80 96
0.712538 0.460761 -0.536489 143 158 180
0.692438 0.470670 -0.544600 12 16 21
0.712020 0.450685 -0.554125 21 23 28
0.720397 0.464673 -0.552001 33 39 47
0.655213 0.317862 -0.323672 145 144 153
0.571967 0.344623 -0.626213 134 134 141
0.578750 0.343426 -0.644835 115 115 123
0.574916 0.337958 -0.637114 131 132 138
0.676529 1.013163 -0.691825 14 12 12
0.697673 1.013817 -0.692598 17 19 24
0.583267 0.822113 -0.345302 56 66 92
0.586297 0.806070 -0.358595 53 64 91
0.539834 0.275936 -0.435262 149 149 156
0.831620 0.761365 -0.637374 108 94 103
0.843819 0.724089 -0.632973 111 92 105
0.852433 0.746192 -0.632379 122 100 114
0.724378 0.836336 -0.641230 157 125 135
0.610247 0.698036 -0.283851 53 64 91
0.603762 0.726808 -0.298126 54 63 91
0.609039 0.718087 -0.270326 59 66 94
0.678552 0.522918 -0.445223 66 74 86
0.679096 0.507976 -0.454806 17 22 27
0.681636 0.514268 -0.469511 58 68 81
0.693429 0.512227 -0.442578 89 100 117
0.679496 0.527735 -0.458956 57 62 77
0.686431 0.529866 -0.459369 84 93 109
0.678206 0.518246 -0.437594 58 67 81
0.683178 0.524994 -0.450171 48 56 68
0.679639 0.525840 -0.431026 41 46 54
0.690456 0.518248 -0.451459 41 47 58
0.559878 0.906336 -0.644524 177 168 185
0.743535 0.347789 -0.423606 145 143 153
0.718204 0.129785 -0.649671 54 60 69
0.708263 0.129485 -0.649222 62 58 66
0.711600 0.382761 -0.630110 133 132 138
0.706156 0.385058 -0.635862 121 121 126
0.572572 0.557449 -0.855174 9 7 11
0.579105 0.547443 -0.830178 11 12 12
0.586844 0.551323 -0.835901 14 16 20
0.587278 0.546289 -0.822992 11 11 11
0.575663 0.708109 -0.357316 47 56 80
0.584895 0.721509 -0.359681 48 56 80
0.586001 0.700556 -0.352707 48 54 78
0.592167 0.720569 -0.350928 50 58 83
0.571795 0.717477 -0.364787 47 53 77
0.701110 0.585867 -0.450074 125 134 156
0.697713 0.602088 -0.446126 136 147 170
0.697329 0.597674 -0.461243 142 156 178
0.702229 0.573003 -0.434391 143 157 178
0.833128 0.518586 -0.631802 126 104 112
0.603144 0.979367 -0.644244 246 243 249
0.623891 0.824752 -0.532995 54 60 80
0.617363 0.852874 -0.552835 54 60 81
0.618888 0.850515 -0.536677 56 61 80
0.531056 0.203361 -0.732584 15 17 22
0.548044 0.347406 -0.582378 86 88 96
0.555776 0.345500 -0.584446 115 116 124
0.566977 0.345064 -0.590469 137 136 144
0.671827 0.588533 -0.552170 45 50 71
0.667392 0.588703 -0.536644 45 54 69
0.671165 0.571099 -0.521542 53 59 83
0.532590 0.660671 -0.715375 32 37 51
0.542961 0.674692 -0.715892 27 33 46
0.658432 0.775308 -0.313218 43 44 63
0.657822 0.762654 -0.330432 43 45 55
0.613370 0.953865 -0.483268 62 65 90
0.609538 0.954104 -0.473236 60 63 89
0.627377 0.955622 -0.470981 60 67 93
0.762203 0.329420 -0.659292 41 41 48
0.526338 0.270086 -0.396374 149 150 158
0.621174 0.851166 -0.564790 96 85 101
0.892864 0.392064 -0.875542 13 14 17
0.884364 0.388504 -0.859364 11 13 12
0.911262 0.404064 -0.856695 22 30 40
0.896050 0.396177 -0.863788 15 19 23
0.897039 0.403538 -0.858794 17 20 24
0.631261 0.551619 -0.401133 32 40 57
0.636576 0.560579 -0.429879 31 39 53
0.631920 0.549785 -0.420997 26 32 47
0.727768 0.426564 -0.513299 143 154 179
0.723165 0.441425 -0.529832 142 153 178
0.726345 0.433720 -0.492170 153 164 189
0.722855 0.441059 -0.491550 153 164 188
0.588212 0.293348 -0.490555 148 148 155
0.568185 0.288319 -0.491706 148 149 155
0.576806 0.290348 -0.465368 148 145 155
0.589487 0.295071 -0.470415 147 147 154
0.558184 0.284216 -0.458291 151 147 157
0.680779 0.521059 -0.393011 59 66 81
0.674432 0.530686 -0.402206 36 41 50
0.678573 0.511267 -0.389253 118 132 151
0.684567 0.508569 -0.386006 83 94 109
0.555039 0.342680 -0.635647 108 110 116
0.554842 0.341019 -0.643053 34 36 44
0.543517 0.341024 -0.638223 63 67 78
0.591778 0.773160 -0.352146 55 62 89
0.587824 0.794747 -0.349404 58 62 89
0.595052 0.758336 -0.343302 52 60 85
0.542146 0.274671 -0.617148 143 141 151
0.560461 0.713724 -0.631993 69 74 82
0.556805 0.708885 -0.635193 53 57 61
0.552543 0.742558 -0.642888 63 63 65
0.550055 0.730908 -0.635370 44 45 44
0.552613 0.729095 -0.615461 79 82 96
0.545313 0.742985 -0.618103 102 104 124
0.535439 0.739534 -0.614630 102 104 124
0.530807 0.765688 -0.617483 108 110 131
0.544735 0.769356 -0.625479 111 113 135
0.550477 0.757480 -0.625384 100 104 120
0.804187 0.809245 -0.638745 131 102 108
0.627324 0.308205 -0.517085 144 143 153
0.529587 0.713920 -0.470714 40 49 68
0.553322 0.717346 -0.472044 42 50 70
0.547210 0.714718 -0.454935 44 50 69
0.642952 0.939072 -0.408190 139 149 167
0.637010 0.953760 -0.411868 70 80 107
0.654045 0.936683 -0.426341 96 102 118
0.642713 0.941990 -0.424294 133 144 162
0.648871 0.935783 -0.414544 138 149 166
0.645186 0.930456 -0.412923 42 50 67
0.648852 0.926033 -0.427480 29 33 41
0.637266 0.925465 -0.399459 67 75 95
0.606621 0.353523 -0.519494 143 140 146
0.605942 0.352553 -0.493231 139 139 145
0.621127 0.357748 -0.501587 139 140 145
0.730378 0.344342 -0.502799 141 141 146
0.724360 0.341369 -0.530238 144 139 149
0.744378 0.348709 -0.506177 143 139 149
0.571219 0.344736 -0.276362 149 149 156
0.580103 0.346779 -0.280286 146 148 152
0.697193 0.631879 -0.527010 37 41 52
0.691145 0.600389 -0.517856 89 98 115
0.608498 0.541493 -0.864475 13 18 20
0.666303 0.554942 -0.629842 144 149 166
0.680041 0.565889 -0.628740 142 155 172
0.799316 0.350770 -0.658881 59 50 59
0.810605 0.361100 -0.655988 40 44 53
0.780236 0.942656 -0.638691 176 155 170
0.694908 0.539521 -0.282339 135 147 170
0.694718 0.554670 -0.295668 135 147 171
0.751892 0.944681 -0.638956 180 160 176
0.874301 0.439179 -0.610690 134 135 141
0.693571 0.378643 -0.534637 142 140 146
0.536988 0.602295 -0.621645 34 36 48
0.534375 0.597136 -0.637484 35 40 52
0.668684 0.741251 -0.411525 40 46 57
0.667925 0.748617 -0.426697 38 45 57
0.660520 0.760653 -0.411083 44 47 59
0.791167 0.362993 -0.545528 142 141 152
0.799247 0.366191 -0.562088 144 141 152
0.802539 0.366025 -0.531573 143 143 151
0.614235 0.604168 -0.392816 39 45 66
0.595021 0.606281 -0.375715 37 46 66
0.607778 0.610041 -0.381244 39 43 65
0.589867 0.615707 -0.380912 38 44 64
0.610573 0.600234 -0.377629 39 48 67
0.604774 0.609767 -0.388301 39 44 64
0.646503 0.235461 -0.656520 80 59 58
0.690782 0.452186 -0.408397 85 93 112
0.710000 0.450215 -0.399171 145 158 182
0.692288 0.462575 -0.400230 109 119 139
0.625321 0.584015 -0.354356 51 61 85
0.626081 0.575811 -0.357199 49 60 81
0.618966 0.584645 -0.369542 46 54 77
0.792878 0.892336 -0.638610 154 126 138
0.764878 0.889336 -0.640150 158 134 147
0.680585 0.327593 -0.521287 143 139 149
0.669696 0.324290 -0.497259 145 141 151
0.726635 0.391009 -0.564326 138 137 142
0.705032 0.380838 -0.568578 140 137 142
0.576800 0.871945 -0.396898 57 66 92
0.574864 0.870050 -0.381445 55 66 92
0.577240 0.886609 -0.385593 58 68 93
0.838365 0.427115 -0.554929 138 138 143
0.833722 0.426089 -0.539511 137 138 142
0.661972 0.728435 -0.269632 46 57 73
0.532029 0.980080 -0.695584 20 22 30
0.554519 0.976333 -0.696135 20 22 30
0.641055 0.877224 -0.533328 22 22 30
0.639890 0.897885 -0.514949 20 23 28
0.641075 0.908172 -0.532222 20 23 28
0.655222 0.921589 -0.507527 52 46 54
0.642601 0.892431 -0.508945 23 22 30
0.648445 0.912262 -0.503823 22 23 29
0.647824 0.890426 -0.496917 22 25 32
0.695274 0.331970 -0.557735 144 141 149
0.593702 0.760336 -0.395552 48 53 75
0.592812 0.729214 -0.422533 42 45 69
0.596066 0.740528 -0.410177 38 48 70
0.589903 0.497754 -0.633777 62 61 64
0.575281 0.474083 -0.632152 15 16 18
0.589349 0.484193 -0.635211 50 46 52
0.670906 0.713433 -0.345304 42 47 55
0.664740 0.728544 -0.353201 41 46 54
0.670876 0.708295 -0.360765 38 45 54
0.661227 0.370459 -0.445680 141 142 145
0.652413 0.367198 -0.439323 141 141 147
0.639213 0.364266 -0.436943 142 142 147
0.643594 0.934630 -0.540856 86 89 107
0.636991 0.922688 -0.551305 65 73 90
0.640778 0.723723 -0.552265 51 56 76
0.638300 0.736583 -0.560245 41 52 68
0.638747 0.733535 -0.528268 44 46 65
0.636117 0.749942 -0.540302 41 47 67
0.695995 0.604735 -0.358078 94 103 120
0.609432 0.732639 -0.470671 39 46 66
0.586016 0.680094 -0.541404 52 40 43
0.581403 0.678688 -0.520167 31 34 44
0.575964 0.701052 -0.535312 51 40 43
0.578808 0.662724 -0.542033 37 39 42
0.869447 0.723354 -0.630398 96 85 95
0.645393 0.717320 -0.644048 101 100 109
0.659866 0.720351 -0.642599 101 99 114
0.698547 0.380033 -0.473526 140 138 145
0.676486 0.325860 -0.560651 142 138 146
0.727386 0.321363 -0.658325 70 59 59
0.733628 0.278836 -0.657661 78 63 63
0.696478 0.569027 -0.461254 131 142 165
0.699224 0.570881 -0.444584 113 125 145
0.698025 0.550932 -0.439439 90 99 115
0.695961 0.564429 -0.435312 91 100 116
0.698562 0.545412 -0.459420 113 124 144
0.690249 0.550643 -0.457402 114 123 144
0.595051 0.537928 -0.770955 10 14 17
0.783672 0.360830 -0.579729 141 142 152
0.702838 0.334559 -0.491552 145 143 150
0.689079 0.569553 -0.288435 120 133 154
0.692327 0.574742 -0.298366 93 105 122
0.685838 0.593548 -0.285650 92 105 121
0.596213 0.810061 -0.473273 51 55 79
0.617195 0.812044 -0.489112 49 55 78
0.577877 0.646982 -0.600551 38 39 47
0.576227 0.631242 -0.598499 41 46 54
0.785440 0.362283 -0.452589 147 140 151
0.639253 0.517619 -0.302703 25 28 38
0.638714 0.530071 -0.298873 22 29 40
0.641180 0.513335 -0.330863 17 25 33
0.683355 0.676519 -0.638261 45 49 60
0.687465 0.626138 -0.380147 41 46 55
0.692917 0.602415 -0.367126 39 46 54
0.688924 0.624410 -0.369487 40 46 55
0.688527 0.624890 -0.393603 138 150 172
0.691351 0.612151 -0.361392 86 95 111
0.573652 0.886433 -0.308488 62 75 104
0.573591 0.869741 -0.317810 65 72 102
0.547767 0.507408 -0.781258 9 9 10
0.558160 0.483851 -0.796608 12 13 16
0.555263 0.483086 -0.781852 8 9 11
0.557934 0.481719 -0.808780 9 9 11
0.564453 0.471159 -0.822904 9 10 11
0.887695 0.782344 -0.630225 108 90 93
0.603226 0.951216 -0.458289 60 65 96
0.599442 0.948423 -0.481378 61 66 91
0.876449 0.626817 -0.629872 111 88 94
0.889191 0.653586 -0.630597 106 88 97
0.675540 0.702011 -0.409061 41 47 56
0.671974 0.720427 -0.404540 39 48 56
0.674594 0.707390 -0.426897 42 47 57
0.671568 0.717487 -0.421440 40 48 57
0.662823 0.817736 -0.545297 61 65 84
0.528958 0.271217 -0.570026 146 150 157
0.544856 0.277893 -0.539139 150 151 157
0.716653 0.533020 -0.533617 72 83 99
0.717710 0.523493 -0.547205 75 82 97
0.721164 0.509673 -0.541097 83 94 113
0.708981 0.546669 -0.553344 95 109 130
0.712141 0.522796 -0.529113 93 103 121
0.639388 0.489437 -0.639705 123 112 121
0.597869 0.748038 -0.438938 43 50 72
0.582078 0.827114 -0.371662 58 66 90
0.577006 0.858068 -0.388488 54 61 92
0.580674 0.840396 -0.389627 58 61 91
0.693513 0.620886 -0.490630 136 150 171
0.690015 0.609872 -0.467984 144 160 183
0.695662 0.617879 -0.483628 143 157 181
0.700258 0.609649 -0.490264 151 163 187
0.694991 0.611761 -0.494796 135 150 171
0.566848 1.009612 -0.688487 61 39 28
0.624810 0.953863 -0.566019 74 73 92
0.652331 0.537274 -0.631121 138 136 149
0.679002 0.532147 -0.635131 152 150 164
0.681059 0.621408 -0.301762 93 98 117
0.683288 0.595866 -0.272670 134 147 167
0.683078 0.612861 -0.280829 71 81 99
0.684942 0.608503 -0.293478 95 104 123
0.618411 0.358455 -0.287842 146 144 150
0.636864 0.362427 -0.289682 144 144 150
0.585060 0.676890 -0.352035 46 57 78
0.590130 0.645784 -0.352231 45 55 73
0.642742 0.498688 -0.452506 16 19 24
0.649727 0.479165 -0.436996 23 29 37
0.698793 0.575540 -0.530375 59 67 87
0.914422 0.528640 -0.625489 38 30 38
0.633944 0.514832 -0.635730 112 101 111
