ply
format ascii 1.0
element vertex 1294
property float x
property float y
property float z
property uchar red
property uchar green
property uchar blue
end_header
-0.455518 -0.009407 -0.010439 0 0 255
-0.486300 -0.091837 -0.031491 0 0 255
-0.491410 -0.005640 0.012663 0 0 255
-0.471828 -0.021278 0.012632 0 0 255
-0.485875 -0.118314 -0.020438 0 0 255
-0.495925 -0.031245 0.018121 0 0 255
-0.459286 -0.088361 0.009561 0 0 255
-0.456855 -0.025950 -0.008438 0 0 255
-0.468047 -0.040223 -0.032439 0 0 255
-0.460591 -0.015136 -0.031582 0 0 255
-0.482361 -0.092532 0.019652 0 0 255
-0.479016 0.018575 0.019867 0 0 255
-0.446556 -0.131338 -0.029662 0 0 255
-0.472399 -0.082103 0.012587 0 0 255
-0.467809 -0.084944 -0.012438 0 0 255
-0.493137 -0.084540 0.012626 0 0 255
-0.461773 0.009442 -0.016438 0 0 255
-0.459521 -0.055942 -0.036438 0 0 255
-0.466837 -0.085115 -0.045420 0 0 255
-0.468609 -0.066525 0.003561 0 0 255
-0.459235 -0.053516 -0.014439 0 0 255
-0.450016 -0.110420 -0.042439 0 0 255
-0.464684 -0.032692 -0.016438 0 0 255
-0.459443 -0.043179 -0.000439 0 0 255
-0.470955 0.000907 0.003561 0 0 255
-0.484830 -0.129567 -0.026438 0 0 255
-0.445969 -0.104975 -0.030438 0 0 255
-0.468054 -0.074746 -0.020438 0 0 255
-0.470558 0.008961 0.020184 0 0 255
-0.462204 -0.081870 0.020572 0 0 255
-0.459544 -0.043753 -0.023923 0 0 255
-0.458199 -0.084607 -0.020438 0 0 255
-0.480798 -0.118222 -0.032439 0 0 255
-0.472637 -0.037382 0.020292 0 0 255
-0.469324 -0.001412 -0.044438 0 0 255
-0.469383 -0.111068 -0.002070 0 0 255
-0.468574 -0.094963 -0.032533 0 0 255
-0.467267 -0.099071 0.009561 0 0 255
-0.493023 -0.072374 0.012708 0 0 255
-0.472751 -0.049548 0.020514 0 0 255
-0.460010 -0.023362 0.010710 0 0 255
-0.469569 -0.008465 0.011562 0 0 255
-0.459023 -0.062122 0.015562 0 0 255
-0.473904 -0.113673 -0.016438 0 0 255
-0.470257 0.004845 -0.028439 0 0 255
-0.481785 -0.066232 0.020202 0 0 255
-0.453338 -0.020476 -0.022438 0 0 255
-0.458698 -0.068273 -0.002438 0 0 255
-0.460293 -0.074084 -0.038438 0 0 255
-0.470031 0.011948 -0.008438 0 0 255
-0.470822 0.013069 0.007562 0 0 255
-0.474730 0.019851 -0.025436 0 0 255
-0.494709 -0.093456 0.005562 0 0 255
-0.500720 0.016310 0.013561 0 0 255
-0.460714 -0.004960 0.003561 0 0 255
-0.446783 -0.125207 -0.040438 0 0 255
-0.457841 -0.084670 -0.004439 0 0 255
-0.461039 -0.006160 -0.024439 0 0 255
-0.469567 -0.008455 -0.032439 0 0 255
-0.476296 -0.092688 -0.008438 0 0 255
-0.474823 -0.132448 -0.032439 0 0 255
-0.467359 -0.053524 0.009561 0 0 255
-0.467125 -0.063711 -0.034438 0 0 255
-0.493846 -0.096600 -0.016438 0 0 255
-0.487927 -0.054995 0.012580 0 0 255
-0.459850 -0.090408 -0.038438 0 0 255
-0.458077 -0.133369 -0.036438 0 0 255
-0.458875 -0.064179 -0.016438 0 0 255
-0.478067 -0.095320 -0.024439 0 0 255
-0.501606 -0.005873 0.016527 0 0 255
-0.489436 -0.040512 0.012582 0 0 255
-0.493960 0.002933 0.019638 0 0 255
-0.467472 -0.031126 0.011562 0 0 255
-0.482823 -0.106666 -0.001450 0 0 255
-0.480983 -0.009510 0.013561 0 0 255
-0.488627 -0.024408 0.012591 0 0 255
-0.461377 -0.021090 -0.040438 0 0 255
-0.468703 -0.003551 -0.007455 0 0 255
-0.475093 -0.091783 0.009561 0 0 255
-0.464044 -0.018589 -0.006438 0 0 255
-0.476809 -0.026492 0.020194 0 0 255
-0.496496 -0.092070 0.020181 0 0 255
-0.468282 -0.064552 -0.022438 0 0 255
-0.484262 -0.137864 -0.032439 0 0 255
-0.459746 -0.041686 0.015562 0 0 255
-0.474725 -0.014674 0.019873 0 0 255
-0.468419 0.021086 -0.036438 0 0 255
-0.477965 -0.044567 0.012623 0 0 255
-0.500263 -0.055851 0.013561 0 0 255
-0.471190 0.011103 -0.020438 0 0 255
-0.475362 -0.098910 -0.000439 0 0 255
-0.460415 -0.045630 -0.036438 0 0 255
-0.476571 -0.071213 0.012591 0 0 255
-0.477509 0.004094 0.012600 0 0 255
-0.495568 -0.098327 -0.035253 0 0 255
-0.468578 -0.060438 0.019885 0 0 255
-0.459566 -0.090459 -0.028439 0 0 255
-0.466732 -0.003899 0.020509 0 0 255
-0.461743 0.009437 0.005562 0 0 255
-0.494736 -0.012987 0.019562 0 0 255
-0.461041 -0.092229 -0.012438 0 0 255
-0.468848 -0.056329 -0.002438 0 0 255
-0.491877 0.014750 0.019710 0 0 255
-0.467422 -0.042363 -0.017433 0 0 255
-0.482941 -0.084307 0.012721 0 0 255
-0.485857 -0.095977 0.009561 0 0 255
-0.466415 -0.020202 0.003561 0 0 255
-0.490586 -0.093113 -0.003348 0 0 255
-0.467788 -0.084947 -0.022438 0 0 255
-0.453625 -0.113845 -0.033718 0 0 255
-0.471916 0.024291 -0.004439 0 0 255
-0.460258 -0.013165 0.009561 0 0 255
-0.493489 -0.051984 0.019926 0 0 255
-0.465919 -0.022321 0.020238 0 0 255
-0.452232 -0.140492 -0.033491 0 0 255
-0.467679 -0.072781 -0.030438 0 0 255
-0.496034 -0.077936 0.019997 0 0 255
-0.458356 -0.078487 -0.028439 0 0 255
-0.474021 -0.079786 0.021761 0 0 255
-0.471904 0.024360 0.009561 0 0 255
-0.462332 0.009541 -0.035473 0 0 255
-0.461382 0.003409 -0.024439 0 0 255
-0.486551 -0.093257 -0.042439 0 0 255
-0.466541 -0.071913 -0.008438 0 0 255
-0.458736 -0.058112 -0.024439 0 0 255
-0.464589 -0.037810 -0.006438 0 0 255
-0.460668 -0.035432 -0.036438 0 0 255
-0.500023 -0.066006 0.013561 0 0 255
-0.477495 -0.122524 -0.016438 0 0 255
-0.463488 -0.008532 -0.015431 0 0 255
-0.455864 -0.034402 -0.004439 0 0 255
-0.457835 -0.078579 0.003561 0 0 255
-0.468159 -0.086912 0.005562 0 0 255
-0.464165 0.017987 -0.012438 0 0 255
-0.464759 -0.027260 -0.034438 0 0 255
-0.460236 -0.047693 0.007562 0 0 255
-0.480754 0.008727 0.020467 0 0 255
-0.462833 -0.022864 -0.026438 0 0 255
-0.468021 -0.074752 0.007562 0 0 255
-0.452624 -0.036850 -0.020438 0 0 255
-0.489217 -0.096858 -0.024439 0 0 255
-0.461518 -0.008880 -0.038622 0 0 255
-0.461608 0.011444 0.017561 0 0 255
-0.451656 -0.124347 -0.032439 0 0 255
-0.458885 -0.060116 -0.006438 0 0 255
-0.501988 -0.100181 0.015562 0 0 255
-0.467651 -0.066694 0.012569 0 0 255
-0.483324 0.023397 0.013561 0 0 255
-0.460120 -0.070052 0.019700 0 0 255
-0.455957 -0.011892 -0.019087 0 0 255
-0.460147 -0.063956 0.005562 0 0 255
-0.486776 -0.002395 0.020554 0 0 255
-0.466820 -0.056686 -0.042439 0 0 255
-0.482018 -0.056037 0.020706 0 0 255
-0.457410 -0.027882 -0.018439 0 0 255
-0.467417 -0.048457 0.001562 0 0 255
-0.481547 -0.110953 -0.009434 0 0 255
-0.465370 -0.036633 -0.024439 0 0 255
-0.487694 -0.065191 0.012679 0 0 255
-0.450779 -0.097703 -0.032439 0 0 255
-0.459704 -0.049818 -0.006438 0 0 255
-0.456399 -0.025917 0.001562 0 0 255
-0.457223 -0.017762 -0.012438 0 0 255
-0.459630 -0.037645 0.007562 0 0 255
-0.468125 -0.052394 -0.014439 0 0 255
-0.471181 0.011101 -0.034438 0 0 255
-0.501620 -0.085074 0.019562 0 0 255
-0.466842 -0.050589 -0.033385 0 0 255
-0.443311 -0.135973 -0.036195 0 0 255
-0.469455 0.008766 -0.000439 0 0 255
-0.461105 -0.000830 -0.012438 0 0 255
-0.467475 -0.093126 -0.042439 0 0 255
-0.477742 0.014289 0.012569 0 0 255
-0.474730 0.019851 -0.045394 0 0 255
-0.458497 -0.072369 -0.020927 0 0 255
-0.474720 -0.095266 -0.016438 0 0 255
-0.466463 0.020660 -0.020438 0 0 255
-0.489545 -0.087204 0.019965 0 0 255
-0.481676 -0.019542 0.012666 0 0 255
-0.478492 -0.116660 -0.024439 0 0 255
-0.488394 -0.034605 0.020024 0 0 255
-0.478265 -0.092338 -0.034438 0 0 255
-0.494188 -0.021398 0.019818 0 0 255
-0.495919 0.009371 0.013561 0 0 255
-0.498937 -0.036807 0.012568 0 0 255
-0.493723 -0.041788 0.019673 0 0 255
-0.468593 -0.106586 0.005562 0 0 255
-0.477781 -0.112624 0.001562 0 0 255
-0.468660 -0.095448 -0.010439 0 0 255
-0.466895 -0.039374 -0.044438 0 0 255
-0.461210 -0.007134 -0.004439 0 0 255
-0.473158 -0.097924 0.015562 0 0 255
-0.491177 -0.015836 0.012650 0 0 255
-0.459879 -0.090403 0.017561 0 0 255
-0.459122 -0.064399 -0.036438 0 0 255
-0.468241 0.004491 -0.038438 0 0 255
-0.485035 -0.027073 0.019602 0 0 255
-0.468895 0.000543 0.011562 0 0 255
-0.481210 -0.039933 0.019643 0 0 255
-0.469278 -0.029852 0.020011 0 0 255
-0.464753 -0.073297 -0.045375 0 0 255
-0.468139 -0.086917 -0.004439 0 0 255
-0.467993 -0.040232 0.001562 0 0 255
-0.458359 -0.076456 -0.004439 0 0 255
-0.467888 -0.021973 -0.045393 0 0 255
-0.488737 -0.071099 0.019611 0 0 255
-0.485492 -0.075733 0.012565 0 0 255
-0.470216 0.004839 -0.012438 0 0 255
-0.461274 -0.004862 0.013561 0 0 255
-0.459944 -0.082269 -0.038438 0 0 255
-0.470077 -0.115006 -0.009383 0 0 255
-0.501305 -0.027207 0.013561 0 0 255
-0.456672 -0.015827 -0.004439 0 0 255
-0.462172 0.011544 -0.006438 0 0 255
-0.492795 -0.048044 0.012690 0 0 255
-0.465801 -0.044680 0.020131 0 0 255
-0.475410 -0.087665 0.020455 0 0 255
-0.467098 -0.046483 -0.026438 0 0 255
-0.458757 -0.082477 -0.012438 0 0 255
-0.464827 0.018423 0.007562 0 0 255
-0.480209 -0.109158 -0.018439 0 0 255
-0.449769 -0.103494 -0.038438 0 0 255
-0.471138 0.017186 0.020168 0 0 255
-0.474607 -0.037035 0.012573 0 0 255
-0.490016 -0.032287 0.012586 0 0 255
-0.484812 -0.094916 -0.008438 0 0 255
-0.478676 -0.099274 0.009561 0 0 255
-0.472012 0.017341 -0.000439 0 0 255
-0.463959 -0.028758 -0.006438 0 0 255
-0.475187 -0.028809 0.012577 0 0 255
-0.478417 -0.127752 -0.022271 0 0 255
-0.469613 -0.003391 -0.026438 0 0 255
-0.483411 -0.000958 0.013561 0 0 255
-0.464117 -0.023615 -0.012438 0 0 255
-0.466993 -0.016894 -0.036438 0 0 255
-0.444705 -0.109325 -0.036831 0 0 255
-0.477968 -0.125206 -0.034438 0 0 255
-0.466727 -0.079041 -0.040438 0 0 255
-0.459614 -0.090218 0.001562 0 0 255
-0.450381 -0.118479 -0.039334 0 0 255
-0.460054 -0.055847 0.009561 0 0 255
-0.459280 -0.049892 -0.028439 0 0 255
-0.489559 0.016373 0.012636 0 0 255
-0.452108 -0.041002 -0.004439 0 0 255
-0.489664 -0.095306 0.019562 0 0 255
-0.465509 -0.014270 -0.024439 0 0 255
-0.470807 -0.090507 -0.026438 0 0 255
-0.456071 -0.024057 -0.029292 0 0 255
-0.467728 -0.015909 0.009561 0 0 255
-0.473122 -0.092130 0.001562 0 0 255
-0.486990 -0.130302 -0.033525 0 0 255
-0.490021 0.002238 0.012583 0 0 255
-0.492384 -0.091789 -0.036438 0 0 255
-0.496496 -0.092070 0.012571 0 0 255
-0.486867 0.020122 0.019562 0 0 255
-0.456513 -0.032102 -0.012438 0 0 255
-0.481151 -0.051118 0.013561 0 0 255
-0.483459 -0.121794 -0.026438 0 0 255
-0.460135 -0.031464 0.011562 0 0 255
-0.477978 -0.072996 0.019562 0 0 255
-0.468140 -0.086916 -0.038438 0 0 255
-0.482590 -0.116862 -0.013632 0 0 255
-0.460114 -0.039591 -0.030438 0 0 255
-0.457146 -0.046206 -0.016438 0 0 255
-0.501016 -0.083150 0.012577 0 0 255
-0.474785 -0.003497 0.013561 0 0 255
-0.465448 0.003386 0.019562 0 0 255
-0.468341 0.021532 -0.028439 0 0 255
-0.493509 -0.092597 -0.028439 0 0 255
-0.465101 -0.075266 0.021309 0 0 255
-0.453092 -0.128156 -0.038438 0 0 255
-0.493380 -0.005293 0.020112 0 0 255
-0.468806 -0.084768 0.020909 0 0 255
-0.497574 -0.000492 0.013561 0 0 255
-0.483879 -0.008999 0.020370 0 0 255
-0.475182 -0.063335 0.019751 0 0 255
-0.466925 -0.068852 -0.016438 0 0 255
-0.469270 -0.001421 -0.034438 0 0 255
-0.467206 -0.058649 -0.018439 0 0 255
-0.463944 -0.028761 -0.022438 0 0 255
-0.472751 -0.049548 0.012578 0 0 255
-0.496391 -0.010854 0.012640 0 0 255
-0.487922 -0.089521 0.012694 0 0 255
-0.467556 -0.060618 0.007562 0 0 255
-0.460010 -0.011843 0.001562 0 0 255
-0.467869 -0.005730 0.003561 0 0 255
-0.466199 -0.069976 -0.038438 0 0 255
-0.464287 -0.093688 0.005836 0 0 255
-0.487357 0.005830 0.020079 0 0 255
-0.443545 -0.125778 -0.034106 0 0 255
-0.466732 -0.079041 -0.008438 0 0 255
-0.452796 -0.105869 -0.032439 0 0 255
-0.458431 -0.082535 0.013561 0 0 255
-0.461619 0.002068 0.003561 0 0 255
-0.469501 -0.088707 0.012617 0 0 255
-0.459932 -0.019314 0.017561 0 0 255
-0.479806 -0.135630 -0.037381 0 0 255
-0.472919 0.018608 -0.008438 0 0 255
-0.467828 -0.033147 -0.036438 0 0 255
-0.457822 -0.109044 -0.036438 0 0 255
-0.476522 0.021204 0.013561 0 0 255
-0.464411 -0.036802 0.020167 0 0 255
-0.470905 0.006991 0.012618 0 0 255
-0.497091 0.019731 0.018203 0 0 255
-0.466447 0.020755 -0.006438 0 0 255
-0.470501 -0.104778 -0.004439 0 0 255
-0.496615 -0.069710 0.018146 0 0 255
-0.495734 -0.099269 0.009561 0 0 255
-0.454127 -0.087356 -0.036438 0 0 255
-0.461224 -0.037364 -0.012438 0 0 255
-0.460889 -0.092256 -0.020438 0 0 255
-0.494879 -0.059862 0.012640 0 0 255
-0.469283 0.004674 -0.021420 0 0 255
-0.471182 -0.075203 0.013561 0 0 255
-0.466142 -0.081175 0.008606 0 0 255
-0.461980 -0.023015 -0.001747 0 0 255
-0.467475 -0.065698 -0.004439 0 0 255
-0.468502 0.002505 -0.004439 0 0 255
-0.466736 -0.079040 -0.026438 0 0 255
-0.465418 -0.014285 -0.012438 0 0 255
-0.469849 -0.090676 -0.015445 0 0 255
-0.480418 -0.064442 0.013561 0 0 255
-0.467563 -0.060616 -0.028439 0 0 255
-0.467590 -0.043310 -0.038438 0 0 255
-0.470466 0.015036 -0.014439 0 0 255
-0.468267 -0.007690 -0.040438 0 0 255
-0.473680 0.019665 -0.032439 0 0 255
-0.466660 -0.049559 -0.020438 0 0 255
-0.461775 0.009442 -0.028439 0 0 255
-0.470430 0.015031 -0.028439 0 0 255
-0.487066 -0.096181 0.001562 0 0 255
-0.455111 -0.038442 0.001562 0 0 255
-0.460879 0.006262 -0.010439 0 0 255
-0.458611 -0.084535 -0.031377 0 0 255
-0.452812 -0.132266 -0.031815 0 0 255
-0.483133 -0.085393 0.019562 0 0 255
-0.458524 -0.061006 -0.030438 0 0 255
-0.481304 -0.098052 0.015562 0 0 255
-0.450332 -0.129721 -0.044438 0 0 255
-0.477960 -0.079092 0.014630 0 0 255
-0.458964 -0.051979 -0.021892 0 0 255
-0.466484 -0.054714 -0.008438 0 0 255
-0.470310 -0.104811 0.011716 0 0 255
-0.454028 -0.024417 0.007562 0 0 255
-0.458234 -0.076478 0.017561 0 0 255
-0.462035 -0.008789 -0.030438 0 0 255
-0.461976 -0.057541 0.020187 0 0 255
-0.458970 -0.068224 -0.010439 0 0 255
-0.452528 -0.026712 -0.024439 0 0 255
-0.480749 -0.025798 0.014795 0 0 255
-0.479881 -0.133586 -0.028439 0 0 255
-0.473089 -0.120568 -0.012016 0 0 255
-0.476857 -0.015244 0.013561 0 0 255
-0.468172 -0.035099 0.005562 0 0 255
-0.462677 0.013663 -0.022438 0 0 255
-0.463521 0.015843 -0.036438 0 0 255
-0.468006 0.018664 -0.042439 0 0 255
-0.459206 -0.072245 0.003561 0 0 255
-0.458274 -0.013515 -0.025757 0 0 255
-0.458452 -0.078470 -0.018439 0 0 255
-0.486358 -0.046093 0.013561 0 0 255
-0.470318 -0.098717 0.003561 0 0 255
-0.464495 -0.094861 0.013561 0 0 255
-0.496505 -0.023020 0.012676 0 0 255
-0.449000 -0.110649 -0.030438 0 0 255
-0.467503 -0.026102 0.007562 0 0 255
-0.450381 -0.118479 -0.030213 0 0 255
-0.476110 -0.114668 -0.004439 0 0 255
-0.471916 0.024288 -0.020438 0 0 255
-0.469049 -0.005522 -0.013507 0 0 255
-0.462028 0.013549 0.011562 0 0 255
-0.495313 -0.096879 -0.000439 0 0 255
-0.487133 -0.095752 -0.036438 0 0 255
-0.468122 -0.011777 0.020380 0 0 255
-0.488275 -0.056965 0.020019 0 0 255
-0.453545 -0.010287 -0.004439 0 0 255
-0.464635 -0.095658 -0.026460 0 0 255
-0.460180 -0.090350 -0.006438 0 0 255
-0.481240 -0.097693 0.003561 0 0 255
-0.461231 0.001223 -0.018439 0 0 255
-0.479706 -0.019889 0.020388 0 0 255
-0.479821 -0.032054 0.019834 0 0 255
-0.495107 -0.084192 0.019602 0 0 255
-0.467189 -0.052560 0.020167 0 0 255
-0.467699 -0.072778 -0.000439 0 0 255
-0.494887 0.009189 0.020002 0 0 255
-0.475763 -0.055109 0.020292 0 0 255
-0.470597 -0.094920 -0.004439 0 0 255
-0.459381 -0.062060 -0.000439 0 0 255
-0.478312 -0.046536 0.020366 0 0 255
-0.496034 -0.077936 0.012596 0 0 255
-0.466281 -0.077090 -0.014439 0 0 255
-0.466552 -0.066887 -0.028439 0 0 255
-0.483179 -0.039586 0.012589 0 0 255
-0.469866 0.006807 0.005562 0 0 255
-0.473569 0.003399 0.020205 0 0 255
-0.473536 -0.128612 -0.026438 0 0 255
-0.475653 -0.008419 0.019791 0 0 255
-0.487466 -0.040860 0.020030 0 0 255
-0.462573 -0.060934 -0.040438 0 0 255
-0.465631 -0.009170 -0.008438 0 0 255
-0.470307 0.021898 0.003561 0 0 255
-0.458611 -0.066256 -0.022438 0 0 255
-0.462902 -0.051284 -0.038956 0 0 255
-0.498505 -0.097809 -0.020438 0 0 255
-0.454764 -0.093337 -0.034438 0 0 255
-0.476410 -0.104852 -0.002438 0 0 255
-0.471905 0.024359 -0.040438 0 0 255
-0.470201 -0.058121 0.012654 0 0 255
-0.487127 -0.010458 0.013561 0 0 255
-0.459829 -0.049795 0.013561 0 0 255
-0.490439 -0.092271 -0.020438 0 0 255
-0.447662 -0.137608 -0.030438 0 0 255
-0.483303 0.017301 0.014722 0 0 255
-0.460228 -0.049725 0.001562 0 0 255
-0.473107 0.017534 -0.019446 0 0 255
-0.466861 -0.056679 -0.034438 0 0 255
-0.468475 -0.054363 0.003561 0 0 255
-0.473392 -0.064701 0.013561 0 0 255
-0.500020 -0.095510 -0.038438 0 0 255
-0.493951 -0.066118 0.012589 0 0 255
-0.476685 -0.094892 0.019562 0 0 255
-0.463228 0.001576 -0.040438 0 0 255
-0.490331 -0.080142 0.019562 0 0 255
-0.473232 -0.109864 -0.010439 0 0 255
-0.463717 -0.032863 -0.031790 0 0 255
-0.484560 -0.093483 -0.022438 0 0 255
-0.462578 -0.093990 -0.032439 0 0 255
-0.461635 -0.021054 -0.032439 0 0 255
-0.491291 -0.028001 0.020321 0 0 255
-0.468421 -0.088898 -0.032439 0 0 255
-0.481130 -0.092749 0.011562 0 0 255
-0.454745 -0.138018 -0.038438 0 0 255
-0.458041 -0.084635 0.003561 0 0 255
-0.472513 -0.094269 -0.022012 0 0 255
-0.472065 -0.120748 -0.018439 0 0 255
-0.500035 -0.095508 0.007562 0 0 255
-0.459656 -0.068103 0.013561 0 0 255
-0.446020 -0.131434 -0.040438 0 0 255
-0.482198 -0.057056 0.013561 0 0 255
-0.460453 -0.025315 0.017561 0 0 255
-0.467228 -0.006706 -0.020438 0 0 255
-0.473797 -0.020931 0.019925 0 0 255
-0.487347 -0.063220 0.020261 0 0 255
-0.465233 -0.071182 -0.024439 0 0 255
-0.501527 -0.011980 0.015562 0 0 255
-0.474681 -0.095046 -0.030438 0 0 255
-0.461819 0.011481 -0.000439 0 0 255
-0.481795 0.002818 0.020128 0 0 255
-0.463017 -0.063450 0.019903 0 0 255
-0.486315 0.011739 0.019804 0 0 255
-0.458971 -0.058070 -0.018439 0 0 255
-0.471709 -0.043639 0.020732 0 0 255
-0.457052 -0.017792 -0.018439 0 0 255
-0.467496 -0.060628 0.001562 0 0 255
-0.493836 -0.053953 0.012609 0 0 255
-0.469052 -0.011614 0.005562 0 0 255
-0.482480 -0.070172 0.012569 0 0 255
-0.465218 -0.024475 -0.018439 0 0 255
-0.467716 -0.050436 -0.004439 0 0 255
-0.472029 0.017343 0.011562 0 0 255
-0.457109 -0.046213 -0.010439 0 0 255
-0.479251 -0.115420 -0.018439 0 0 255
-0.470439 -0.013400 0.014791 0 0 255
-0.501755 0.010400 0.013561 0 0 255
-0.496500 -0.057545 0.018108 0 0 255
-0.462451 -0.041209 -0.040438 0 0 255
-0.482896 -0.095566 -0.028439 0 0 255
-0.464063 -0.034833 -0.001382 0 0 255
-0.500212 -0.073138 0.013561 0 0 255
-0.482327 -0.123001 -0.020438 0 0 255
-0.473977 -0.091056 -0.038438 0 0 255
-0.474333 0.022108 0.019562 0 0 255
-0.480602 -0.094074 -0.012438 0 0 255
-0.461974 -0.069049 -0.042439 0 0 255
-0.480739 -0.094849 -0.004220 0 0 255
-0.456532 -0.038191 -0.024597 0 0 255
-0.488787 -0.094422 -0.014439 0 0 255
-0.495577 -0.029276 0.012623 0 0 255
-0.477380 -0.087317 0.012568 0 0 255
-0.464635 0.016039 0.019562 0 0 255
-0.486133 -0.125437 -0.030438 0 0 255
-0.339327 0.044716 0.077561 255 0 0
-0.342661 0.077797 -0.043378 255 0 0
-0.351400 0.039752 0.011562 255 0 0
-0.332724 0.076566 0.039562 255 0 0
-0.337848 0.035991 -0.030438 255 0 0
-0.327635 0.070872 -0.004439 255 0 0
-0.363617 0.074126 0.083561 255 0 0
-0.333156 0.039565 0.043067 255 0 0
-0.332761 0.076358 0.073561 255 0 0
-0.358321 0.074466 0.005562 255 0 0
-0.360784 0.072869 0.051562 255 0 0
-0.322898 0.054004 0.019562 255 0 0
-0.322421 0.060012 -0.032439 255 0 0
-0.367602 0.045640 0.081562 255 0 0
-0.328522 0.042810 -0.005356 255 0 0
-0.322061 0.057918 0.057562 255 0 0
-0.348774 0.077685 -0.018439 255 0 0
-0.322396 0.060008 0.087561 255 0 0
-0.352116 0.040878 -0.012438 255 0 0
-0.337600 0.071949 0.017561 255 0 0
-0.349607 0.038405 0.058604 255 0 0
-0.345039 0.064000 0.087561 255 0 0
-0.354101 0.041228 -0.042439 255 0 0
-0.352188 0.075415 0.031561 255 0 0
-0.335153 0.039757 0.023561 255 0 0
-0.330933 0.075206 -0.024439 255 0 0
-0.322118 0.059959 0.037562 255 0 0
-0.342347 0.073680 0.055561 255 0 0
-0.330471 0.041123 0.061562 255 0 0
-0.331766 0.047445 -0.043370 255 0 0
-0.350567 0.038574 0.037562 255 0 0
-0.331978 0.051544 -0.020438 255 0 0
-0.351234 0.075247 0.070562 255 0 0
-0.342316 0.079767 -0.002438 255 0 0
-0.352438 0.040935 0.087561 255 0 0
-0.331001 0.057463 0.005562 255 0 0
-0.330615 0.059426 0.071562 255 0 0
-0.360268 0.058563 0.087312 255 0 0
-0.335897 0.038019 0.007562 255 0 0
-0.330263 0.067487 -0.043389 255 0 0
-0.322732 0.064129 -0.017762 255 0 0
-0.346516 0.078970 0.085562 255 0 0
-0.327399 0.072212 0.053562 255 0 0
-0.328175 0.044780 0.087794 255 0 0
-0.329221 0.073396 0.088253 255 0 0
-0.325298 0.068643 0.025562 255 0 0
-0.333217 0.050729 0.033562 255 0 0
-0.351229 0.040722 -0.027438 255 0 0
-0.331703 0.053525 0.047562 255 0 0
-0.337442 0.038291 -0.016335 255 0 0
-0.325687 0.070401 0.009561 255 0 0
-0.325564 0.046350 0.073561 255 0 0
-0.322472 0.055960 -0.006438 255 0 0
-0.346564 0.078700 0.043562 255 0 0
-0.350183 0.075062 -0.032439 255 0 0
-0.345842 0.041803 -0.000439 255 0 0
-0.326915 0.044558 -0.030438 255 0 0
-0.349260 0.040375 0.024593 255 0 0
-0.353725 0.072641 -0.006438 255 0 0
-0.350184 0.075062 0.017561 255 0 0
-0.349145 0.052539 0.080599 255 0 0
-0.339759 0.036668 0.087651 255 0 0
-0.334822 0.056106 0.087561 255 0 0
-0.337586 0.072027 -0.012438 255 0 0
-0.326264 0.046474 0.009561 255 0 0
-0.339349 0.044719 0.053562 255 0 0
-0.342249 0.080133 0.025562 255 0 0
-0.325799 0.069766 0.065562 255 0 0
-0.341258 0.036933 0.067562 255 0 0
-0.332585 0.077357 -0.036438 255 0 0
-0.332748 0.064912 0.043562 255 0 0
-0.341206 0.039980 -0.042439 255 0 0
-0.337596 0.071967 0.005562 255 0 0
-0.334354 0.049932 0.017561 255 0 0
-0.337967 0.069864 0.029562 255 0 0
-0.334550 0.066213 0.080595 255 0 0
-0.331937 0.063722 -0.026438 255 0 0
-0.354750 0.066822 0.081562 255 0 0
-0.331126 0.062592 0.015562 255 0 0
-0.340520 0.078425 0.065562 255 0 0
-0.345837 0.036751 0.047562 255 0 0
-0.330902 0.052349 0.061562 255 0 0
-0.367453 0.063891 0.080598 255 0 0
-0.346665 0.078126 0.007562 255 0 0
-0.339482 0.038244 0.033562 255 0 0
-0.335885 0.047121 0.001562 255 0 0
-0.340511 0.078473 -0.028439 255 0 0
-0.330657 0.059434 0.027561 255 0 0
-0.331131 0.062565 -0.010439 255 0 0
-0.322110 0.055896 0.077561 255 0 0
-0.331706 0.053526 -0.034438 255 0 0
-0.325858 0.046402 0.053177 255 0 0
-0.324242 0.066426 0.077561 255 0 0
-0.324697 0.048229 0.039562 255 0 0
-0.343026 0.047399 0.087561 255 0 0
-0.325858 0.046402 0.027351 255 0 0
-0.322914 0.063099 0.047562 255 0 0
-0.339278 0.044707 -0.024439 255 0 0
-0.331932 0.063721 0.059561 255 0 0
-0.343527 0.072889 0.077561 255 0 0
-0.338200 0.045510 -0.008438 255 0 0
-0.337009 0.046338 0.067562 255 0 0
-0.325824 0.069627 -0.034438 255 0 0
-0.322933 0.054010 -0.016438 255 0 0
-0.328060 0.056945 -0.043308 255 0 0
-0.341608 0.043087 0.015562 255 0 0
-0.325678 0.070454 0.035562 255 0 0
-0.353104 0.075577 0.057562 255 0 0
-0.322732 0.053975 0.067562 255 0 0
-0.323075 0.062182 0.001562 255 0 0
-0.360035 0.048368 0.087543 255 0 0
-0.322305 0.059992 0.011562 255 0 0
-0.339555 0.072380 0.087561 255 0 0
-0.349607 0.038405 0.078561 255 0 0
-0.331688 0.053523 -0.004439 255 0 0
-0.339577 0.072249 0.045561 255 0 0
-0.328163 0.073210 -0.014439 255 0 0
-0.335166 0.068353 0.067562 255 0 0
-0.336261 0.044990 -0.034438 255 0 0
-0.332008 0.051549 0.079562 255 0 0
-0.329007 0.042896 -0.016438 255 0 0
-0.323194 0.049994 0.001208 255 0 0
-0.332691 0.076750 0.025562 255 0 0
-0.337177 0.038244 -0.002438 255 0 0
-0.330407 0.041112 0.033562 255 0 0
-0.335981 0.069612 -0.032439 255 0 0
-0.322953 0.051983 -0.026438 255 0 0
-0.341632 0.043092 0.041561 255 0 0
-0.345714 0.037453 -0.020438 255 0 0
-0.355521 0.073972 0.088071 255 0 0
-0.359443 0.040215 0.081562 255 0 0
-0.322376 0.054632 0.029562 255 0 0
-0.353031 0.076579 0.079562 255 0 0
-0.343356 0.073858 0.036520 255 0 0
-0.333992 0.076268 0.059561 255 0 0
-0.331050 0.041225 0.015562 255 0 0
-0.322629 0.053956 0.047562 255 0 0
-0.323194 0.049994 -0.036690 255 0 0
-0.333078 0.039552 0.081562 255 0 0
-0.347638 0.038058 -0.036391 255 0 0
-0.338443 0.078681 -0.018439 255 0 0
-0.340572 0.055090 0.080675 255 0 0
-0.332754 0.064881 -0.000439 255 0 0
-0.367220 0.053695 0.085093 255 0 0
-0.343571 0.038082 -0.008438 255 0 0
-0.328967 0.073352 0.017561 255 0 0
-0.353358 0.074722 0.047562 255 0 0
-0.331000 0.057463 0.039562 255 0 0
-0.332727 0.076547 -0.000439 255 0 0
-0.346315 0.074380 -0.010439 255 0 0
-0.334202 0.068182 -0.019448 255 0 0
-0.354174 0.041241 0.001562 255 0 0
-0.322948 0.062906 0.019562 255 0 0
-0.336590 0.077678 0.081562 255 0 0
-0.322970 0.062782 0.069561 255 0 0
-0.332794 0.039502 0.051562 255 0 0
-0.330291 0.061401 0.051562 255 0 0
-0.324204 0.067296 -0.026438 255 0 0
-0.334688 0.047959 0.041561 255 0 0
-0.360773 0.067220 0.087561 255 0 0
-0.350778 0.077833 -0.000439 255 0 0
-0.342536 0.078507 0.015562 255 0 0
-0.335164 0.068352 0.051562 255 0 0
-0.330958 0.063549 0.087785 255 0 0
-0.334676 0.077015 0.011562 255 0 0
-0.324678 0.048225 -0.010439 255 0 0
-0.332580 0.065865 0.034568 255 0 0
-0.323242 0.064219 -0.008438 255 0 0
-0.352097 0.057122 0.087561 255 0 0
-0.337605 0.071923 -0.040438 255 0 0
-0.339493 0.038177 0.059561 255 0 0
-0.323005 0.051992 0.085562 255 0 0
-0.337959 0.069913 -0.004439 255 0 0
-0.338203 0.045497 0.029562 255 0 0
-0.330256 0.061394 -0.036438 255 0 0
-0.357371 0.051959 0.080581 255 0 0
-0.330615 0.059426 -0.018439 255 0 0
-0.330086 0.041055 -0.038438 255 0 0
-0.333544 0.066035 0.023561 255 0 0
-0.331803 0.041358 0.071562 255 0 0
-0.323449 0.066286 0.057562 255 0 0
-0.345492 0.073258 -0.024439 255 0 0
-0.331341 0.041277 -0.024439 255 0 0
-0.333220 0.050716 -0.012438 255 0 0
-0.334683 0.047958 0.009561 255 0 0
-0.332019 0.051550 0.025562 255 0 0
-0.343698 0.037363 0.009692 255 0 0
-0.354158 0.075762 0.039562 255 0 0
-0.327479 0.071059 0.043562 255 0 0
-0.328522 0.042810 0.002710 255 0 0
-0.334733 0.076690 0.051562 255 0 0
-0.351810 0.048948 0.087516 255 0 0
-0.325865 0.046361 0.065562 255 0 0
-0.347757 0.060418 0.080607 255 0 0
-0.331979 0.051544 0.071562 255 0 0
-0.330636 0.059429 0.079562 255 0 0
-0.342707 0.037188 0.021562 255 0 0
-0.345491 0.073263 0.027561 255 0 0
-0.325858 0.046402 0.018341 255 0 0
-0.342365 0.073684 -0.034438 255 0 0
-0.332711 0.076642 -0.008438 255 0 0
-0.342543 0.055437 0.088389 255 0 0
-0.331491 0.065673 0.007562 255 0 0
-0.329304 0.072927 0.079562 255 0 0
-0.347739 0.076662 0.063561 255 0 0
-0.322629 0.060049 -0.024439 255 0 0
-0.345954 0.041822 0.031561 255 0 0
-0.330208 0.056280 -0.026438 255 0 0
-0.344803 0.042618 -0.014439 255 0 0
-0.354139 0.041235 -0.020438 255 0 0
-0.323076 0.062180 0.029562 255 0 0
-0.333576 0.048698 -0.028439 255 0 0
-0.348481 0.070699 0.087561 255 0 0
-0.326043 0.046435 -0.022438 255 0 0
-0.352505 0.045008 0.080584 255 0 0
-0.342857 0.042134 -0.032439 255 0 0
-0.340520 0.043871 0.007562 255 0 0
-0.331359 0.055496 0.013561 255 0 0
-0.336401 0.044200 0.087119 255 0 0
-0.338569 0.077972 0.031561 255 0 0
-0.326830 0.044543 0.045561 255 0 0
-0.340546 0.078274 0.073561 255 0 0
-0.335889 0.047097 0.059561 255 0 0
-0.324100 0.050154 0.059561 255 0 0
-0.322271 0.053894 0.007562 255 0 0
-0.333238 0.039098 -0.010439 255 0 0
-0.357952 0.060184 0.080617 255 0 0
-0.340388 0.079176 0.047562 255 0 0
-0.346397 0.074394 0.049562 255 0 0
-0.343524 0.072906 -0.000439 255 0 0
-0.338204 0.045483 -0.016438 255 0 0
-0.341552 0.072569 0.011562 255 0 0
-0.342775 0.065632 0.080577 255 0 0
-0.332301 0.049569 0.053562 255 0 0
-0.344194 0.039481 0.073561 255 0 0
-0.337595 0.071980 -0.024439 255 0 0
-0.345939 0.041820 0.053562 255 0 0
-0.336796 0.070670 0.075562 255 0 0
-0.324350 0.066473 0.085562 255 0 0
-0.341548 0.072594 0.069561 255 0 0
-0.351229 0.040722 -0.005502 255 0 0
-0.340541 0.078302 -0.010439 255 0 0
-0.339419 0.038596 0.049562 255 0 0
-0.347447 0.073693 -0.040438 255 0 0
-0.335988 0.069572 0.039562 255 0 0
-0.325811 0.046664 0.081562 255 0 0
-0.335976 0.069640 0.059561 255 0 0
-0.331055 0.074515 0.065562 255 0 0
-0.337761 0.036481 0.077561 255 0 0
-0.337780 0.062721 0.087561 255 0 0
-0.338198 0.045521 0.021562 255 0 0
-0.341729 0.037016 0.002456 255 0 0
-0.343513 0.038411 0.081562 255 0 0
-0.341540 0.072637 -0.018439 255 0 0
-0.348622 0.038231 0.017561 255 0 0
-0.346518 0.078959 0.077561 255 0 0
-0.326206 0.070834 -0.020438 255 0 0
-0.338506 0.078329 0.003561 255 0 0
-0.348768 0.077718 0.023561 255 0 0
-0.341616 0.043088 0.063561 255 0 0
-0.324967 0.068585 0.001562 255 0 0
-0.346523 0.078930 0.031561 255 0 0
-0.337480 0.038076 0.017561 255 0 0
-0.336965 0.046330 0.047562 255 0 0
-0.349058 0.038308 0.005562 255 0 0
-0.328521 0.059057 -0.000439 255 0 0
-0.342188 0.080478 -0.034438 255 0 0
-0.345739 0.037307 -0.028439 255 0 0
-0.326769 0.070933 0.073561 255 0 0
-0.335255 0.039178 0.065562 255 0 0
-0.352971 0.065400 0.087665 255 0 0
-0.343142 0.075069 0.021562 255 0 0
-0.329786 0.073497 0.005562 255 0 0
-0.330987 0.074904 0.031561 255 0 0
-0.330985 0.057461 0.057562 255 0 0
-0.339578 0.037692 -0.024439 255 0 0
-0.330958 0.063549 0.066532 255 0 0
-0.346079 0.039813 0.087561 255 0 0
-0.337442 0.038291 -0.036456 255 0 0
-0.328561 0.042584 0.039562 255 0 0
-0.328060 0.056945 0.087471 255 0 0
-0.342841 0.042225 0.025562 255 0 0
-0.323620 0.056162 -0.038438 255 0 0
-0.329147 0.073820 -0.030438 255 0 0
-0.349960 0.070961 0.080628 255 0 0
-0.357838 0.072350 0.080640 255 0 0
-0.366955 0.067865 0.085562 255 0 0
-0.332580 0.065865 0.074542 255 0 0
-0.326281 0.050539 -0.042439 255 0 0
-0.334740 0.076651 0.087561 255 0 0
-0.343764 0.036991 0.041561 255 0 0
-0.364555 0.057287 0.080590 255 0 0
-0.333389 0.049761 0.087588 255 0 0
-0.338561 0.078013 0.041561 255 0 0
-0.322114 0.059958 0.063561 255 0 0
-0.322813 0.051958 0.053562 255 0 0
-0.340505 0.078506 0.009561 255 0 0
-0.334622 0.077319 -0.030438 255 0 0
-0.346248 0.045936 0.080584 255 0 0
-0.330952 0.057455 0.021562 255 0 0
-0.323226 0.052031 0.013561 255 0 0
-0.337561 0.060651 0.080608 255 0 0
-0.363628 0.051032 0.080616 255 0 0
-0.335985 0.069590 0.011562 255 0 0
-0.330201 0.056324 -0.010439 255 0 0
-0.340344 0.079420 0.053864 255 0 0
-0.346021 0.078390 0.057562 255 0 0
-0.338199 0.045511 -0.042439 255 0 0
-0.329684 0.043016 0.077561 255 0 0
-0.332573 0.076018 -0.018439 255 0 0
-0.352169 0.075412 -0.012438 255 0 0
-0.325288 0.068642 0.015562 255 0 0
-0.325964 0.045800 0.033562 255 0 0
-0.322499 0.053934 0.036081 255 0 0
-0.332009 0.051549 0.003561 255 0 0
-0.351351 0.074587 0.005562 255 0 0
-0.330644 0.059431 0.045561 255 0 0
-0.347638 0.038058 0.064467 255 0 0
-0.334675 0.077017 0.019562 255 0 0
-0.360849 0.066788 0.080584 255 0 0
-0.352659 0.079560 0.085562 255 0 0
-0.331000 0.057463 0.065562 255 0 0
-0.339352 0.044720 0.035562 255 0 0
-0.324522 0.062413 -0.038438 255 0 0
-0.341553 0.072568 0.061562 255 0 0
-0.333110 0.039824 -0.032439 255 0 0
-0.330660 0.042199 0.009561 255 0 0
-0.338637 0.077582 -0.038438 255 0 0
-0.333039 0.067977 -0.012438 255 0 0
-0.351234 0.075247 -0.023417 255 0 0
-0.334375 0.067203 -0.038438 255 0 0
-0.329025 0.042899 0.023561 255 0 0
-0.332255 0.075962 0.045561 255 0 0
-0.342214 0.080335 0.081562 255 0 0
-0.322888 0.062125 0.081562 255 0 0
-0.327480 0.071755 0.059561 255 0 0
-0.440842 0.442386 -0.020975 0 255 0
-0.380186 0.579072 -0.006438 0 255 0
-0.504726 0.552305 -0.010439 0 255 0
-0.374539 0.495918 -0.026438 0 255 0
-0.435063 0.532754 -0.011217 0 255 0
-0.502320 0.479627 -0.024439 0 255 0
-0.372718 0.426311 -0.024439 0 255 0
-0.496942 0.423685 -0.022438 0 255 0
-0.457157 0.580212 -0.002438 0 255 0
-0.453903 0.489367 -0.024439 0 255 0
-0.412578 0.475987 -0.017458 0 255 0
-0.393319 0.533518 -0.018439 0 255 0
-0.484356 0.518103 -0.022438 0 255 0
-0.410222 0.420245 -0.034438 0 255 0
-0.418831 0.572540 -0.006438 0 255 0
-0.475254 0.454545 -0.016617 0 255 0
-0.376677 0.460762 -0.034438 0 255 0
-0.469127 0.546884 -0.007169 0 255 0
-0.414900 0.508890 -0.021415 0 255 0
-0.489710 0.579878 -0.004439 0 255 0
-0.399469 0.447275 -0.018439 0 255 0
-0.456089 0.517161 -0.022438 0 255 0
-0.501151 0.450988 -0.024439 0 255 0
-0.479197 0.489766 -0.014924 0 255 0
-0.442879 0.557531 -0.004439 0 255 0
-0.438863 0.468438 -0.016438 0 255 0
-0.412240 0.547009 -0.007316 0 255 0
-0.386236 0.475654 -0.016438 0 255 0
-0.390459 0.509295 -0.014439 0 255 0
-0.437415 0.504737 -0.014439 0 255 0
-0.503219 0.503262 -0.022438 0 255 0
-0.421313 0.455189 -0.024439 0 255 0
-0.503466 0.530600 -0.018439 0 255 0
-0.430224 0.421982 -0.022438 0 255 0
-0.378639 0.518744 -0.031313 0 255 0
-0.462095 0.437034 -0.024439 0 255 0
-0.389647 0.427265 -0.038438 0 255 0
-0.437866 0.579958 -0.014439 0 255 0
-0.459035 0.465902 -0.025333 0 255 0
-0.415201 0.530219 -0.020438 0 255 0
-0.431063 0.486331 -0.024439 0 255 0
-0.398830 0.571044 -0.000439 0 255 0
-0.399604 0.491978 -0.021276 0 255 0
-0.473879 0.566000 -0.000677 0 255 0
-0.378359 0.445584 -0.020438 0 255 0
-0.488589 0.540162 -0.008102 0 255 0
-0.413963 0.433584 -0.019063 0 255 0
-0.454599 0.537136 -0.016438 0 255 0
-0.484640 0.470416 -0.023359 0 255 0
-0.392297 0.429764 -0.019880 0 255 0
-0.466571 0.503786 -0.014102 0 255 0
-0.488708 0.562522 -0.011437 0 255 0
-0.472252 0.529158 -0.011889 0 255 0
-0.505568 0.570564 -0.006438 0 255 0
-0.429967 0.550134 -0.015428 0 255 0
-0.399347 0.465531 -0.024439 0 255 0
-0.377554 0.478825 -0.032439 0 255 0
-0.429267 0.519548 -0.023436 0 255 0
-0.376425 0.439151 -0.037426 0 255 0
-0.485381 0.443183 -0.026438 0 255 0
-0.415700 0.492839 -0.014439 0 255 0
-0.458657 0.560193 -0.010439 0 255 0
-0.434025 0.573189 0.001337 0 255 0
-0.455558 0.451072 -0.017487 0 255 0
-0.466488 0.479401 -0.018439 0 255 0
-0.374031 0.509807 -0.016438 0 255 0
-0.447380 0.428350 -0.026438 0 255 0
-0.402788 0.519996 -0.022438 0 255 0
-0.488932 0.503667 -0.015586 0 255 0
-0.395075 0.580537 -0.012438 0 255 0
-0.425894 0.423503 -0.037430 0 255 0
-0.382801 0.460583 -0.019933 0 255 0
-0.381883 0.523378 -0.016006 0 255 0
-0.427422 0.559839 -0.002438 0 255 0
-0.442703 0.489423 -0.014552 0 255 0
-0.444330 0.526265 -0.021410 0 255 0
-0.427403 0.437985 -0.025428 0 255 0
-0.493182 0.491082 -0.022438 0 255 0
-0.499817 0.464969 -0.019844 0 255 0
-0.385469 0.491516 -0.017136 0 255 0
-0.425595 0.471272 -0.022438 0 255 0
-0.451661 0.501157 -0.014439 0 255 0
-0.471448 0.579787 -0.005428 0 255 0
-0.499013 0.515599 -0.016154 0 255 0
-0.443883 0.546495 -0.014439 0 255 0
-0.436442 0.455825 -0.023355 0 255 0
-0.426485 0.500779 -0.023427 0 255 0
-0.451043 0.476678 -0.018779 0 255 0
-0.470532 0.515881 -0.020438 0 255 0
-0.446537 0.571333 -0.007383 0 255 0
-0.390213 0.441581 -0.027335 0 255 0
-0.488916 0.526791 -0.012438 0 255 0
-0.373608 0.471148 -0.020438 0 255 0
-0.403128 0.431673 -0.028439 0 255 0
-0.411879 0.445401 -0.027434 0 255 0
-0.476767 0.503553 -0.023430 0 255 0
-0.403467 0.504625 -0.014439 0 255 0
-0.487072 0.456629 -0.023400 0 255 0
-0.481573 0.553141 -0.004439 0 255 0
-0.416393 0.419797 -0.022234 0 255 0
-0.405404 0.539710 -0.017332 0 255 0
-0.409790 0.459250 -0.018439 0 255 0
-0.422202 0.536580 -0.010036 0 255 0
-0.493922 0.567503 -0.000185 0 255 0
-0.416065 0.559868 -0.009170 0 255 0
-0.397929 0.478445 -0.022438 0 255 0
-0.471637 0.445784 -0.026438 0 255 0
-0.476252 0.541027 -0.016438 0 255 0
-0.374544 0.484378 -0.020438 0 255 0
-0.473828 0.468510 -0.016438 0 255 0
-0.412811 0.486184 -0.025432 0 255 0
-0.454992 0.546423 -0.007432 0 255 0
-0.407480 0.578662 -0.006438 0 255 0
-0.477599 0.481361 -0.024439 0 255 0
-0.461324 0.568099 -0.000439 0 255 0
-0.458812 0.524757 -0.012657 0 255 0
-0.380722 0.506926 -0.027466 0 255 0
-0.468655 0.491968 -0.021408 0 255 0
-0.395813 0.421342 -0.028439 0 255 0
-0.444445 0.514101 -0.018883 0 255 0
-0.447730 0.460912 -0.024439 0 255 0
-0.391026 0.453910 -0.026438 0 255 0
-0.498438 0.541898 -0.015400 0 255 0
-0.420893 0.520973 -0.014439 0 255 0
-0.435067 0.567280 -0.009399 0 255 0
-0.401579 0.526850 -0.012228 0 255 0
-0.383048 0.574354 -0.017412 0 255 0
-0.424988 0.509267 -0.014439 0 255 0
-0.452660 0.444469 -0.027344 0 255 0
-0.414314 0.466140 -0.027434 0 255 0
-0.491130 0.479684 -0.018625 0 255 0
-0.442672 0.581739 -0.002438 0 255 0
-0.471158 0.558399 -0.010439 0 255 0
-0.420105 0.444821 -0.018243 0 255 0
-0.372720 0.448651 -0.030739 0 255 0
-0.494384 0.553369 -0.004175 0 255 0
-0.377789 0.427206 -0.036438 0 255 0
-0.486277 0.576310 -0.015386 0 255 0
-0.391959 0.500784 -0.023336 0 255 0
-0.423354 0.483980 -0.015823 0 255 0
-0.386973 0.471473 -0.027434 0 255 0
-0.436670 0.431496 -0.019313 0 255 0
-0.443745 0.483514 -0.025371 0 255 0
-0.381406 0.433936 -0.021231 0 255 0
-0.452254 0.435258 -0.018439 0 255 0
-0.459040 0.500427 -0.023385 0 255 0
-0.390455 0.520828 -0.023395 0 255 0
-0.465059 0.454779 -0.023421 0 255 0
-0.386859 0.483638 -0.025410 0 255 0
-0.427184 0.531365 -0.019431 0 255 0
-0.401038 0.426261 -0.038438 0 255 0
-0.410727 0.498000 -0.023323 0 255 0
-0.434400 0.478924 -0.016438 0 255 0
-0.387500 0.572139 -0.000439 0 255 0
-0.445253 0.497995 -0.023237 0 255 0
-0.419955 0.428548 -0.028439 0 255 0
-0.466343 0.528116 -0.021434 0 255 0
-0.395314 0.458720 -0.016438 0 255 0
-0.488998 0.549359 -0.014439 0 255 0
-0.405182 0.421882 -0.022438 0 255 0
-0.372149 0.438396 -0.026438 0 255 0
-0.480478 0.528577 -0.019404 0 255 0
-0.480893 0.572292 -0.006438 0 255 0
-0.465236 0.540106 -0.016438 0 255 0
-0.385269 0.423550 -0.026438 0 255 0
-0.436253 0.549039 -0.006438 0 255 0
-0.420918 0.463243 -0.016639 0 255 0
-0.435401 0.520629 -0.014439 0 255 0
-0.372693 0.458801 -0.024439 0 255 0
-0.429044 0.578403 -0.008227 0 255 0
-0.423921 0.549068 -0.006438 0 255 0
-0.473865 0.462424 -0.025379 0 255 0
-0.463669 0.462657 -0.016127 0 255 0
-0.452213 0.562180 -0.001674 0 255 0
-0.379794 0.500670 -0.017444 0 255 0
-0.429258 0.450497 -0.017349 0 255 0
-0.498273 0.577385 -0.010439 0 255 0
-0.445605 0.530552 -0.011760 0 255 0
-0.491829 0.510271 -0.023380 0 255 0
-0.459155 0.488262 -0.015301 0 255 0
-0.453126 0.464860 -0.016338 0 255 0
-0.458574 0.480037 -0.025409 0 255 0
-0.477928 0.520005 -0.013985 0 255 0
-0.435586 0.495233 -0.020438 0 255 0
-0.410499 0.522331 -0.015131 0 255 0
-0.498903 0.562289 -0.009355 0 255 0
-0.415856 0.543584 -0.016438 0 255 0
-0.403826 0.470382 -0.016438 0 255 0
-0.480848 0.510365 -0.016438 0 255 0
-0.493684 0.522782 -0.021383 0 255 0
-0.489462 0.535212 -0.018439 0 255 0
-0.410732 0.532526 -0.011411 0 255 0
-0.501905 0.487677 -0.017973 0 255 0
-0.435643 0.540980 -0.017419 0 255 0
-0.403073 0.437756 -0.020127 0 255 0
-0.478960 0.445045 -0.018036 0 255 0
-0.404234 0.454207 -0.025419 0 255 0
-0.389171 0.447490 -0.018669 0 255 0
-0.434705 0.465673 -0.025384 0 255 0
-0.431922 0.446905 -0.027381 0 255 0
-0.445363 0.451305 -0.019027 0 255 0
-0.409562 0.447024 -0.017439 0 255 0
-0.484223 0.495820 -0.022438 0 255 0
-0.467455 0.567884 -0.008438 0 255 0
-0.459273 0.510623 -0.015204 0 255 0
-0.477461 0.499613 -0.013923 0 255 0
-0.449494 0.554568 -0.012438 0 255 0
-0.433153 0.509026 -0.022438 0 255 0
-0.393577 0.468575 -0.015813 0 255 0
-0.432903 0.429830 -0.028439 0 255 0
-0.482091 0.461844 -0.016162 0 255 0
-0.459963 0.472157 -0.016182 0 255 0
-0.454179 0.528001 -0.021432 0 255 0
-0.392768 0.484680 -0.016581 0 255 0
-0.496542 0.533441 -0.010439 0 255 0
-0.483937 0.563712 -0.002438 0 255 0
-0.425722 0.493586 -0.016438 0 255 0
-0.413972 0.502635 -0.013785 0 255 0
-0.399046 0.536558 -0.010439 0 255 0
-0.417103 0.519433 -0.023434 0 255 0
-0.452446 0.572375 0.001280 0 255 0
-0.405171 0.529515 -0.021414 0 255 0
-0.408927 0.485177 -0.016438 0 255 0
-0.382365 0.515339 -0.022438 0 255 0
-0.478627 0.550591 -0.013381 0 255 0
-0.492747 0.447476 -0.020979 0 255 0
-0.413288 0.575624 0.000901 0 255 0
-0.495575 0.472345 -0.024439 0 255 0
-0.461893 0.553350 -0.004439 0 255 0
-0.374772 0.469322 -0.030438 0 255 0
-0.379049 0.527930 -0.028439 0 255 0
-0.481281 0.477948 -0.016257 0 255 0
-0.378780 0.488306 -0.030438 0 255 0
-0.426475 0.431728 -0.018237 0 255 0
-0.391754 0.524982 -0.014439 0 255 0
-0.441323 0.566352 -0.001117 0 255 0
-0.462523 0.549781 -0.013433 0 255 0
-0.380064 0.453066 -0.026438 0 255 0
-0.434938 0.475869 -0.025436 0 255 0
-0.462834 0.444358 -0.018439 0 255 0
-0.420110 0.479347 -0.023427 0 255 0
-0.431113 0.463010 -0.016980 0 255 0
-0.474098 0.472619 -0.025356 0 255 0
-0.398101 0.512022 -0.019273 0 255 0
-0.424909 0.575643 0.001562 0 255 0
-0.434834 0.557084 -0.011304 0 255 0
-0.481198 0.534798 -0.010439 0 255 0
-0.493566 0.500422 -0.023309 0 255 0
-0.431585 0.540959 -0.008438 0 255 0
-0.448155 0.539125 -0.009138 0 255 0
-0.449311 0.521051 -0.015063 0 255 0
-0.389804 0.432383 -0.028439 0 255 0
-0.425914 0.561604 -0.011398 0 255 0
-0.381470 0.496904 -0.032439 0 255 0
-0.497136 0.576194 -0.000439 0 255 0
-0.451934 0.506177 -0.022438 0 255 0
-0.462508 0.446206 -0.027427 0 255 0
-0.443512 0.473318 -0.023390 0 255 0
-0.502258 0.520233 -0.023403 0 255 0
-0.499794 0.545721 -0.006438 0 255 0
-0.390061 0.500037 -0.014439 0 255 0
-0.461362 0.533330 -0.011331 0 255 0
-0.443559 0.536284 -0.018439 0 255 0
-0.467427 0.521970 -0.014439 0 255 0
-0.466695 0.560671 -0.001827 0 255 0
-0.390222 0.510632 -0.023408 0 255 0
-0.390225 0.579726 -0.004439 0 255 0
-0.408239 0.569702 -0.006438 0 255 0
-0.407949 0.513758 -0.015799 0 255 0
-0.468550 0.573184 0.000969 0 255 0
-0.397397 0.446910 -0.027402 0 255 0
-0.435757 0.528816 -0.019391 0 255 0
-0.389409 0.492211 -0.025429 0 255 0
-0.455110 0.568784 -0.007365 0 255 0
-0.402155 0.500551 -0.023309 0 255 0
-0.432855 0.487687 -0.015803 0 255 0
-0.388531 0.462635 -0.026438 0 255 0
-0.424857 0.463937 -0.027434 0 255 0
-0.419425 0.552336 -0.013385 0 255 0
-0.375691 0.522286 -0.022438 0 255 0
-0.500801 0.430618 -0.026438 0 255 0
-0.454863 0.455012 -0.025410 0 255 0
-0.392638 0.439346 -0.018439 0 255 0
-0.443740 0.448988 -0.027385 0 255 0
-0.379261 0.434587 -0.030438 0 255 0
-0.411646 0.435206 -0.027400 0 255 0
-0.393591 0.572152 -0.007331 0 255 0
-0.495298 0.456048 -0.020409 0 255 0
-0.487594 0.488217 -0.016438 0 255 0
-0.452732 0.576487 -0.010439 0 255 0
-0.478513 0.562755 -0.009347 0 255 0
-0.422400 0.420286 -0.028439 0 255 0
-0.477699 0.544334 -0.007545 0 255 0
-0.420318 0.564679 -0.002438 0 255 0
-0.489289 0.570748 -0.007392 0 255 0
-0.497624 0.523477 -0.013029 0 255 0
-0.418953 0.497420 -0.021011 0 255 0
-0.377140 0.573313 -0.000884 0 255 0
-0.405568 0.541770 -0.008438 0 255 0
-0.461704 0.496835 -0.015198 0 255 0
-0.491243 0.467519 -0.018771 0 255 0
-0.449654 0.484556 -0.015575 0 255 0
-0.447793 0.437518 -0.025357 0 255 0
-0.411045 0.553788 -0.012438 0 255 0
-0.433232 0.439473 -0.018439 0 255 0
-0.490440 0.518149 -0.014995 0 255 0
-0.486972 0.572370 0.000708 0 255 0
-0.470759 0.537626 -0.010439 0 255 0
-0.474331 0.482815 -0.015786 0 255 0
-0.496673 0.507063 -0.016438 0 255 0
-0.461942 0.541556 -0.007825 0 255 0
-0.371370 0.432166 -0.032439 0 255 0
-0.413081 0.455768 -0.026438 0 255 0
-0.450691 0.444122 -0.019094 0 255 0
-0.425100 0.543183 -0.015316 0 255 0
-0.466566 0.469260 -0.023389 0 255 0
-0.496352 0.496134 -0.016438 0 255 0
-0.406669 0.474946 -0.023414 0 255 0
-0.411066 0.426980 -0.029405 0 255 0
-0.496532 0.552702 -0.012438 0 255 0
-0.380176 0.475467 -0.024439 0 255 0
-0.439800 0.425262 -0.024439 0 255 0
-0.450175 0.493116 -0.016438 0 255 0
-0.450076 0.562784 -0.010439 0 255 0
-0.429745 0.501354 -0.014439 0 255 0
-0.407472 0.493424 -0.016438 0 255 0
-0.398563 0.497887 -0.015146 0 255 0
-0.453602 0.554301 -0.004795 0 255 0
-0.444764 0.548682 -0.006438 0 255 0
-0.501600 0.558514 -0.002438 0 255 0
-0.441894 0.505527 -0.021408 0 255 0
-0.374927 0.493719 -0.018422 0 255 0
-0.416746 0.452353 -0.017150 0 255 0
-0.502833 0.493933 -0.023365 0 255 0
-0.374641 0.511946 -0.024439 0 255 0
-0.419466 0.471479 -0.016438 0 255 0
-0.479887 0.451301 -0.023390 0 255 0
-0.402498 0.429497 -0.020438 0 255 0
-0.436656 0.575684 -0.006438 0 255 0
-0.470387 0.447595 -0.017514 0 255 0
-0.382485 0.482867 -0.018439 0 255 0
-0.478746 0.572950 0.001517 0 255 0
-0.439929 0.539706 -0.009417 0 255 0
-0.382344 0.509243 -0.015920 0 255 0
-0.469235 0.500194 -0.023416 0 255 0
-0.463917 0.576429 -0.005439 0 255 0
-0.381987 0.442161 -0.027385 0 255 0
-0.411998 0.467762 -0.017438 0 255 0
-0.501677 0.512007 -0.023408 0 255 0
-0.419177 0.438565 -0.025428 0 255 0
-0.471384 0.534081 -0.018439 0 255 0
-0.424044 0.445516 -0.025428 0 255 0
-0.428226 0.525457 -0.013812 0 255 0
-0.474625 0.558008 -0.002438 0 255 0
-0.453022 0.546076 -0.015370 0 255 0
-0.426495 0.569830 -0.007381 0 255 0
-0.441273 0.497531 -0.014439 0 255 0
-0.379949 0.447895 -0.034438 0 255 0
-0.485221 0.478642 -0.025389 0 255 0
-0.474269 0.523420 -0.020438 0 255 0
-0.484303 0.541437 -0.015370 0 255 0
-0.476534 0.493357 -0.023400 0 255 0
-0.494722 0.482349 -0.025416 0 255 0
-0.397468 0.527132 -0.022438 0 255 0
-0.423027 0.514385 -0.020438 0 255 0
-0.394570 0.485980 -0.024439 0 255 0
-0.442469 0.479227 -0.017062 0 255 0
-0.384259 0.498381 -0.024439 0 255 0
-0.387940 0.455397 -0.016438 0 255 0
-0.503947 0.536778 -0.012438 0 255 0
-0.437484 0.449916 -0.017875 0 255 0
-0.400647 0.486069 -0.015431 0 255 0
-0.374241 0.503752 -0.022438 0 255 0
-0.450462 0.468452 -0.025320 0 255 0
-0.436789 0.516812 -0.022438 0 255 0
-0.418016 0.422114 -0.035258 0 255 0
-0.395455 0.428290 -0.032439 0 255 0
-0.458574 0.480037 -0.015684 0 255 0
-0.441656 0.460806 -0.019210 0 255 0
-0.404933 0.484794 -0.023376 0 255 0
-0.381411 0.468461 -0.019472 0 255 0
-0.420343 0.489542 -0.021294 0 255 0
-0.444549 0.432884 -0.019381 0 255 0
-0.441904 0.574578 0.001042 0 255 0
-0.462454 0.486813 -0.022438 0 255 0
-0.500859 0.459060 -0.025288 0 255 0
-0.379147 0.464001 -0.026438 0 255 0
-0.397164 0.436714 -0.025356 0 255 0
-0.393120 0.517236 -0.015557 0 255 0
-0.387160 0.581172 -0.012438 0 255 0
-0.433445 0.564963 -0.001938 0 255 0
-0.415828 0.515147 -0.016212 0 255 0
-0.372624 0.450665 -0.022438 0 255 0
-0.420233 0.536232 -0.019437 0 255 0
-0.469984 0.507468 -0.020438 0 255 0
-0.493908 0.463928 -0.025248 0 255 0
-0.417076 0.527552 -0.012438 0 255 0
-0.487201 0.548035 -0.006438 0 255 0
-0.497515 0.570168 -0.007425 0 255 0
-0.401470 0.573541 -0.007385 0 255 0
-0.419047 0.427787 -0.020438 0 255 0
-0.385128 0.528011 -0.021414 0 255 0
-0.434834 0.557084 -0.003496 0 255 0
-0.449434 0.577936 -0.003280 0 255 0
-0.451797 0.513367 -0.016438 0 255 0
-0.407244 0.464893 -0.024439 0 255 0
-0.445486 0.508192 -0.013976 0 255 0
-0.431608 0.471725 -0.016438 0 255 0
-0.413629 0.539129 -0.008654 0 255 0
-0.463793 0.519543 -0.021300 0 255 0
-0.439915 0.436129 -0.025367 0 255 0
-0.470401 0.551171 -0.013376 0 255 0
-0.411066 0.426980 -0.021565 0 255 0
-0.402791 0.577563 -0.000439 0 255 0
-0.404978 0.444185 -0.024439 0 255 0
-0.491175 0.560055 -0.002438 0 255 0
-0.429582 0.454616 -0.026438 0 255 0
-0.420699 0.556623 -0.003987 0 255 0
-0.483480 0.453965 -0.017254 0 255 0
-0.422198 0.502055 -0.014715 0 255 0
-0.470223 0.483078 -0.024439 0 255 0
-0.445335 0.578155 -0.010439 0 255 0
-0.402829 0.462171 -0.018439 0 255 0
-0.501801 0.568892 -0.000125 0 255 0
-0.393229 0.470545 -0.023345 0 255 0
-0.404705 0.509124 -0.021435 0 255 0
-0.453337 0.532770 -0.010439 0 255 0
-0.453680 0.432464 -0.026438 0 255 0
-0.384265 0.429242 -0.032439 0 255 0
-0.422317 0.524414 -0.021327 0 255 0
-0.441438 0.554187 -0.013357 0 255 0
-0.429962 0.515608 -0.015611 0 255 0
-0.381878 0.488852 -0.023381 0 255 0
-0.483841 0.555572 -0.011384 0 255 0
-0.408302 0.546314 -0.015356 0 255 0
-0.446176 0.469727 -0.017281 0 255 0
-0.425899 0.458028 -0.018933 0 255 0
-0.481743 0.463813 -0.025311 0 255 0
-0.403977 0.421110 -0.030438 0 255 0
-0.415242 0.472396 -0.023426 0 255 0
-0.458107 0.459646 -0.020065 0 255 0
-0.428336 0.478766 -0.020763 0 255 0
-0.470105 0.459730 -0.018439 0 255 0
-0.391491 0.422815 -0.022438 0 255 0
-0.499444 0.444048 -0.022438 0 255 0
-0.480825 0.526608 -0.012263 0 255 0
-0.404005 0.478538 -0.017514 0 255 0
-0.397630 0.457106 -0.023279 0 255 0
-0.411066 0.426980 -0.037377 0 255 0
-0.412007 0.536812 -0.019433 0 255 0
-0.473463 0.453182 -0.026438 0 255 0
-0.379229 0.572980 -0.010439 0 255 0
-0.462223 0.493892 -0.024439 0 255 0
-0.481854 0.578359 -0.002438 0 255 0
-0.442708 0.523948 -0.013816 0 255 0
-0.455677 0.473433 -0.023419 0 255 0
-0.481032 0.469781 -0.016438 0 255 0
-0.448655 0.518905 -0.022438 0 255 0
-0.469930 0.496255 -0.015644 0 255 0
-0.438764 0.488728 -0.021335 0 255 0
-0.384368 0.440550 -0.020438 0 255 0
-0.377016 0.516427 -0.017026 0 255 0
-0.467622 0.486312 -0.016438 0 255 0
-0.393349 0.492906 -0.016056 0 255 0
-0.450568 0.456332 -0.018439 0 255 0
-0.483653 0.504767 -0.020438 0 255 0
-0.436750 0.512743 -0.016438 0 255 0
-0.389685 0.423210 -0.032439 0 255 0
-0.379201 0.423410 -0.030438 0 255 0
-0.486034 0.497064 -0.014960 0 255 0
-0.499703 0.477135 -0.018180 0 255 0
-0.377586 0.455602 -0.019530 0 255 0
-0.452621 0.497264 -0.022438 0 255 0
-0.418844 0.544110 -0.008406 0 255 0
-0.373659 0.477877 -0.026438 0 255 0
-0.440049 0.562065 -0.009309 0 255 0
