ply
format ascii 1.0
element vertex 1257
property float x
property float y
property float z
property uchar red
property uchar green
property uchar blue
end_header
-0.171828 0.113281 0.102409 255 255 0
-0.186620 0.344530 0.084409 255 255 0
-0.188856 0.374914 0.118409 255 255 0
-0.182971 0.284048 0.086409 255 255 0
-0.166332 0.248704 0.162409 255 255 0
-0.165333 0.148944 0.270409 255 255 0
-0.166697 0.158897 0.316409 255 255 0
-0.154883 0.297644 0.175625 255 255 0
-0.151993 0.398180 0.175701 255 255 0
-0.128782 0.250582 0.175473 255 255 0
-0.124451 0.115723 0.152409 255 255 0
-0.154480 0.274237 0.175949 255 255 0
-0.120028 0.209493 0.160409 255 255 0
-0.136720 0.371769 0.160409 255 255 0
-0.158441 0.146017 0.162409 255 255 0
-0.176405 0.121028 0.098409 255 255 0
-0.117173 0.155294 0.042409 255 255 0
-0.129842 0.143070 0.175229 255 255 0
-0.175396 0.115206 0.142409 255 255 0
-0.184020 0.286524 0.102409 255 255 0
-0.175664 0.114427 0.149039 255 255 0
-0.189590 0.393427 0.120409 255 255 0
-0.132634 0.404206 0.102409 255 255 0
-0.165587 0.337288 0.166409 255 255 0
-0.121163 0.125275 0.175632 255 255 0
-0.179341 0.318757 0.157484 255 255 0
-0.122573 0.178641 0.134409 255 255 0
-0.185849 0.323112 0.116409 255 255 0
-0.178011 0.261187 0.157620 255 255 0
-0.124169 0.223611 0.108409 255 255 0
-0.174327 0.185885 0.162286 255 255 0
-0.175401 0.241251 0.086409 255 255 0
-0.141146 0.343679 0.171504 255 255 0
-0.180712 0.300192 0.108409 255 255 0
-0.177554 0.277952 0.140409 255 255 0
-0.149175 0.363366 0.171528 255 255 0
-0.155498 0.363428 0.175433 255 255 0
-0.141150 0.122518 0.114409 255 255 0
-0.170701 0.138101 0.134409 255 255 0
-0.176230 0.226730 0.154409 255 255 0
-0.124052 0.123024 0.020409 255 255 0
-0.158852 0.279973 0.171540 255 255 0
-0.164083 0.146399 0.194409 255 255 0
-0.176397 0.296591 0.161812 255 255 0
-0.170939 0.337016 0.175492 255 255 0
-0.139228 0.281677 0.171493 255 255 0
-0.185251 0.396940 0.080409 255 255 0
-0.143025 0.123213 0.094409 255 255 0
-0.129190 0.372260 0.090409 255 255 0
-0.120008 0.192564 0.148409 255 255 0
-0.139250 0.121891 0.040409 255 255 0
-0.160758 0.120859 0.064409 255 255 0
-0.171860 0.153307 0.114409 255 255 0
-0.200380 0.146206 0.020409 255 255 0
-0.168972 0.121574 0.048409 255 255 0
-0.172275 0.176718 0.082409 255 255 0
-0.143016 0.123242 0.082409 255 255 0
-0.146827 0.216606 0.169426 255 255 0
-0.183498 0.282113 0.160525 255 255 0
-0.180109 0.206913 0.090409 255 255 0
-0.184613 0.297304 0.138573 255 255 0
-0.124147 0.191875 0.170409 255 255 0
-0.129514 0.269871 0.152409 255 255 0
-0.077869 0.410731 0.049797 255 255 0
-0.131441 0.365720 0.108511 255 255 0
-0.218035 0.141709 0.052409 255 255 0
-0.167932 0.158300 0.350409 255 255 0
-0.177253 0.157280 0.080409 255 255 0
-0.173574 0.145070 0.176409 255 255 0
-0.181866 0.351355 0.156409 255 255 0
-0.121898 0.144565 0.080409 255 255 0
-0.128516 0.122348 0.070409 255 255 0
-0.154882 0.137925 0.170409 255 255 0
-0.147445 0.122662 0.006409 255 255 0
-0.162980 0.181979 0.161864 255 255 0
-0.170794 0.159286 0.260490 255 255 0
-0.182723 0.343189 0.128409 255 255 0
-0.185256 0.312332 0.120409 255 255 0
-0.120387 0.139814 0.139408 255 255 0
-0.166703 0.158882 0.304409 255 255 0
-0.130720 0.403546 0.172409 255 255 0
-0.128018 0.286278 0.140409 255 255 0
-0.121578 0.171953 -0.001591 255 255 0
-0.134668 0.415483 0.132409 255 255 0
-0.121684 0.166763 0.146409 255 255 0
-0.166953 0.147387 0.308409 255 255 0
-0.182008 0.338712 0.106409 255 255 0
-0.117189 0.118386 0.016409 255 255 0
-0.121205 0.176054 0.110409 255 255 0
-0.116225 0.139615 0.042409 255 255 0
-0.183117 0.277075 0.124409 255 255 0
-0.181139 0.317260 0.096409 255 255 0
-0.116984 0.153448 0.092409 255 255 0
-0.173169 0.168564 0.142409 255 255 0
-0.125578 0.268516 0.158409 255 255 0
-0.182926 0.258649 0.152409 255 255 0
-0.120709 0.135694 0.026409 255 255 0
-0.122175 0.197541 0.114409 255 255 0
-0.178602 0.185753 0.150409 255 255 0
-0.148705 0.278594 0.176409 255 255 0
-0.182813 0.256495 0.120409 255 255 0
-0.127189 0.245803 0.150409 255 255 0
-0.183993 0.394392 0.126409 255 255 0
-0.143356 0.183682 0.176916 255 255 0
-0.171881 0.113125 0.021475 255 255 0
-0.158823 0.108050 0.156409 255 255 0
-0.183556 0.273673 0.142409 255 255 0
-0.122216 0.146789 0.015451 255 255 0
-0.172639 0.341832 0.162409 255 255 0
-0.155686 0.344456 0.169413 255 255 0
-0.129433 0.248690 0.099392 255 255 0
-0.119271 0.190195 0.054409 255 255 0
-0.133273 0.335829 0.098409 255 255 0
-0.177715 0.168014 0.098409 255 255 0
-0.190527 0.402987 0.150122 255 255 0
-0.171773 0.156442 0.130409 255 255 0
-0.173634 0.151036 0.358409 255 255 0
-0.123710 0.193839 0.016409 255 255 0
-0.121734 0.125471 0.066409 255 255 0
-0.134829 0.388040 0.084409 255 255 0
-0.182274 0.271116 0.074409 255 255 0
-0.162993 0.151224 0.162409 255 255 0
-0.135879 0.392632 0.100409 255 255 0
-0.127419 0.319916 0.152409 255 255 0
-0.223751 0.166945 0.086409 255 255 0
-0.123797 0.209772 0.142409 255 255 0
-0.183839 0.263194 0.126409 255 255 0
-0.133171 0.354555 0.156409 255 255 0
-0.144865 0.190547 0.176409 255 255 0
-0.116797 0.134347 0.098409 255 255 0
-0.132948 0.391622 0.172409 255 255 0
-0.182088 0.315472 0.074409 255 255 0
-0.222932 0.153970 0.088409 255 255 0
-0.121020 0.127341 0.104409 255 255 0
-0.151482 0.129368 0.175895 255 255 0
-0.142207 0.236167 0.169418 255 255 0
-0.123721 0.216136 0.140409 255 255 0
-0.124687 0.238596 0.136409 255 255 0
-0.116418 0.157484 0.053054 255 255 0
-0.130382 0.123072 0.082409 255 255 0
-0.190479 0.407202 0.162409 255 255 0
-0.174611 0.191202 0.124409 255 255 0
-0.132904 0.281615 0.175277 255 255 0
-0.131546 0.162694 0.175481 255 255 0
-0.173315 0.113618 0.168409 255 255 0
-0.130948 0.380357 0.156409 255 255 0
-0.159039 0.125852 0.126409 255 255 0
-0.230691 0.114337 0.069459 255 255 0
-0.186532 0.348731 0.136409 255 255 0
-0.120539 0.141981 0.060409 255 255 0
-0.137986 0.416624 0.118409 255 255 0
-0.180878 0.323517 0.106409 255 255 0
-0.137259 0.382531 0.158409 255 255 0
-0.128900 0.115092 0.050409 255 255 0
-0.179659 0.194969 0.114409 255 255 0
-0.177395 0.241938 0.108409 255 255 0
-0.179491 0.195458 0.142409 255 255 0
-0.179591 0.293460 0.103439 255 255 0
-0.183463 0.349789 0.073468 255 255 0
-0.149864 0.115640 0.140409 255 255 0
-0.137863 0.291783 0.175475 255 255 0
-0.162674 0.121438 0.114409 255 255 0
-0.219880 0.157150 0.078409 255 255 0
-0.221153 0.182971 0.078409 255 255 0
-0.130894 0.321112 0.142409 255 255 0
-0.145670 0.115531 0.110409 255 255 0
-0.171091 0.161503 0.070409 255 255 0
-0.174972 0.217836 0.096409 255 255 0
-0.218351 0.180891 0.056409 255 255 0
-0.167613 0.122231 0.166409 255 255 0
-0.160777 0.120803 0.038409 255 255 0
-0.128707 0.316129 0.164409 255 255 0
-0.185740 0.410747 0.124409 255 255 0
-0.168976 0.121564 0.110409 255 255 0
-0.182424 0.358948 0.146409 255 255 0
-0.152536 0.114020 0.150409 255 255 0
-0.184618 0.303651 0.114409 255 255 0
-0.185554 0.390698 0.156409 255 255 0
-0.173978 0.113847 0.034409 255 255 0
-0.183864 0.373195 0.143488 255 255 0
-0.123858 0.172738 0.161624 255 255 0
-0.149331 0.123331 0.116409 255 255 0
-0.176615 0.243785 0.142409 255 255 0
-0.179803 0.308340 0.156409 255 255 0
-0.164130 0.129493 0.123410 255 255 0
-0.124807 0.232291 0.170409 255 255 0
-0.127129 0.123098 0.046409 255 255 0
-0.170192 0.142603 0.168409 255 255 0
-0.130371 0.123106 0.058409 255 255 0
-0.162638 0.121540 0.026409 255 255 0
-0.172403 0.170416 0.064409 255 255 0
-0.117430 0.142259 0.128409 255 255 0
-0.139949 0.144435 0.171471 255 255 0
-0.185790 0.306170 0.138516 255 255 0
-0.190489 0.396955 0.108409 255 255 0
-0.176021 0.245695 0.156409 255 255 0
-0.152624 0.205911 0.169438 255 255 0
-0.182462 0.362136 0.090409 255 255 0
-0.129481 0.356584 0.114409 255 255 0
-0.132447 0.135505 0.175847 255 255 0
-0.207098 0.133711 0.037995 255 255 0
-0.163874 0.283817 0.163424 255 255 0
-0.117486 0.117526 0.142409 255 255 0
-0.211152 0.137223 0.026409 255 255 0
-0.185719 0.410808 0.100409 255 255 0
-0.133489 0.123173 0.010409 255 255 0
-0.143014 0.123246 0.028409 255 255 0
-0.207322 0.142250 0.018409 255 255 0
-0.168986 0.143856 0.202409 255 255 0
-0.135399 0.123831 0.074409 255 255 0
-0.164167 0.197193 0.162409 255 255 0
-0.211099 0.181625 0.048409 255 255 0
-0.189939 0.398554 0.161089 255 255 0
-0.171413 0.136231 0.064409 255 255 0
-0.176126 0.148430 0.152409 255 255 0
-0.178742 0.286822 0.112409 255 255 0
-0.173890 0.199439 0.136409 255 255 0
-0.123899 0.193905 0.042409 255 255 0
-0.133185 0.395934 0.106409 255 255 0
-0.179905 0.302029 0.130409 255 255 0
-0.163839 0.351493 0.171517 255 255 0
-0.133008 0.115448 0.034409 255 255 0
-0.203497 0.153624 0.032409 255 255 0
-0.126361 0.269900 0.118409 255 255 0
-0.177301 0.146720 0.072409 255 255 0
-0.170690 0.362313 0.157467 255 255 0
-0.177472 0.164464 0.076409 255 255 0
-0.175964 0.245676 0.132409 255 255 0
-0.133601 0.412999 0.152409 255 255 0
-0.172939 0.174831 0.102409 255 255 0
-0.182759 0.296545 0.074409 255 255 0
-0.164149 0.117155 0.104409 255 255 0
-0.126244 0.260284 0.158409 255 255 0
-0.171469 0.381619 0.158409 255 255 0
-0.139692 0.298759 0.175624 255 255 0
-0.183275 0.368762 0.089367 255 255 0
-0.177158 0.167823 0.158409 255 255 0
-0.169866 0.125122 0.131428 255 255 0
-0.210185 0.109392 0.050409 255 255 0
-0.163971 0.209818 0.167696 255 255 0
-0.121060 0.214079 0.106409 255 255 0
-0.183064 0.360229 0.138409 255 255 0
-0.190144 0.391818 0.130409 255 255 0
-0.156586 0.317267 0.175912 255 255 0
-0.216616 0.161355 0.048409 255 255 0
-0.183325 0.284170 0.122409 255 255 0
-0.182921 0.372871 0.124409 255 255 0
-0.132601 0.328046 0.106409 255 255 0
-0.177002 0.116683 0.128409 255 255 0
-0.165834 0.149117 0.319816 255 255 0
-0.179505 0.206705 0.082409 255 255 0
-0.175533 0.225382 0.142409 255 255 0
-0.177056 0.165672 0.068395 255 255 0
-0.152277 0.305208 0.174821 255 255 0
-0.149888 0.355151 0.175719 255 255 0
-0.141306 0.263356 0.175752 255 255 0
-0.121214 0.146445 0.144409 255 255 0
-0.138701 0.270920 0.175670 255 255 0
-0.122912 0.208371 0.166409 255 255 0
-0.142725 0.375952 0.171472 255 255 0
-0.134202 0.114958 0.092409 255 255 0
-0.118782 0.162529 0.166409 255 255 0
-0.121267 0.143402 0.100409 255 255 0
-0.126826 0.330287 0.172409 255 255 0
-0.150723 0.119284 0.126409 255 255 0
-0.176708 0.237471 0.092409 255 255 0
-0.214136 0.125559 0.059773 255 255 0
-0.158179 0.189779 0.162409 255 255 0
-0.122691 0.126980 0.054409 255 255 0
-0.124344 0.185596 0.168409 255 255 0
-0.170085 0.140004 0.102409 255 255 0
-0.181506 0.324752 0.072409 255 255 0
-0.128747 0.318257 0.174731 255 255 0
-0.170918 0.146637 0.281373 255 255 0
-0.180836 0.222266 0.144409 255 255 0
-0.175065 0.208313 0.100409 255 255 0
-0.125275 0.309910 0.122409 255 255 0
-0.128838 0.322519 0.112409 255 255 0
-0.137621 0.399577 0.084409 255 255 0
-0.184998 0.290042 0.142409 255 255 0
-0.178893 0.174766 0.140409 255 255 0
-0.128635 0.115861 0.100409 255 255 0
-0.159436 0.124697 0.088409 255 255 0
-0.119659 0.116295 0.050409 255 255 0
-0.127917 0.375958 0.138409 255 255 0
-0.171809 0.159635 0.140409 255 255 0
-0.174069 0.190027 0.154409 255 255 0
-0.118032 0.122081 0.169522 255 255 0
-0.178255 0.186762 0.134409 255 255 0
-0.183806 0.244358 0.160409 255 255 0
-0.149584 0.257745 0.169421 255 255 0
-0.191932 0.414048 0.142409 255 255 0
-0.225288 0.142314 0.076409 255 255 0
-0.201889 0.148840 -0.000466 255 255 0
-0.201762 0.131874 0.014409 255 255 0
-0.182209 0.242854 0.098409 255 255 0
-0.178142 0.172392 0.132409 255 255 0
-0.171106 0.127665 0.055464 255 255 0
-0.122454 0.280131 0.138409 255 255 0
-0.120362 0.189034 0.006409 255 255 0
-0.149389 0.405744 0.171588 255 255 0
-0.124617 0.285107 0.150409 255 255 0
-0.164774 0.256630 0.175966 255 255 0
-0.120060 0.188352 0.014409 255 255 0
-0.176430 0.214107 0.144409 255 255 0
-0.179419 0.281672 0.148409 255 255 0
-0.129813 0.305933 0.144409 255 255 0
-0.168905 0.158631 0.246409 255 255 0
-0.133188 0.188641 0.177048 255 255 0
-0.161911 0.261990 0.164409 255 255 0
-0.177336 0.159423 0.148409 255 255 0
-0.148406 0.248878 0.169418 255 255 0
-0.152317 0.127541 0.126409 255 255 0
-0.177695 0.262106 0.068409 255 255 0
-0.120976 0.144247 0.174815 255 255 0
-0.137532 0.399547 0.092409 255 255 0
-0.136416 0.117835 -0.003941 255 255 0
-0.171051 0.347631 0.168409 255 255 0
-0.160770 0.341976 0.175611 255 255 0
-0.125519 0.331953 0.142409 255 255 0
-0.189962 0.386202 0.146409 255 255 0
-0.118122 0.177108 0.006827 255 255 0
-0.159511 0.149054 0.174927 255 255 0
-0.203708 0.141006 0.028409 255 255 0
-0.145095 0.135630 0.169444 255 255 0
-0.180396 0.309552 0.104409 255 255 0
-0.124957 0.251380 0.156409 255 255 0
-0.181191 0.239666 0.152409 255 255 0
-0.135346 0.114797 0.116409 255 255 0
-0.176987 0.150841 0.090409 255 255 0
-0.149279 0.160339 0.169441 255 255 0
-0.165130 0.216562 0.170409 255 255 0
-0.179112 0.196559 0.130409 255 255 0
-0.181475 0.334298 0.156409 255 255 0
-0.122145 0.245286 0.146409 255 255 0
-0.123024 0.159759 0.116409 255 255 0
-0.153946 0.115410 0.116409 255 255 0
-0.178253 0.276077 0.112409 255 255 0
-0.165750 0.121590 0.008409 255 255 0
-0.188599 0.355788 0.130409 255 255 0
-0.180867 0.329857 0.096409 255 255 0
-0.122667 0.133194 0.132409 255 255 0
-0.190566 0.405117 0.132409 255 255 0
-0.118458 0.160302 0.034409 255 255 0
-0.116355 0.140540 0.034409 255 255 0
-0.187432 0.340580 0.124409 255 255 0
-0.175406 0.133605 0.144409 255 255 0
-0.203976 0.158020 0.006409 255 255 0
-0.189166 0.388512 0.116409 255 255 0
-0.129740 0.339947 0.104409 255 255 0
-0.169467 0.113996 0.138409 255 255 0
-0.181665 0.226003 0.120409 255 255 0
-0.117318 0.130296 0.005385 255 255 0
-0.146971 0.394335 0.175579 255 255 0
-0.141460 0.115473 0.098409 255 255 0
-0.124487 0.115621 0.110409 255 255 0
-0.138674 0.209568 0.175745 255 255 0
-0.122939 0.263376 0.122409 255 255 0
-0.140371 0.358219 0.171459 255 255 0
-0.184354 0.369133 0.112409 255 255 0
-0.176346 0.146391 0.146409 255 255 0
-0.143022 0.123225 0.052409 255 255 0
-0.124847 0.200577 0.175427 255 255 0
-0.177419 0.158474 0.126409 255 255 0
-0.175864 0.139879 0.138409 255 255 0
-0.147452 0.122642 0.036409 255 255 0
-0.165308 0.113788 0.086409 255 255 0
-0.175829 0.201209 0.162409 255 255 0
-0.154508 0.335589 0.175438 255 255 0
-0.130611 0.257557 0.175177 255 255 0
-0.181534 0.327973 0.102409 255 255 0
-0.163307 0.113456 0.040409 255 255 0
-0.164677 0.330629 0.175444 255 255 0
-0.183917 0.400711 0.146409 255 255 0
-0.130376 0.123089 0.112409 255 255 0
-0.154204 0.238183 0.175216 255 255 0
-0.146002 0.114567 0.154409 255 255 0
-0.184506 0.297612 0.156409 255 255 0
-0.181328 0.236946 0.132409 255 255 0
-0.145982 0.366496 0.175569 255 255 0
-0.134171 0.345508 0.175603 255 255 0
-0.176628 0.250135 0.152409 255 255 0
-0.154477 0.114526 0.022409 255 255 0
-0.167357 0.156983 0.286409 255 255 0
-0.168958 0.281338 0.157433 255 255 0
-0.188173 0.385255 0.105793 255 255 0
-0.181521 0.237013 0.102409 255 255 0
-0.134518 0.246211 0.169428 255 255 0
-0.169452 0.135556 0.152409 255 255 0
-0.174195 0.327560 0.161697 255 255 0
-0.180858 0.232554 0.158409 255 255 0
-0.131242 0.344500 0.126409 255 255 0
-0.126688 0.340817 0.142409 255 255 0
-0.179118 0.119847 0.116409 255 255 0
-0.173703 0.249128 0.161945 255 255 0
-0.178246 0.178774 0.076409 255 255 0
-0.176651 0.150727 0.124409 255 255 0
-0.132522 0.334363 0.110409 255 255 0
-0.164836 0.250305 0.175163 255 255 0
-0.149335 0.123318 0.072409 255 255 0
-0.176903 0.116970 0.005599 255 255 0
-0.122215 0.273703 0.128409 255 255 0
-0.129814 0.241441 0.170409 255 255 0
-0.184800 0.376621 0.106409 255 255 0
-0.165771 0.331005 0.160409 255 255 0
-0.163478 0.112958 0.020409 255 255 0
-0.166942 0.293334 0.157542 255 255 0
-0.181352 0.298297 0.120409 255 255 0
-0.173890 0.371445 0.162409 255 255 0
-0.157307 0.180025 0.171483 255 255 0
-0.120096 0.198941 0.128409 255 255 0
-0.117849 0.168553 0.070409 255 255 0
-0.130096 0.335644 0.134409 255 255 0
-0.120689 0.135688 0.034409 255 255 0
-0.129096 0.301456 0.126409 255 255 0
-0.185330 0.396968 0.074409 255 255 0
-0.181372 0.340608 0.092409 255 255 0
-0.141147 0.122526 0.148409 255 255 0
-0.181351 0.228493 0.082409 255 255 0
-0.158380 0.391918 0.171584 255 255 0
-0.171964 0.297179 0.157540 255 255 0
-0.119658 0.191076 0.162409 255 255 0
-0.185408 0.313423 0.088409 255 255 0
-0.121089 0.152747 0.150409 255 255 0
-0.123388 0.186388 0.114409 255 255 0
-0.173491 0.176028 0.150409 255 255 0
-0.143021 0.123225 0.136409 255 255 0
-0.123935 0.193917 0.064409 255 255 0
-0.121140 0.156057 0.062409 255 255 0
-0.129675 0.318577 0.130409 255 255 0
-0.179365 0.291267 0.078409 255 255 0
-0.176018 0.245694 0.118409 255 255 0
-0.172771 0.187465 0.106409 255 255 0
-0.180927 0.323533 0.132409 255 255 0
-0.174396 0.213407 0.118409 255 255 0
-0.176048 0.239359 0.136409 255 255 0
-0.169652 0.113458 0.068409 255 255 0
-0.138246 0.410369 0.102409 255 255 0
-0.171581 0.129943 0.154409 255 255 0
-0.174084 0.190032 0.086409 255 255 0
-0.127818 0.124376 0.008409 255 255 0
-0.184569 0.398821 0.130409 255 255 0
-0.176524 0.256444 0.114409 255 255 0
-0.175447 0.234921 0.100409 255 255 0
-0.163931 0.311336 0.162409 255 255 0
-0.173378 0.191904 0.102409 255 255 0
-0.162933 0.198884 0.170409 255 255 0
-0.176609 0.250128 0.092409 255 255 0
-0.175055 0.217865 0.114409 255 255 0
-0.136187 0.333511 0.171578 255 255 0
-0.175827 0.216015 0.086409 255 255 0
-0.151879 0.122070 0.062409 255 255 0
-0.130383 0.123069 0.120409 255 255 0
-0.143840 0.114702 0.076409 255 255 0
-0.153779 0.122699 0.054409 255 255 0
-0.177119 0.116343 0.046409 255 255 0
-0.134260 0.400536 0.138172 255 255 0
-0.216420 0.118926 0.052409 255 255 0
-0.174974 0.217837 0.134409 255 255 0
-0.138227 0.410362 0.110409 255 255 0
-0.168972 0.121578 0.094409 255 255 0
-0.156318 0.121467 0.044409 255 255 0
-0.173002 0.168507 0.124409 255 255 0
-0.160064 0.221163 0.169382 255 255 0
-0.120884 0.165369 0.136409 255 255 0
-0.125422 0.251540 0.170409 255 255 0
-0.126641 0.311187 0.154409 255 255 0
-0.220158 0.142439 0.068409 255 255 0
-0.120609 0.142006 0.050409 255 255 0
-0.183151 0.273533 0.102409 255 255 0
-0.124525 0.297766 0.142409 255 255 0
-0.185778 0.404495 0.074409 255 255 0
-0.122742 0.123703 0.038409 255 255 0
-0.172365 0.320585 0.157527 255 255 0
-0.141218 0.115258 0.132409 255 255 0
-0.126980 0.304958 0.163067 255 255 0
-0.181571 0.349138 0.161936 255 255 0
-0.176640 0.400321 0.161508 255 255 0
-0.176718 0.234228 0.112409 255 255 0
-0.175724 0.114252 0.072409 255 255 0
-0.174596 0.120405 0.000409 255 255 0
-0.182237 0.243605 0.072409 255 255 0
-0.181454 0.232759 0.138400 255 255 0
-0.189900 0.402771 0.122409 255 255 0
-0.124948 0.209072 0.124409 255 255 0
-0.145891 0.311469 0.169416 255 255 0
-0.208920 0.144915 0.044409 255 255 0
-0.186406 0.371955 0.161966 255 255 0
-0.176413 0.127377 0.106409 255 255 0
-0.158582 0.114892 0.139867 255 255 0
-0.204644 0.158250 0.038409 255 255 0
-0.116295 0.136289 0.162409 255 255 0
-0.181384 0.249657 0.108409 255 255 0
-0.184754 0.295237 0.128409 255 255 0
-0.172642 0.119732 0.056409 255 255 0
-0.116587 0.134275 0.084409 255 255 0
-0.128061 0.298984 0.158409 255 255 0
-0.118053 0.155932 0.140409 255 255 0
-0.141056 0.288652 0.171559 255 255 0
-0.167896 0.358138 0.168409 255 255 0
-0.116533 0.127911 0.086409 255 255 0
-0.122381 0.158595 0.016409 255 255 0
-0.182472 0.355793 0.126409 255 255 0
-0.175836 0.353509 0.161978 255 255 0
-0.172365 0.164058 0.084409 255 255 0
-0.166380 0.227394 0.174409 255 255 0
-0.173486 0.153867 0.172409 255 255 0
-0.207720 0.172000 0.034409 255 255 0
-0.118558 0.175841 0.140409 255 255 0
-0.118355 0.120077 0.058409 255 255 0
-0.146016 0.298821 0.176172 255 255 0
-0.166263 0.233874 0.174504 255 255 0
-0.168431 0.270580 0.163242 255 255 0
-0.184638 0.392498 0.112409 255 255 0
-0.174072 0.113879 0.108409 255 255 0
-0.145474 0.114608 0.166409 255 255 0
-0.117447 0.166300 0.096409 255 255 0
-0.221897 0.178998 0.068409 255 255 0
-0.164844 0.121278 -0.006545 255 255 0
-0.144339 0.340549 0.175929 255 255 0
-0.123986 0.187588 0.092409 255 255 0
-0.132269 0.314172 0.170409 255 255 0
-0.136900 0.325295 0.175903 255 255 0
-0.132093 0.363830 0.174873 255 255 0
-0.204244 0.164458 0.022409 255 255 0
-0.181924 0.348114 0.084409 255 255 0
-0.177749 0.255808 0.136409 255 255 0
-0.121226 0.176062 0.100409 255 255 0
-0.210104 0.149554 0.025442 255 255 0
-0.179187 0.303897 0.124409 255 255 0
-0.175336 0.122775 0.142409 255 255 0
-0.173006 0.146719 0.240409 255 255 0
-0.213690 0.112714 0.060409 255 255 0
-0.122185 0.180623 -0.001591 255 255 0
-0.183946 0.284383 0.136409 255 255 0
-0.188456 0.385352 0.138409 255 255 0
-0.151232 0.154665 0.175371 255 255 0
-0.182709 0.269151 0.134409 255 255 0
-0.151357 0.142017 0.175871 255 255 0
-0.170182 0.127346 0.064409 255 255 0
-0.154712 0.113843 0.068409 255 255 0
-0.122290 0.171145 0.056409 255 255 0
-0.166725 0.352487 0.164409 255 255 0
-0.126627 0.115547 0.024409 255 255 0
-0.181271 0.241158 0.122409 255 255 0
-0.129263 0.288822 0.146409 255 255 0
-0.127168 0.335130 0.100409 255 255 0
-0.176341 0.143176 0.098409 255 255 0
-0.178759 0.412594 0.166409 255 255 0
-0.136708 0.371764 0.170409 255 255 0
-0.219738 0.152289 0.074409 255 255 0
-0.190773 0.396726 0.082409 255 255 0
-0.180871 0.326601 0.090409 255 255 0
-0.159940 0.233812 0.171488 255 255 0
-0.121266 0.169731 0.128409 255 255 0
-0.186321 0.415206 0.156409 255 255 0
-0.171312 0.155233 0.158409 255 255 0
-0.178677 0.289967 0.136409 255 255 0
-0.129718 0.155718 0.175062 255 255 0
-0.129993 0.115624 0.044409 255 255 0
-0.185383 0.316606 0.148409 255 255 0
-0.126975 0.271112 0.138409 255 255 0
-0.179622 0.227898 0.070409 255 255 0
-0.123128 0.260861 0.142409 255 255 0
-0.188697 0.410818 0.090409 255 255 0
-0.145933 0.114766 0.086406 255 255 0
-0.170791 0.128577 0.074409 255 255 0
-0.117365 0.153580 0.130409 255 255 0
-0.136024 0.383125 0.104409 255 255 0
-0.185917 0.316791 0.100409 255 255 0
-0.157452 0.357755 0.175350 255 255 0
-0.218361 0.110092 0.056409 255 255 0
-0.187493 0.342716 0.154409 255 255 0
-0.130363 0.123128 0.094409 255 255 0
-0.182000 0.338710 0.134409 255 255 0
-0.202239 0.160109 0.018409 255 255 0
-0.125304 0.346686 0.087837 255 255 0
-0.118162 0.164704 0.008409 255 255 0
-0.182701 0.333573 0.074409 255 255 0
-0.166500 0.151462 0.350409 255 255 0
-0.152484 0.114173 0.034409 255 255 0
-0.095181 0.403456 0.040409 255 255 0
-0.173225 0.151662 0.218409 255 255 0
-0.130375 0.123093 0.100409 255 255 0
-0.180586 0.300148 0.146409 255 255 0
-0.157494 0.161052 0.175802 255 255 0
-0.142027 0.126113 0.169412 255 255 0
-0.215937 0.169475 0.050409 255 255 0
-0.182632 0.253911 0.098409 255 255 0
-0.187697 0.351247 0.154409 255 255 0
-0.184117 0.298743 0.084409 255 255 0
-0.121242 0.220487 0.124409 255 255 0
-0.131793 0.287578 0.158409 255 255 0
-0.213938 0.113847 0.044409 255 255 0
-0.126649 0.115483 0.164409 255 255 0
-0.124231 0.217286 0.152409 255 255 0
-0.123353 0.255058 0.146409 255 255 0
-0.177772 0.153228 0.100409 255 255 0
-0.147552 0.239073 0.170409 255 255 0
-0.161219 0.134836 0.122409 255 255 0
-0.174604 0.221939 0.162556 255 255 0
-0.129683 0.223394 0.171421 255 255 0
-0.189656 0.396341 0.154409 255 255 0
-0.173297 0.153802 0.180409 255 255 0
-0.120441 0.211750 0.130409 255 255 0
-0.118069 0.174975 0.066409 255 255 0
-0.171518 0.148959 0.250409 255 255 0
-0.149207 0.264980 0.172409 255 255 0
-0.125067 0.251418 0.138409 255 255 0
-0.145666 0.114674 0.000409 255 255 0
-0.170794 0.408884 0.164409 255 255 0
-0.164796 0.233369 0.162409 255 255 0
-0.183209 0.279899 0.130409 255 255 0
-0.170659 0.144432 0.106409 255 255 0
-0.162259 0.319221 0.175409 255 255 0
-0.178559 0.187342 0.140409 255 255 0
-0.178192 0.282402 0.102409 255 255 0
-0.183773 0.287456 0.094409 255 255 0
-0.156087 0.367861 0.171552 255 255 0
-0.182014 0.345060 0.118409 255 255 0
-0.117080 0.147136 0.108409 255 255 0
-0.183480 0.380453 0.086409 255 255 0
-0.171698 0.150515 0.332409 255 255 0
-0.169238 0.157663 0.334409 255 255 0
-0.125250 0.223982 0.161589 255 255 0
-0.147848 0.115348 0.134409 255 255 0
-0.118748 0.124443 0.162409 255 255 0
-0.135469 0.372453 0.100409 255 255 0
-0.174935 0.220978 0.072409 255 255 0
-0.188524 0.353516 0.160409 255 255 0
-0.168900 0.145942 0.260409 255 255 0
-0.153771 0.122720 0.008409 255 255 0
-0.168334 0.344580 0.175260 255 255 0
-0.220419 0.140414 0.058409 255 255 0
-0.121128 0.156093 0.080409 255 255 0
-0.135473 0.372442 0.090409 255 255 0
-0.132681 0.368263 0.087422 255 255 0
-0.187575 0.356276 0.146409 255 255 0
-0.165375 0.150450 0.332409 255 255 0
-0.134642 0.233562 0.175821 255 255 0
-0.187306 0.344767 0.096183 255 255 0
-0.125678 0.317200 0.140409 255 255 0
-0.168178 0.113965 0.124409 255 255 0
-0.128082 0.279954 0.120409 255 255 0
-0.122143 0.174262 0.152409 255 255 0
-0.121319 0.133789 0.008409 255 255 0
-0.185104 0.375737 0.135353 255 255 0
-0.188731 0.370640 0.104409 255 255 0
-0.121851 0.144548 0.094409 255 255 0
-0.133490 0.123173 0.052409 255 255 0
-0.117325 0.160991 0.058409 255 255 0
-0.179739 0.211016 0.110409 255 255 0
-0.140456 0.189029 0.170409 255 255 0
-0.185171 0.307968 0.100409 255 255 0
-0.128306 0.299069 0.170409 255 255 0
-0.187296 0.357083 0.082409 255 255 0
-0.117132 0.149269 0.018757 255 255 0
-0.170650 0.296726 0.172409 255 255 0
-0.128832 0.322517 0.104409 255 255 0
-0.133161 0.127290 0.175708 255 255 0
-0.117545 0.166497 0.118409 255 255 0
-0.124825 0.234412 0.108409 255 255 0
-0.182109 0.329147 0.140409 255 255 0
-0.173006 0.153702 0.254409 255 255 0
-0.168209 0.357228 0.175415 255 255 0
-0.120091 0.226677 0.148409 255 255 0
-0.162468 0.272757 0.160409 255 255 0
-0.173392 0.121026 0.036409 255 255 0
-0.174605 0.120408 0.028409 255 255 0
-0.137282 0.382539 0.164409 255 255 0
-0.123463 0.278318 0.172409 255 255 0
-0.122748 0.178701 0.078409 255 255 0
-0.173410 0.120974 0.010409 255 255 0
-0.212459 0.167286 0.031414 255 255 0
-0.177707 0.163782 0.116188 255 255 0
-0.135096 0.115529 0.016409 255 255 0
-0.166486 0.147226 0.231714 255 255 0
-0.185751 0.414034 0.078409 255 255 0
-0.157203 0.383052 0.171579 255 255 0
-0.119798 0.135381 0.157434 255 255 0
-0.176153 0.239395 0.124409 255 255 0
-0.118223 0.181373 0.102409 255 255 0
-0.119109 0.183794 0.120409 255 255 0
-0.142366 0.155842 0.175172 255 255 0
-0.132973 0.398133 0.156409 255 255 0
-0.155222 0.327374 0.171489 255 255 0
-0.127206 0.326188 0.148409 255 255 0
-0.116328 0.145460 0.070409 255 255 0
-0.181162 0.227464 0.148409 255 255 0
-0.161268 0.291381 0.175670 255 255 0
-0.082427 0.397494 0.045363 255 255 0
-0.141520 0.305734 0.175577 255 255 0
-0.208042 0.127692 0.032409 255 255 0
-0.134711 0.383768 0.116409 255 255 0
-0.130798 0.238584 0.175312 255 255 0
-0.178306 0.269749 0.124409 255 255 0
-0.223384 0.111821 0.066409 255 255 0
-0.173963 0.193084 0.112409 255 255 0
-0.121199 0.243740 0.136409 255 255 0
-0.180934 0.234695 0.120409 255 255 0
-0.214982 0.144887 0.060409 255 255 0
-0.125374 0.211334 0.161457 255 255 0
-0.185121 0.308056 0.124409 255 255 0
-0.131827 0.348931 0.086409 255 255 0
-0.176086 0.233026 0.126409 255 255 0
-0.167296 0.139044 0.162409 255 255 0
-0.158672 0.169919 0.171553 255 255 0
-0.124011 0.187597 0.060409 255 255 0
-0.173442 0.185580 0.124409 255 255 0
-0.177196 0.248215 0.080409 255 255 0
-0.117821 0.162199 0.100409 255 255 0
-0.180027 0.289380 0.124409 255 255 0
-0.184925 0.318564 0.108409 255 255 0
-0.159759 0.123758 0.175251 255 255 0
-0.209011 0.176676 0.046409 255 255 0
-0.181615 0.244581 0.090409 255 255 0
-0.133458 0.353724 0.111315 255 255 0
-0.141334 0.115299 0.050409 255 255 0
-0.224282 0.148090 0.084409 255 255 0
-0.127090 0.197118 0.162409 255 255 0
-0.122860 0.273925 0.148515 255 255 0
-0.175166 0.205211 0.072409 255 255 0
-0.117959 0.181283 0.038409 255 255 0
-0.178314 0.266451 0.150409 255 255 0
-0.185157 0.406298 0.120409 255 255 0
-0.171319 0.142545 0.088409 255 255 0
-0.173534 0.147538 0.196409 255 255 0
-0.133027 0.364151 0.140409 255 255 0
-0.188943 0.366483 0.152409 255 255 0
-0.135349 0.354374 0.171541 255 255 0
-0.182563 0.349479 0.128409 255 255 0
-0.129931 0.354625 0.124409 255 255 0
-0.143142 0.141304 0.175103 255 255 0
-0.179354 0.185501 0.090409 255 255 0
-0.227814 0.128836 0.078409 255 255 0
-0.161483 0.333760 0.171573 255 255 0
-0.186388 0.408865 0.136409 255 255 0
-0.176647 0.271294 0.161320 255 255 0
-0.154266 0.231858 0.175604 255 255 0
-0.168494 0.264256 0.161684 255 255 0
-0.178877 0.301675 0.162600 255 255 0
-0.120956 0.159047 0.156409 255 255 0
-0.158193 0.410891 0.175192 255 255 0
-0.116489 0.130010 0.018409 255 255 0
-0.183987 0.364776 0.162409 255 255 0
-0.129586 0.297394 0.145447 255 255 0
-0.113359 0.122588 0.034409 255 255 0
-0.185915 0.407745 0.130409 255 255 0
-0.186865 0.327621 0.104409 255 255 0
-0.116209 0.133519 0.056409 255 255 0
-0.175666 0.212712 0.130409 255 255 0
-0.187749 0.361841 0.142409 255 255 0
-0.170903 0.404691 0.175297 255 255 0
-0.134789 0.394371 0.146409 255 255 0
-0.159226 0.242028 0.171452 255 255 0
-0.176987 0.163533 0.132409 255 255 0
-0.182514 0.260398 0.138409 255 255 0
-0.142270 0.119263 -0.003591 255 255 0
-0.155124 0.401373 0.171606 255 255 0
-0.116814 0.149160 0.008409 255 255 0
-0.173162 0.177022 0.162409 255 255 0
-0.131371 0.338199 0.122409 255 255 0
-0.131420 0.384211 0.126409 255 255 0
-0.179074 0.116809 0.038409 255 255 0
-0.176210 0.315564 0.162535 255 255 0
-0.129259 0.166137 0.170409 255 255 0
-0.228932 0.125588 0.068409 255 255 0
-0.127921 0.337010 0.152409 255 255 0
-0.165690 0.153298 0.314409 255 255 0
-0.126426 0.116133 0.016409 255 255 0
-0.175078 0.134556 0.068409 255 255 0
-0.176912 0.157161 0.074409 255 255 0
-0.178073 0.178715 0.148409 255 255 0
-0.125873 0.160740 0.174788 255 255 0
-0.123810 0.132531 -0.001591 255 255 0
-0.128097 0.286305 0.134409 255 255 0
-0.154133 0.373534 0.175729 255 255 0
-0.137018 0.401485 0.064409 255 255 0
-0.184716 0.309290 0.084409 255 255 0
-0.117675 0.162147 0.088409 255 255 0
-0.118245 0.175036 0.090409 255 255 0
-0.213173 0.159072 0.041415 255 255 0
-0.129058 0.322595 0.162409 255 255 0
-0.139013 0.239298 0.175723 255 255 0
-0.124693 0.242828 0.168409 255 255 0
-0.118321 0.176527 0.042409 255 255 0
-0.163706 0.152615 0.266409 255 255 0
-0.124769 0.215357 0.122409 255 255 0
-0.127816 0.267171 0.168409 255 255 0
-0.208001 0.134023 0.032409 255 255 0
-0.178382 0.260112 0.092409 255 255 0
-0.215634 0.130305 0.052409 255 255 0
-0.126495 0.289984 0.116409 255 255 0
-0.148157 0.274175 0.171736 255 255 0
-0.120445 0.205406 0.104409 255 255 0
-0.164609 0.273494 0.170409 255 255 0
-0.120015 0.140897 0.074409 255 255 0
-0.124423 0.211007 0.150409 255 255 0
-0.188222 0.360538 0.120409 255 255 0
-0.179753 0.272363 0.092409 255 255 0
-0.145919 0.372821 0.175064 255 255 0
-0.145856 0.379145 0.175143 255 255 0
-0.132100 0.329988 0.162409 255 255 0
-0.150075 0.336177 0.171687 255 255 0
-0.184660 0.392506 0.132409 255 255 0
-0.132838 0.318664 0.154409 255 255 0
-0.164954 0.366684 0.171552 255 255 0
-0.123788 0.060605 -0.001591 0 255 0
-0.161922 0.113926 0.022409 0 255 0
-0.075918 0.016625 -0.009591 0 255 0
-0.077951 0.095589 -0.007591 0 255 0
-0.126121 0.104733 -0.007591 0 255 0
-0.159854 0.080484 -0.005591 0 255 0
-0.083840 0.055518 0.000409 0 255 0
-0.106718 0.001847 0.002409 0 255 0
-0.106308 0.033270 -0.001591 0 255 0
-0.105245 0.083835 -0.005591 0 255 0
-0.135757 0.082889 -0.003591 0 255 0
-0.149523 0.101195 -0.007591 0 255 0
-0.081825 0.073655 -0.012384 0 255 0
-0.076948 0.038677 -0.011591 0 255 0
-0.146433 0.064173 -0.001072 0 255 0
-0.104172 0.053852 -0.003591 0 255 0
-0.161124 0.113651 0.002534 0 255 0
-0.094278 0.016601 -0.001591 0 255 0
-0.095419 0.069874 0.000409 0 255 0
-0.089764 0.038314 0.001751 0 255 0
-0.094729 0.097612 -0.003591 0 255 0
-0.109688 0.103314 -0.007591 0 255 0
-0.120886 0.089220 -0.008480 0 255 0
-0.117345 0.075309 0.000409 0 255 0
-0.079470 0.055923 -0.014553 0 255 0
-0.084895 0.083173 -0.001246 0 255 0
-0.107185 0.067580 -0.008544 0 255 0
-0.078480 0.028084 -0.000514 0 255 0
-0.162249 0.095001 -0.007591 0 255 0
-0.108275 0.015271 -0.001591 0 255 0
-0.074324 0.064726 -0.004726 0 255 0
-0.134373 0.068481 -0.006574 0 255 0
-0.148725 0.088230 -0.003303 0 255 0
-0.137254 0.096972 -0.004818 0 255 0
-0.146602 0.075968 -0.005591 0 255 0
-0.090165 0.061720 -0.008554 0 255 0
-0.157634 0.068500 -0.003591 0 255 0
-0.095218 0.028617 -0.003591 0 255 0
-0.090941 0.047180 -0.006430 0 255 0
-0.078435 0.044990 -0.001591 0 255 0
-0.154660 0.113996 0.012409 0 255 0
-0.075240 0.084079 -0.007591 0 255 0
-0.094349 0.086428 -0.008441 0 255 0
-0.135392 0.059378 0.000409 0 255 0
-0.122964 0.070899 -0.008576 0 255 0
-0.080686 0.027818 -0.011591 0 255 0
-0.100459 0.044112 0.000660 0 255 0
-0.083592 0.072148 -0.001591 0 255 0
-0.072909 0.053663 -0.005591 0 255 0
-0.091932 0.075020 -0.008550 0 255 0
-0.111369 0.092288 -0.003052 0 255 0
-0.094445 0.055436 0.000409 0 255 0
-0.113553 0.059197 -0.003591 0 255 0
-0.104581 0.075144 0.000113 0 255 0
-0.103188 0.023900 0.001502 0 255 0
-0.126033 0.080416 -0.006287 0 255 0
-0.155382 0.087326 -0.011591 0 255 0
-0.127148 0.095607 -0.003412 0 255 0
-0.086758 0.022472 0.001569 0 255 0
-0.102502 0.093466 -0.008419 0 255 0
-0.138743 0.074217 0.000444 0 255 0
-0.099957 0.007980 -0.001591 0 255 0
-0.083230 0.088006 -0.011591 0 255 0
-0.099295 0.062749 -0.005591 0 255 0
-0.126192 0.069895 0.000409 0 255 0
-0.085019 0.033664 -0.005591 0 255 0
-0.094198 0.037726 -0.006370 0 255 0
-0.117630 0.098675 -0.008375 0 255 0
-0.096723 0.079534 -0.001591 0 255 0
-0.114624 0.082833 -0.006562 0 255 0
-0.086072 0.092039 -0.002958 0 255 0
-0.082241 0.050530 -0.007591 0 255 0
-0.077302 0.019217 -0.000813 0 255 0
-0.113447 0.073967 -0.008557 0 255 0
-0.100798 0.073842 -0.008533 0 255 0
-0.153230 0.075147 0.000409 0 255 0
-0.141750 0.090058 -0.008447 0 255 0
-0.129752 0.088043 -0.008574 0 255 0
-0.074587 0.073278 -0.007591 0 255 0
-0.109212 0.067838 0.000409 0 255 0
-0.087997 0.025014 -0.006556 0 255 0
-0.154278 0.075335 -0.009591 0 255 0
-0.075822 0.035801 -0.003591 0 255 0
-0.081950 0.061007 -0.006279 0 255 0
-0.117942 0.067054 -0.001721 0 255 0
-0.101298 0.023248 -0.006567 0 255 0
-0.156940 0.088943 -0.003336 0 255 0
-0.141336 0.103545 -0.007591 0 255 0
-0.089515 0.063611 -0.000582 0 255 0
-0.149314 0.092663 -0.010589 0 255 0
-0.102412 0.038439 -0.006495 0 255 0
-0.105356 0.060605 0.000736 0 255 0
-0.088552 0.097123 -0.008565 0 255 0
-0.142588 0.069195 -0.006315 0 255 0
-0.080976 0.063838 -0.013591 0 255 0
-0.110066 0.096071 -0.010568 0 255 0
-0.084028 0.042685 -0.006548 0 255 0
-0.083654 0.080631 -0.008509 0 255 0
-0.087160 0.045878 0.000252 0 255 0
-0.099282 0.035246 0.001105 0 255 0
-0.130787 0.075707 -0.001591 0 255 0
-0.102662 0.013142 -0.006552 0 255 0
-0.100351 0.014461 0.002409 0 255 0
-0.082546 0.096136 -0.013591 0 255 0
-0.097203 0.053567 -0.006446 0 255 0
-0.088337 0.054744 -0.006493 0 255 0
-0.131835 0.100424 -0.009591 0 255 0
-0.086561 0.068940 -0.007591 0 255 0
-0.144310 0.095170 -0.003591 0 255 0
-0.089389 0.076260 0.000124 0 255 0
-0.143011 0.082032 -0.003591 0 255 0
-0.099486 0.088197 -0.003591 0 255 0
-0.081548 0.037600 0.000500 0 255 0
-0.089257 0.029679 0.000409 0 255 0
-0.139457 0.066001 -0.000394 0 255 0
-0.110676 0.079358 -0.001591 0 255 0
-0.138093 0.076107 -0.006497 0 255 0
-0.150803 0.069908 -0.006384 0 255 0
-0.128424 0.064317 -0.005591 0 255 0
-0.135426 0.089996 -0.003474 0 255 0
-0.080222 0.087910 -0.003591 0 255 0
-0.161124 0.113651 0.009635 0 255 0
-0.152812 0.082504 -0.003591 0 255 0
-0.078543 0.021759 -0.014457 0 255 0
-0.108564 0.008286 0.000409 0 255 0
-0.080068 0.023468 -0.005591 0 255 0
-0.078632 0.076786 -0.003129 0 255 0
-0.079564 0.068431 -0.007772 0 255 0
-0.157654 0.080728 -0.012366 0 255 0
-0.093417 0.067070 -0.005591 0 255 0
-0.125319 0.088631 -0.003235 0 255 0
-0.073625 0.042183 -0.005591 0 255 0
-0.154848 0.095020 -0.005591 0 255 0
-0.154705 0.113556 0.000409 0 255 0
-0.108238 0.089096 -0.008571 0 255 0
-0.119341 0.078112 -0.005591 0 255 0
-0.105633 0.096660 -0.003386 0 255 0
-0.078944 0.045165 -0.010189 0 255 0
-0.147960 0.071044 0.000409 0 255 0
-0.092857 0.090762 -0.003591 0 255 0
-0.088024 0.086366 -0.006189 0 255 0
-0.097265 0.047243 -0.004407 0 255 0
-0.132482 0.067830 0.000043 0 255 0
-0.081112 0.081870 -0.014490 0 255 0
-0.117104 0.087918 -0.003135 0 255 0
-0.075937 0.029323 -0.007282 0 255 0
-0.102752 0.068169 -0.000490 0 255 0
-0.078882 0.051489 -0.001997 0 255 0
-0.094973 0.023186 -0.000052 0 255 0
-0.118933 0.094893 -0.003300 0 255 0
-0.093985 0.044485 0.000409 0 255 0
-0.108053 0.077346 -0.007591 0 255 0
-0.111680 0.098741 -0.003591 0 255 0
-0.156769 0.114016 0.018409 0 255 0
-0.083568 0.065795 -0.001591 0 255 0
-0.104303 0.039090 0.000183 0 255 0
-0.100417 0.050444 0.000409 0 255 0
-0.099344 0.028921 0.001248 0 255 0
-0.098657 0.098488 -0.008544 0 255 0
-0.123954 0.098738 -0.008470 0 255 0
-0.103590 0.047306 -0.004440 0 255 0
-0.096338 0.013080 -0.006525 0 255 0
-0.152653 0.064538 -0.001591 0 255 0
-0.122278 0.079123 0.000409 0 255 0
-0.089304 0.051936 0.000409 0 255 0
-0.108796 0.055444 0.000409 0 255 0
-0.158709 0.074746 -0.003591 0 255 0
-0.090927 0.081020 -0.007591 0 255 0
-0.077423 0.057333 -0.003591 0 255 0
-0.101235 0.029573 -0.004562 0 255 0
-0.099683 0.058651 -0.000562 0 255 0
-0.080611 0.034181 -0.013591 0 255 0
-0.117341 0.056513 0.000409 0 255 0
-0.111556 0.073316 -0.001163 0 255 0
-0.112531 0.067306 -0.005591 0 255 0
-0.106910 0.062237 -0.005591 0 255 0
-0.105141 0.018226 0.002607 0 255 0
-0.136728 0.086213 -0.008505 0 255 0
-0.154800 0.113589 0.006419 0 255 0
-0.113911 0.091049 -0.008489 0 255 0
-0.089451 0.069936 0.000078 0 255 0
-0.076617 0.050709 -0.009591 0 255 0
-0.106429 0.022900 -0.003591 0 255 0
-0.083502 0.031927 -0.000120 0 255 0
-0.147548 0.079363 -0.000870 0 255 0
-0.090747 0.032307 -0.005591 0 255 0
-0.129945 0.083878 -0.003591 0 255 0
-0.083530 0.093279 -0.008560 0 255 0
-0.091545 0.082288 -0.001591 0 255 0
-0.100736 0.080166 -0.006119 0 255 0
-0.149903 0.097096 -0.003315 0 255 0
-0.122716 0.065476 -0.005591 0 255 0
-0.101030 0.017883 -0.003591 0 255 0
-0.129690 0.094366 -0.008496 0 255 0
-0.100860 0.067518 -0.008510 0 255 0
-0.134026 0.063344 -0.003591 0 255 0
-0.127986 0.074742 -0.006534 0 255 0
-0.105603 0.090304 -0.003591 0 255 0
-0.093359 0.058589 -0.004261 0 255 0
-0.079998 0.035960 -0.007591 0 255 0
-0.141688 0.096383 -0.008492 0 255 0
-0.121519 0.083093 -0.003591 0 255 0
-0.095838 0.063673 -0.001200 0 255 0
-0.140510 0.087516 -0.003269 0 255 0
-0.089112 0.040206 -0.006419 0 255 0
-0.133008 0.078587 -0.006537 0 255 0
-0.096829 0.091512 -0.008521 0 255 0
-0.136666 0.092538 -0.008490 0 255 0
-0.075481 -0.116786 0.083455 255 255 0
-0.018590 -0.055996 -0.014589 255 255 0
-0.068008 -0.131939 -0.013591 255 255 0
-0.047373 -0.053582 0.082409 255 255 0
-0.029989 -0.098606 0.036409 255 255 0
-0.104282 -0.068794 0.086409 255 255 0
-0.067950 -0.131771 0.036409 255 255 0
-0.032132 -0.101466 -0.017591 255 255 0
-0.032915 -0.097598 0.089841 255 255 0
-0.043727 -0.122853 0.064409 255 255 0
-0.042234 -0.121888 0.010409 255 255 0
-0.067694 -0.081884 0.088409 255 255 0
-0.106634 -0.102828 0.082409 255 255 0
-0.033071 -0.079620 0.008409 255 255 0
-0.032399 -0.074509 0.060409 255 255 0
-0.080276 -0.056992 0.084409 255 255 0
-0.042470 -0.121807 0.038409 255 255 0
-0.087291 -0.095797 0.098133 255 255 0
-0.031252 -0.100287 0.062409 255 255 0
-0.068250 -0.123506 0.012409 255 255 0
-0.044283 -0.123297 -0.015591 255 255 0
-0.067590 -0.130080 0.062409 255 255 0
-0.050898 -0.125251 0.087998 255 255 0
-0.033088 -0.073529 0.084409 255 255 0
-0.036760 -0.102620 0.003346 255 255 0
-0.095613 -0.120430 0.086409 255 255 0
-0.052792 -0.097100 0.084409 255 255 0
-0.040943 -0.108626 0.024409 255 255 0
-0.038304 -0.113248 0.080409 255 255 0
-0.052926 -0.069710 0.090409 255 255 0
-0.054091 -0.128381 0.024241 255 255 0
-0.056782 -0.121109 0.050409 255 255 0
-0.031815 -0.082117 0.028409 255 255 0
-0.101118 -0.086806 0.089536 255 255 0
-0.075294 -0.097813 0.083443 255 255 0
-0.056833 -0.121092 -0.001591 255 255 0
-0.072226 -0.107331 0.098554 255 255 0
-0.065665 -0.131281 0.080409 255 255 0
-0.029536 -0.087783 0.074409 255 255 0
-0.063354 -0.055389 0.088409 255 255 0
-0.060053 -0.111522 0.086409 255 255 0
-0.090547 -0.105253 0.083489 255 255 0
-0.044126 -0.111726 0.052409 255 255 0
-0.044917 -0.083308 0.088409 255 255 0
-0.058462 -0.122646 -0.022520 255 255 0
-0.056820 -0.121096 0.072409 255 255 0
-0.035173 -0.113743 -0.007591 255 255 0
-0.032853 -0.091275 0.049393 255 255 0
-0.071762 -0.124412 0.049431 255 255 0
-0.070261 -0.067817 0.084409 255 255 0
-0.070729 -0.124767 -0.001591 255 255 0
-0.058151 -0.121742 0.036409 255 255 0
-0.041906 -0.111425 -0.022553 255 255 0
-0.054487 -0.129532 0.010409 255 255 0
-0.029641 -0.090265 0.016409 255 255 0
-0.077931 -0.130041 0.086409 255 255 0
-0.072693 -0.124092 0.026409 255 255 0
-0.075153 -0.125360 0.072409 255 255 0
-0.042541 -0.121782 0.024409 255 255 0
-0.036445 -0.101705 0.074409 255 255 0
-0.054422 -0.129342 0.060409 255 255 0
-0.084419 -0.109478 0.094409 255 255 0
-0.045385 -0.112342 0.000409 255 255 0
-0.019955 -0.066102 -0.006450 255 255 0
-0.111525 -0.089568 0.082409 255 255 0
-0.034432 -0.111883 0.012409 255 255 0
-0.043735 -0.104449 0.089510 255 255 0
-0.042062 -0.064835 0.086409 255 255 0
-0.030899 -0.085602 0.087241 255 255 0
-0.036136 -0.073222 0.072409 255 255 0
-0.064786 -0.122583 0.089328 255 255 0
-0.071762 -0.124412 -0.022590 255 255 0
-0.056051 -0.129822 -0.011591 255 255 0
-0.044058 -0.123816 0.050409 255 255 0
-0.045896 -0.124857 0.076409 255 255 0
-0.044007 -0.123668 -0.003591 255 255 0
-0.053071 -0.119276 0.016409 255 255 0
-0.056848 -0.087242 0.089738 255 255 0
-0.061351 -0.131038 0.046409 255 255 0
-0.041603 -0.110541 0.036409 255 255 0
-0.061458 -0.131349 0.000409 255 255 0
-0.096158 -0.096974 0.088860 255 255 0
-0.085650 -0.121746 0.081494 255 255 0
-0.037025 -0.100413 -0.007591 255 255 0
-0.065455 -0.130670 0.020409 255 255 0
-0.076888 -0.096300 0.094409 255 255 0
-0.031814 -0.094400 0.026409 255 255 0
-0.053668 -0.117951 -0.013591 255 255 0
-0.030436 -0.102683 0.046596 255 255 0
-0.050848 -0.127383 0.042409 255 255 0
-0.090686 -0.087227 0.092409 255 255 0
-0.079415 -0.066781 0.090066 255 255 0
-0.099449 -0.110648 0.088409 255 255 0
-0.069976 -0.106943 0.084409 255 255 0
-0.063826 -0.122914 -0.009591 255 255 0
-0.045341 -0.112357 0.014409 255 255 0
-0.051728 -0.118619 0.028409 255 255 0
-0.031888 -0.088472 0.038409 255 255 0
-0.051113 -0.116715 0.058409 255 255 0
-0.061270 -0.121679 0.062409 255 255 0
-0.106729 -0.078529 0.083443 255 255 0
-0.044448 -0.112664 -0.012605 255 255 0
-0.095945 -0.077928 0.088409 255 255 0
-0.062579 -0.122314 0.026409 255 255 0
-0.061194 -0.130581 0.070409 255 255 0
-0.080441 -0.106618 0.083540 255 255 0
-0.054056 -0.060706 0.085768 255 255 0
-0.031230 -0.080416 0.018409 255 255 0
-0.032865 -0.110307 0.070409 255 255 0
-0.026889 -0.053138 -0.009591 255 255 0
-0.032975 -0.082771 0.066409 255 255 0
-0.049154 -0.117390 0.044409 255 255 0
-0.035523 -0.113623 0.002409 255 255 0
-0.044074 -0.074719 0.083420 255 255 0
-0.051692 -0.118632 0.006409 255 255 0
-0.054396 -0.129265 0.078409 255 255 0
-0.074585 -0.123440 0.062409 255 255 0
-0.057476 -0.119784 0.082409 255 255 0
-0.047997 -0.116825 0.070409 255 255 0
-0.082457 -0.118614 0.089868 255 255 0
-0.036384 -0.098519 0.054409 255 255 0
-0.058977 -0.130286 0.032409 255 255 0
-0.067011 -0.122904 0.076409 255 255 0
-0.063609 -0.131450 0.009646 255 255 0
-0.060353 -0.121995 0.007449 255 255 0
-0.065119 -0.123549 0.042409 255 255 0
-0.049232 -0.126556 0.032409 255 255 0
-0.049148 -0.117393 -0.021591 255 255 0
-0.028951 -0.094733 0.080409 255 255 0
-0.059693 -0.079917 0.084409 255 255 0
-0.037024 -0.117337 0.032409 255 255 0
-0.058922 -0.130125 0.086409 255 255 0
-0.031738 -0.106465 -0.003346 255 255 0
-0.050689 -0.127438 0.068409 255 255 0
-0.033379 -0.080516 -0.000560 255 255 0
-0.072682 -0.124095 0.036409 255 255 0
-0.051001 -0.127330 0.002409 255 255 0
-0.090497 -0.103154 0.092409 255 255 0
-0.036532 -0.115390 0.020409 255 255 0
-0.037474 -0.110835 0.089042 255 255 0
-0.085401 -0.096448 0.089480 255 255 0
-0.043355 -0.097202 0.084409 255 255 0
-0.030747 -0.079015 0.076409 255 255 0
-0.034626 -0.109701 -0.015591 255 255 0
-0.038622 -0.089598 0.088409 255 255 0
-0.089369 -0.114119 0.083491 255 255 0
-0.105738 -0.094082 0.088409 255 255 0
-0.036798 -0.081455 0.082409 255 255 0
-0.031614 -0.106507 0.056409 255 255 0
-0.036535 -0.104813 0.082409 255 255 0
-0.038275 -0.104214 0.066409 255 255 0
-0.029274 -0.087023 0.006409 255 255 0
-0.064374 -0.131187 0.054409 255 255 0
-0.095523 -0.092963 0.096409 255 255 0
-0.060705 -0.123018 0.016409 255 255 0
-0.040733 -0.116059 0.044409 255 255 0
-0.068506 -0.114957 0.089512 255 255 0
-0.035652 -0.096656 0.042409 255 255 0
-0.048384 -0.126116 0.018409 255 255 0
-0.064939 -0.073881 0.087184 255 255 0
-0.076658 -0.107919 0.090967 255 255 0
-0.051661 -0.127466 0.052409 255 255 0
-0.067021 -0.122932 0.056409 255 255 0
-0.069282 -0.129497 0.087835 255 255 0
-0.049864 -0.116105 -0.005591 255 255 0
-0.047317 -0.114851 0.022409 255 255 0
-0.040931 -0.108590 0.008409 255 255 0
-0.072702 -0.124088 -0.009591 255 255 0
-0.019242 -0.057887 -0.006239 255 255 0
-0.051127 -0.116710 0.036409 255 255 0
-0.081061 -0.102173 0.098409 255 255 0
-0.073001 -0.121870 0.089389 255 255 0
-0.065113 -0.123533 -0.017591 255 255 0
-0.068266 -0.123500 0.068409 255 255 0
-0.055593 -0.052882 0.084409 255 255 0
-0.037869 -0.117046 -0.015591 255 255 0
-0.021195 -0.063560 -0.014216 255 255 0
-0.067888 -0.132092 0.028409 255 255 0
-0.098112 -0.102648 0.083435 255 255 0
-0.075905 -0.124158 0.080409 255 255 0
-0.100127 -0.114645 0.081532 255 255 0
-0.040932 -0.108594 -0.005591 255 255 0
-0.043197 -0.117326 0.058409 255 255 0
-0.061156 -0.130472 -0.017591 255 255 0
-0.085853 -0.060904 0.088409 255 255 0
-0.044895 -0.070960 0.090409 255 255 0
-0.069432 -0.129932 0.044409 255 255 0
-0.050835 -0.118926 0.077339 255 255 0
-0.050426 -0.127528 -0.005591 255 255 0
-0.053439 -0.126490 -0.018051 255 255 0
-0.040477 -0.120378 0.002409 255 255 0
-0.067495 -0.130448 -0.005591 255 255 0
-0.075294 -0.073239 0.086409 255 255 0
-0.039052 -0.078563 0.089724 255 255 0
-0.049171 -0.077234 0.090409 255 255 0
-0.039540 -0.108008 0.016409 255 255 0
-0.065148 -0.123634 0.034409 255 255 0
-0.100528 -0.091239 0.083508 255 255 0
-0.058990 -0.130321 0.016409 255 255 0
-0.078612 -0.113592 0.096758 255 255 0
-0.045984 -0.114251 0.030409 255 255 0
-0.054253 -0.119865 0.064409 255 255 0
-0.053065 -0.088545 0.083451 255 255 0
-0.037687 -0.068457 0.081479 255 255 0
-0.041260 -0.120108 -0.009591 255 255 0
-0.063815 -0.122918 0.000409 255 255 0
-0.071903 -0.130965 0.076409 255 255 0
-0.028573 -0.091129 0.032409 255 255 0
-0.034093 -0.088732 0.081412 255 255 0
-0.037751 -0.105498 -0.021591 255 255 0
-0.065375 -0.118151 0.083565 255 255 0
-0.048044 -0.092390 0.087250 255 255 0
-0.029302 -0.086151 0.022409 255 255 0
-0.050988 -0.070224 0.083452 255 255 0
-0.101893 -0.101346 0.089453 255 255 0
-0.069291 -0.127378 0.006409 255 255 0
-0.059050 -0.118213 0.089428 255 255 0
-0.080656 -0.064238 0.083511 255 255 0
-0.058163 -0.066490 0.086409 255 255 0
-0.043409 -0.106677 0.082409 255 255 0
-0.089959 -0.109685 0.089654 255 255 0
-0.029133 -0.098901 0.052469 255 255 0
-0.072603 -0.102284 0.092409 255 255 0
-0.088844 -0.124877 0.086992 255 255 0
-0.029598 -0.081819 0.060268 255 255 0
-0.055920 -0.121406 0.023442 255 255 0
-0.048299 -0.126145 0.058409 255 255 0
-0.035043 -0.094751 0.060409 255 255 0
-0.075426 -0.061338 0.088409 255 255 0
-0.043298 -0.060179 0.081418 255 255 0
-0.062800 -0.086099 0.084409 255 255 0
-0.088005 -0.104012 0.098802 255 255 0
-0.056831 -0.130198 0.040409 255 255 0
-0.078818 -0.101903 0.088409 255 255 0
-0.033104 -0.085862 0.012409 255 255 0
-0.038263 -0.104218 -0.013591 255 255 0
-0.031087 -0.104574 -0.011554 255 255 0
-0.037342 -0.116597 0.008409 255 255 0
-0.082043 -0.114526 0.084409 255 255 0
-0.048382 -0.062659 0.088984 255 255 0
-0.063808 -0.122920 0.050409 255 255 0
-0.070023 -0.076361 0.083418 255 255 0
