ply
format ascii 1.0
element vertex 1255
property float x
property float y
property float z
property uchar red
property uchar green
property uchar blue
end_header
-0.249459 0.121386 -0.997335 22 18 6
-0.171706 0.165152 -0.653718 24 8 1
-0.190094 0.168542 -0.652786 24 8 1
-0.340333 0.258103 -0.990096 25 20 8
-0.348914 0.258071 -0.992118 26 21 11
-0.472824 -0.397474 -0.620348 27 21 8
-0.469989 -0.398993 -0.634378 34 29 16
-0.391132 0.310002 -0.978275 16 16 6
-0.372051 0.292959 -0.980237 15 15 7
-0.351152 0.296289 -0.983676 21 18 6
-0.191589 0.223840 -0.925533 18 11 5
-0.193767 0.224379 -0.909439 20 10 5
-0.198269 0.214929 -0.888719 15 7 1
-0.542822 0.336784 -0.761443 44 20 5
-0.543559 0.333536 -0.787524 43 20 6
-0.524424 0.323394 -0.762566 44 18 6
-0.534488 0.325372 -0.798076 43 19 6
-0.159385 0.316169 -0.584733 37 28 33
-0.546192 0.007501 -0.909495 37 34 26
-0.557051 0.356433 -0.895548 27 23 10
-0.554380 0.345126 -0.882291 28 23 11
-0.540459 0.363256 -0.864511 31 20 10
-0.543213 0.365348 -0.890749 31 21 11
-0.552186 0.359700 -0.881185 28 23 11
-0.440926 0.322507 -0.933289 19 15 6
-0.419427 0.325646 -0.896980 23 12 5
-0.423538 0.322764 -0.926229 18 14 5
-0.503706 0.326854 -0.604871 50 18 3
-0.486963 0.326367 -0.592953 50 22 9
-0.510097 0.325304 -0.580528 48 22 4
-0.257289 -0.004074 -1.011739 23 20 12
-0.271940 0.011678 -1.013018 23 20 12
-0.257542 0.025903 -1.012108 24 19 12
-0.279545 -0.023285 -1.011485 25 23 17
-0.296511 -0.018308 -1.010350 23 21 14
-0.311176 0.072770 -1.003786 22 18 7
-0.199849 0.200396 -0.939724 11 7 1
-0.203226 0.193256 -0.918980 10 7 2
-0.196344 0.179594 -0.959848 11 6 1
-0.190150 0.175320 -0.946963 12 7 1
-0.200562 0.194269 -0.955455 12 6 2
-0.346935 0.321614 -0.976048 21 16 5
-0.349694 0.316537 -0.981625 21 18 6
-0.339865 0.314677 -0.980140 24 18 7
-0.318008 0.313338 -0.982210 20 15 4
-0.332689 0.323889 -0.964866 18 14 4
-0.348304 0.322311 -0.964667 21 16 5
-0.190960 0.172322 -0.781639 88 98 28
-0.182317 0.167775 -0.769672 96 114 31
-0.485551 -0.299912 -0.592811 9 6 1
-0.488757 -0.282945 -0.588960 10 6 1
-0.491922 -0.287683 -0.598698 14 8 1
-0.504444 -0.290453 -0.577083 17 9 1
-0.494870 -0.291813 -0.581473 17 8 1
-0.485058 0.327126 -0.735472 37 26 2
-0.473946 0.328915 -0.722534 39 21 1
-0.319344 0.152545 -0.997233 22 17 7
-0.307003 0.170306 -0.996884 22 18 7
-0.322035 0.174407 -0.996347 22 19 7
-0.306617 0.194630 -0.998164 22 18 7
-0.539951 -0.046148 -0.888358 38 32 25
-0.522314 -0.029074 -0.886047 38 33 23
-0.538228 -0.040614 -0.881096 36 33 26
-0.531139 -0.042676 -0.878711 38 33 24
-0.539003 -0.030666 -0.869780 31 28 18
-0.535487 -0.042322 -0.871434 34 33 23
-0.528042 -0.046907 -0.862716 36 33 24
-0.430407 0.149631 -1.000314 30 28 13
-0.410673 0.159107 -1.000972 34 33 14
-0.518391 -0.029403 -0.877098 36 33 24
-0.518741 -0.036707 -0.861760 35 34 23
-0.534199 -0.038930 -0.861937 32 30 22
-0.543432 -0.025223 -0.878998 34 31 22
-0.205764 0.118159 -0.997129 16 12 1
-0.187663 0.132054 -0.996508 19 17 5
-0.207644 0.133305 -0.995985 16 13 2
-0.179521 -0.063187 -1.011070 22 21 14
-0.201287 -0.077347 -1.013247 23 20 13
-0.169492 -0.072885 -1.011751 21 21 14
-0.196229 -0.059562 -1.013241 24 21 14
-0.481258 0.324972 -0.803403 39 16 4
-0.519828 0.322510 -0.785787 40 17 5
-0.505442 0.325075 -0.809830 40 17 4
-0.499277 0.325733 -0.795403 39 16 3
-0.507039 0.323723 -0.826081 40 18 5
-0.497731 -0.181915 -0.619129 22 20 3
-0.416647 0.328179 -0.797113 39 27 1
-0.450713 0.329128 -0.786375 38 32 5
-0.433451 0.330191 -0.771403 36 16 3
-0.460493 0.324523 -0.899541 30 14 3
-0.470015 0.323243 -0.888369 32 15 6
-0.485871 0.322890 -0.861618 34 15 3
-0.360143 0.134461 -1.003706 32 30 17
-0.382623 0.122303 -1.005842 33 30 15
-0.394452 0.153566 -1.002008 32 31 17
-0.329814 0.336678 -0.691847 35 12 1
-0.331743 0.337227 -0.676910 37 13 2
-0.524078 -0.055392 -0.807693 35 33 24
-0.237575 0.093143 -0.999607 25 14 6
-0.221785 0.079597 -1.000844 19 13 3
-0.228180 0.106468 -0.997877 21 14 5
-0.330235 0.161131 -0.998936 24 18 7
-0.318108 0.132013 -0.998447 20 17 5
-0.241417 0.227637 -0.990374 28 22 6
-0.327097 0.288494 -0.986159 27 23 11
-0.413516 0.273045 -0.990060 28 25 18
-0.413690 0.286671 -0.980209 25 22 15
-0.402397 0.263652 -0.992624 25 25 17
-0.150815 0.044925 -0.997497 19 14 3
-0.126416 0.073300 -0.995351 18 13 3
-0.486327 -0.351977 -0.592104 12 7 1
-0.481191 -0.328164 -0.603570 11 7 1
-0.480161 -0.318799 -0.612479 16 10 2
-0.464486 0.328805 -0.579164 50 18 2
-0.472440 0.328919 -0.602541 47 23 5
-0.484619 0.329603 -0.693838 51 41 16
-0.205137 0.182291 -0.695289 23 7 1
-0.210568 0.196654 -0.687683 22 7 1
-0.171997 0.091216 -0.997133 18 17 5
-0.174616 0.116408 -0.995410 18 18 6
-0.149066 0.100032 -0.995331 16 14 2
-0.337464 0.335208 -0.648980 36 13 1
-0.333664 0.335874 -0.664506 37 13 1
-0.115830 0.157596 -0.605879 19 5 1
-0.218919 -0.076025 -1.012962 24 21 14
-0.348586 0.228571 -0.995810 26 21 10
-0.417708 0.181337 -1.003497 33 36 18
-0.542274 -0.032074 -0.849717 31 29 24
-0.524979 -0.048884 -0.851972 25 23 17
-0.517694 -0.027624 -0.861094 33 31 21
-0.535449 -0.043425 -0.837242 28 29 23
-0.350231 0.020737 -1.012653 29 23 17
-0.317119 0.010488 -1.011807 23 22 14
-0.321777 0.033975 -1.011310 23 23 14
-0.380578 0.102442 -1.009610 33 28 15
-0.360788 0.123031 -1.004944 32 27 14
-0.361675 0.094211 -1.011005 32 28 13
-0.344818 0.111476 -1.006633 33 30 15
-0.250116 0.331810 -0.727754 33 8 1
-0.226271 0.332118 -0.735589 25 6 1
-0.238711 0.331892 -0.715225 28 7 1
-0.517946 -0.040280 -0.756214 29 27 18
-0.502169 0.325108 -0.772006 40 18 5
-0.202291 0.072480 -1.002032 19 15 4
-0.210807 0.090368 -1.001112 17 14 3
-0.196891 0.112993 -0.999519 17 13 2
-0.190068 0.095899 -0.997855 18 16 4
-0.308884 0.125888 -0.999867 21 17 5
-0.304107 0.109905 -1.000306 21 17 5
-0.290931 0.101662 -1.000678 21 17 6
-0.273857 0.086169 -1.003314 19 15 4
-0.195480 0.260083 -0.983691 19 13 4
-0.187277 0.285237 -0.973469 19 13 5
-0.185594 0.304552 -0.974803 28 22 13
-0.183677 0.282163 -0.964683 25 17 10
-0.190296 0.328018 -0.763738 26 11 4
-0.185331 0.325803 -0.745354 24 13 5
-0.218761 0.011572 -1.009576 23 18 9
-0.211737 0.028002 -1.009008 22 17 10
-0.228959 -0.015299 -1.012244 21 19 12
-0.522071 0.323824 -0.849173 36 17 9
-0.544828 0.330682 -0.842314 42 24 8
-0.535224 0.330405 -0.833304 39 19 8
-0.533393 0.325289 -0.861226 32 19 9
-0.511207 0.323982 -0.864247 37 18 10
-0.537427 0.330779 -0.855826 30 20 12
-0.195273 0.171573 -0.691862 23 9 1
-0.185723 0.166904 -0.690986 24 8 1
-0.111549 0.162244 -0.730101 20 6 1
-0.133269 0.163672 -0.727452 20 6 1
-0.226169 0.193052 -0.991226 16 12 2
-0.216603 0.170285 -0.992868 19 14 5
-0.551139 0.341530 -0.917132 26 21 8
-0.129691 0.094504 -0.994329 18 13 2
-0.145166 0.069890 -0.996699 19 16 5
-0.157499 0.076960 -0.997686 22 18 7
-0.211788 0.327483 -0.645572 23 6 1
-0.200614 0.324315 -0.668107 24 6 1
-0.203367 0.328897 -0.654440 24 5 2
-0.210123 0.325009 -0.675278 24 5 1
-0.521925 -0.016052 -0.791849 34 32 23
-0.189871 0.218220 -0.616637 25 11 1
-0.194628 0.214981 -0.632693 25 8 1
-0.180639 0.248834 -0.656704 26 13 5
-0.339530 0.334330 -0.731783 33 12 1
-0.326575 0.334763 -0.720599 33 12 1
-0.341449 0.333416 -0.763788 33 12 1
-0.527091 0.344666 -1.000968 20 21 12
-0.530928 0.352614 -0.999397 22 26 10
-0.539694 0.349114 -0.993980 33 37 13
-0.528894 0.347979 -0.994881 24 29 10
-0.333325 0.132648 -1.002370 32 28 14
-0.328339 0.108148 -1.003490 25 19 7
-0.321708 0.115038 -1.000896 23 20 7
-0.316411 0.091034 -1.004181 24 19 6
-0.476016 -0.381464 -0.646939 35 31 24
-0.471995 -0.392307 -0.642054 40 36 27
-0.480456 -0.378957 -0.646591 33 31 23
-0.528141 0.319788 -0.904269 24 15 6
-0.537069 0.323367 -0.903153 23 21 12
-0.540889 0.328503 -0.926879 22 20 7
-0.536745 0.325793 -0.925081 21 20 12
-0.519717 -0.050586 -0.833707 35 34 25
-0.516782 -0.050439 -0.807243 35 31 24
-0.515578 -0.035068 -0.814412 36 31 24
-0.515605 -0.038540 -0.828492 34 33 23
-0.516069 -0.051628 -0.819690 33 33 20
-0.272327 0.116287 -0.997126 23 17 5
-0.273973 0.100929 -0.998604 22 17 5
-0.250930 0.095721 -1.000064 23 17 5
-0.208241 0.184878 -0.604070 24 7 1
-0.208120 0.188645 -0.580408 23 8 1
-0.205990 0.207652 -0.602126 24 7 1
-0.212017 0.194955 -0.609405 24 7 1
-0.138084 0.163658 -0.782417 89 103 30
-0.123130 0.161201 -0.770067 79 91 22
-0.536883 0.327740 -0.813697 43 21 7
-0.545671 0.339758 -0.804184 42 22 8
-0.543000 0.334570 -0.817870 49 27 10
-0.521925 0.323084 -0.812801 40 18 6
-0.517376 0.321478 -0.826611 41 18 6
-0.202061 0.210726 -0.854675 20 8 1
-0.194882 0.221629 -0.869038 19 7 2
-0.193568 0.216632 -0.845363 20 11 4
-0.188594 0.225783 -0.838187 22 10 5
-0.189673 0.225662 -0.854888 21 12 7
-0.521793 -0.015165 -0.809931 32 30 22
-0.477770 -0.300000 -0.643459 43 44 20
-0.181281 0.167666 -0.673968 23 8 1
-0.163587 0.165617 -0.695100 23 6 1
-0.223912 0.328403 -0.714795 24 6 1
-0.199846 0.323869 -0.710371 22 6 1
-0.215411 0.324465 -0.725055 24 6 1
-0.208056 0.330406 -0.750481 21 6 1
-0.206214 0.329098 -0.720605 21 6 1
-0.134763 0.162732 -0.658658 18 7 1
-0.109884 0.157562 -0.627755 22 5 1
-0.188460 0.152239 -0.994494 19 17 5
-0.509751 -0.101633 -0.611361 39 22 9
-0.549948 0.330503 -0.953821 26 25 15
-0.291345 0.296616 -0.988462 23 19 7
-0.484318 0.324557 -0.837903 38 15 5
-0.505763 0.322787 -0.851151 37 16 3
-0.400919 0.099939 -1.008823 26 22 9
-0.403950 0.117616 -1.006003 33 28 15
-0.128664 0.163315 -0.967903 10 5 1
-0.363122 0.333606 -0.724915 34 12 1
-0.371492 0.331091 -0.703432 35 12 1
-0.561161 0.349235 -0.546655 50 22 4
-0.556398 0.339139 -0.532235 55 22 4
-0.559968 0.350849 -0.516503 53 22 4
-0.560606 0.368116 -0.528794 53 21 4
-0.560190 0.361157 -0.510505 54 22 5
-0.524744 0.328750 -0.239628 75 34 10
-0.495315 0.324113 -0.231714 75 35 12
-0.538563 0.325683 -0.258384 73 35 12
-0.515306 0.326996 -0.262965 71 34 10
-0.540548 0.327502 -0.226277 74 36 13
-0.170965 0.256078 -0.368403 41 28 35
-0.157553 0.307843 -0.357999 46 30 33
-0.131864 0.308154 -0.128546 89 46 22
-0.110026 0.304675 -0.157325 82 42 17
-0.875773 0.002741 -0.384358 142 169 52
-0.159828 0.297636 -0.456179 48 31 36
-0.159217 0.315661 -0.460240 48 32 38
-0.738501 0.019900 -0.381621 151 186 58
-0.707320 0.020805 -0.378939 153 189 57
-0.738993 0.010627 -0.375222 153 183 57
-0.716226 0.010971 -0.373537 152 183 57
-0.711624 -0.031437 -0.385680 73 53 10
-0.201874 0.307436 -0.353953 56 23 6
-0.210787 0.314591 -0.362515 57 25 6
-0.214705 0.316020 -0.374987 53 21 1
-0.202495 0.306529 -0.373922 47 19 2
-0.191402 0.220704 -0.565622 25 7 1
-0.183994 0.235668 -0.568053 28 13 3
-0.207902 0.200811 -0.582745 25 8 1
-0.191693 0.219383 -0.550342 26 11 1
-0.202211 0.214903 -0.567005 25 7 1
-0.200590 0.212585 -0.546348 25 7 1
-0.163396 0.153149 -0.296840 47 30 29
-0.149104 0.153035 -0.294826 100 53 31
-0.161853 0.140046 -0.295273 106 56 32
-0.170406 0.157619 -0.290727 103 54 30
-0.160036 0.151044 -0.289266 104 55 30
-0.149821 0.144515 -0.291314 95 52 33
-0.229680 0.317433 -0.378879 57 24 4
-0.234902 0.316833 -0.355882 64 27 7
-0.439748 0.325349 -0.233431 76 36 12
-0.412417 0.323395 -0.241266 77 35 13
-0.429346 0.325102 -0.225531 74 36 12
-0.737041 -0.219636 -0.548545 67 67 47
-0.251892 0.307884 -0.133138 82 43 21
-0.277576 0.310621 -0.135657 88 44 20
-0.149470 0.003853 -0.273028 111 61 37
-0.125116 -0.008718 -0.273333 110 60 37
-0.131751 0.050866 -0.269458 107 60 35
-0.140331 0.064930 -0.268438 110 59 36
-0.184637 0.226428 -0.419641 36 18 11
-0.203362 -0.489004 -0.297872 122 66 29
-0.220133 -0.540372 -0.310724 45 19 1
-0.211996 -0.521582 -0.302691 63 26 4
-0.190200 0.303328 -0.308481 57 25 6
-0.171325 0.304041 -0.308026 52 21 3
-0.183284 0.309302 -0.279754 57 22 3
-0.177907 0.302647 -0.290178 100 54 31
-0.182139 0.300059 -0.309178 51 21 3
-0.199405 0.307794 -0.298666 59 26 7
-0.168984 0.300660 -0.296411 56 24 4
-0.162481 0.304323 -0.300566 97 54 31
-0.163776 0.154883 -0.388119 18 6 1
-0.767271 -0.061485 -0.557766 126 94 61
-0.756284 -0.080455 -0.546585 126 94 60
-0.552463 -0.053050 -0.565250 51 34 13
-0.542044 -0.052197 -0.572478 42 23 7
-0.904052 -0.072512 -0.339887 147 169 73
-0.914853 -0.073937 -0.322313 145 170 69
-0.925590 -0.064004 -0.331723 147 166 72
-0.917560 -0.062569 -0.343213 145 185 78
-0.930328 -0.064603 -0.321056 124 165 76
-0.115223 0.287302 -0.324232 98 52 27
-0.131574 0.284986 -0.325390 100 53 30
-0.121981 0.298871 -0.317511 101 53 29
-0.208824 -0.443860 -0.300183 103 56 30
-0.181161 -0.436744 -0.295362 132 72 34
-0.196647 -0.419381 -0.295239 134 75 36
-0.186038 -0.413559 -0.294017 133 73 35
-0.303051 0.331201 -0.577867 43 15 1
-0.189261 0.317049 -0.516762 32 11 1
-0.192903 0.319560 -0.540548 32 9 1
-0.159875 0.159317 -0.354162 40 18 5
-0.150519 0.157403 -0.362384 34 27 34
-0.161472 0.156795 -0.371755 18 5 1
-0.751708 -0.146900 -0.544393 85 83 54
-0.720978 -0.125625 -0.548379 142 141 96
-0.393518 0.323852 -0.265091 74 35 11
-0.395470 0.325687 -0.278939 74 33 12
-0.197227 -0.402158 -0.338248 34 15 1
-0.184898 -0.386397 -0.343607 25 8 1
-0.197291 -0.369365 -0.335667 38 17 2
-0.174160 -0.382072 -0.345075 36 25 29
-0.527261 -0.294265 -0.552214 138 153 74
-0.515444 -0.286733 -0.559520 99 106 58
-0.514524 -0.304120 -0.555434 82 89 45
-0.199854 -0.037289 -0.278272 109 62 38
-0.207993 -0.036229 -0.284828 49 18 2
-0.212713 -0.183955 -0.295994 43 15 2
-0.185159 0.155406 -0.363784 17 5 1
-0.199757 0.161796 -0.366144 22 5 1
-0.177416 0.158086 -0.358287 17 6 1
-0.207850 0.179164 -0.361311 21 6 1
-0.181422 0.241111 -0.536703 27 13 3
-0.174862 0.256039 -0.531336 42 29 33
-0.172359 -0.008995 -0.273049 115 63 37
-0.218339 -0.494132 -0.329758 37 18 4
-0.211948 -0.499310 -0.341482 14 3 1
-0.216840 -0.484963 -0.319721 44 17 6
-0.216882 -0.477067 -0.333116 13 2 1
-0.162359 0.278803 -0.344903 43 30 33
-0.152888 0.255618 -0.322220 36 21 24
-0.161158 0.279460 -0.326192 88 46 24
-0.157459 0.296534 -0.339589 46 31 35
-0.158167 0.292102 -0.320230 84 43 21
-0.144941 0.277806 -0.325019 103 56 31
-0.506128 0.327394 -0.244358 70 34 10
-0.623001 -0.285628 -0.559688 98 103 56
-0.624990 -0.315878 -0.554428 112 118 80
-0.894141 -0.104544 -0.403989 100 66 19
-0.886031 -0.095987 -0.394428 108 97 31
-0.887741 -0.099785 -0.404881 116 108 36
-0.883162 -0.074182 -0.403912 114 102 34
-0.887639 -0.098128 -0.413157 110 116 41
-0.116336 0.157608 -0.473871 16 4 1
-0.126983 0.157042 -0.452243 16 4 1
-0.140315 0.157354 -0.454696 16 5 1
-0.167862 0.322396 -0.461853 34 15 9
-0.182065 0.320890 -0.499913 34 12 2
-0.163499 0.322693 -0.503521 44 29 33
-0.171702 0.325565 -0.507000 37 21 19
-0.160448 0.318016 -0.498010 41 28 32
-0.327768 0.322607 -0.327409 72 33 9
-0.346555 0.327879 -0.343029 68 31 7
-0.210473 -0.196674 -0.316216 34 12 2
-0.285938 0.326865 -0.484837 46 17 1
-0.243075 0.324115 -0.433336 49 18 1
-0.268746 0.326620 -0.476347 47 18 4
-0.251829 0.323975 -0.466916 45 17 2
-0.545753 0.333999 -0.592781 55 46 22
-0.191189 0.216799 -0.501530 26 13 1
-0.197255 0.213044 -0.493728 25 14 1
-0.190169 0.217625 -0.487407 26 13 1
-0.269866 0.323823 -0.390469 60 23 4
-0.148928 0.309613 -0.224433 74 35 12
-0.142487 0.307852 -0.263548 68 32 12
-0.119402 0.306739 -0.229188 72 35 13
-0.144602 0.307699 -0.241581 75 34 12
-0.559507 0.367488 -0.180809 71 37 12
-0.560150 0.361573 -0.171480 70 36 14
-0.556597 0.340121 -0.169018 74 38 14
-0.169150 -0.149722 -0.329651 32 18 11
-0.169933 -0.180755 -0.333027 38 22 19
-0.422858 0.328150 -0.104556 85 44 19
-0.194140 0.077811 -0.270952 109 58 32
-0.188480 0.106038 -0.269775 109 58 31
-0.200524 0.087308 -0.274813 109 57 33
-0.205347 0.097568 -0.282448 92 47 27
-0.472262 0.360074 -0.088925 130 79 43
-0.398421 0.328727 -0.499099 51 19 3
-0.408758 0.329426 -0.480343 52 19 1
-0.418582 0.328397 -0.495586 52 19 2
-0.436479 0.328886 -0.498840 51 19 4
-0.266741 0.311975 -0.176096 81 40 15
-0.271475 0.314320 -0.188407 80 38 15
-0.292049 0.314740 -0.185308 78 38 16
-0.706942 -0.209789 -0.551512 84 83 66
-0.688274 -0.256316 -0.551712 92 92 93
-0.678650 -0.234163 -0.554509 74 74 59
-0.262636 0.322426 -0.412964 53 21 3
-0.276296 0.325417 -0.460447 51 20 1
-0.269724 0.325923 -0.438508 49 20 1
-0.123570 0.305748 -0.298351 97 51 28
-0.105000 0.306576 -0.301214 94 48 25
-0.107475 0.304639 -0.313594 97 50 27
-0.121224 0.305141 -0.310112 94 48 25
-0.552351 0.334790 -0.239024 74 35 12
-0.547497 0.329337 -0.238182 75 35 13
-0.546614 0.327378 -0.218322 75 35 13
-0.709696 -0.018210 -0.392507 71 55 9
-0.693108 -0.007842 -0.393208 71 51 8
-0.701994 -0.027274 -0.384797 77 49 11
-0.678896 -0.011713 -0.382466 79 58 11
-0.682382 -0.023699 -0.383404 77 45 6
-0.772209 -0.166303 -0.546413 135 160 109
-0.760380 -0.162316 -0.545681 130 137 99
-0.203817 0.076066 -0.286748 42 15 2
-0.203219 0.047459 -0.281165 98 56 32
-0.199896 0.064183 -0.275982 88 43 22
-0.201733 -0.102943 -0.311227 47 22 11
-0.222105 -0.624909 -0.319517 45 20 2
-0.220327 -0.615314 -0.315099 46 20 1
-0.209108 -0.625032 -0.304977 88 46 20
-0.213379 -0.610159 -0.306833 56 22 1
-0.179147 0.310215 -0.194226 80 39 16
-0.274583 0.316383 -0.211016 77 37 15
-0.736006 -0.107215 -0.544782 100 67 40
-0.744775 -0.093561 -0.545343 103 69 38
-0.759972 -0.094346 -0.543759 112 89 59
-0.204657 0.316232 -0.488007 33 10 1
-0.196921 0.315172 -0.476840 33 11 1
-0.204198 0.315273 -0.469530 34 10 1
-0.771452 -0.043795 -0.379123 85 116 28
-0.758619 -0.039566 -0.378991 92 122 34
-0.785443 -0.031516 -0.371900 151 192 69
-0.758593 -0.030265 -0.372185 151 191 70
-0.751996 -0.016265 -0.370061 149 189 71
-0.537648 0.329976 -0.454444 60 26 7
-0.517405 0.331997 -0.465273 58 25 6
-0.534505 0.331342 -0.472377 56 23 4
-0.340252 0.327972 -0.390740 62 26 4
-0.344014 0.329627 -0.416319 62 24 4
-0.331628 0.327940 -0.406153 62 24 5
-0.191488 0.308308 -0.164635 82 41 18
-0.160407 0.299606 -0.476310 42 31 34
-0.852734 -0.003026 -0.399409 80 57 11
-0.842633 0.008077 -0.395601 175 200 72
-0.870671 -0.000227 -0.397056 142 155 54
-0.862939 -0.004568 -0.398643 135 149 50
-0.864934 0.005389 -0.396595 129 142 48
-0.856046 0.010608 -0.384250 145 171 54
-0.796468 0.006203 -0.396758 133 152 50
-0.786440 0.002358 -0.397982 128 144 45
-0.770248 0.000261 -0.398496 85 54 15
-0.802904 -0.025668 -0.398085 80 57 11
-0.139206 0.155608 -0.533469 20 5 1
-0.690937 -0.046133 -0.567102 112 88 57
-0.688573 -0.048498 -0.571193 112 88 57
-0.706319 -0.051397 -0.560771 91 59 31
-0.523041 -0.272571 -0.559315 119 133 62
-0.517569 -0.256252 -0.564612 63 61 39
-0.535995 -0.266968 -0.555695 95 96 67
-0.556545 0.335243 -0.563849 49 20 3
-0.553072 0.369429 -0.572866 48 21 2
-0.562207 0.365295 -0.553678 49 21 3
-0.415154 0.321873 -0.176504 77 37 15
-0.380305 0.319231 -0.183903 77 36 16
-0.557543 0.346338 -0.223877 73 38 13
-0.558428 0.364207 -0.264205 71 35 11
-0.174032 -0.119020 -0.328733 36 17 7
-0.192463 -0.111783 -0.319816 36 18 5
-0.176971 -0.098090 -0.326204 29 13 4
-0.167404 -0.057857 -0.321739 26 17 16
-0.161870 0.157773 -0.446409 21 5 1
-0.170240 0.155570 -0.419773 21 5 1
-0.145964 0.155616 -0.416601 17 5 1
-0.156682 0.156114 -0.438164 20 5 1
-0.173676 0.160468 -0.441657 21 5 1
-0.176563 -0.433449 -0.348139 31 23 30
-0.206047 -0.433277 -0.340090 18 4 1
-0.196018 -0.418736 -0.340254 30 14 2
-0.180607 -0.417595 -0.346867 28 17 16
-0.204696 -0.415420 -0.340772 34 16 7
-0.186048 -0.407685 -0.344562 27 15 15
-0.566408 -0.036339 -0.570872 52 30 9
-0.545678 -0.036331 -0.579779 48 27 7
-0.199365 0.213278 -0.527757 26 12 1
-0.191640 0.216232 -0.536811 26 12 1
-0.190213 0.217661 -0.519129 25 13 1
-0.166677 0.244040 -0.302125 96 54 27
-0.172196 0.246541 -0.318954 97 52 27
-0.171657 0.264572 -0.493153 41 29 33
-0.167839 0.274068 -0.473287 49 30 36
-0.374923 -0.563814 -0.403567 186 219 90
-0.496387 -0.260993 -0.578093 76 85 39
-0.218468 -0.475910 -0.308670 44 19 3
-0.214058 -0.476210 -0.302972 51 18 1
-0.910430 -0.059966 -0.435502 117 127 49
-0.184636 -0.153301 -0.326889 30 18 8
-0.188729 -0.124896 -0.322734 32 14 3
-0.508910 0.322736 -0.128759 82 41 17
-0.487329 0.320093 -0.122701 83 40 16
-0.503170 0.319894 -0.104616 86 43 18
-0.243492 0.316174 -0.270031 75 35 11
-0.258341 0.318315 -0.289427 74 34 11
-0.252087 0.315969 -0.256895 74 35 10
-0.244550 0.312911 -0.244416 74 34 11
-0.113279 0.303524 -0.174701 80 38 15
-0.176351 -0.267045 -0.289135 138 81 39
-0.361886 0.323363 -0.271880 72 35 10
-0.362890 0.324295 -0.295546 73 35 10
-0.311197 0.319891 -0.271311 72 35 10
-0.297049 0.320331 -0.262547 74 34 12
-0.177802 0.162587 -0.515574 24 7 1
-0.159428 0.158618 -0.521609 23 8 1
-0.151645 0.157155 -0.481627 21 5 1
-0.660669 -0.278657 -0.552751 119 120 72
-0.643771 -0.280067 -0.557004 73 74 51
-0.643056 -0.295567 -0.557692 144 143 79
-0.159107 0.087734 -0.325601 41 28 33
-0.159852 0.075374 -0.323740 43 29 31
-0.170813 0.088699 -0.320083 43 20 9
-0.220426 -0.579197 -0.326658 37 17 8
-0.219402 -0.583088 -0.343625 21 11 9
-0.213346 -0.562431 -0.346481 15 4 2
-0.141819 0.080148 -0.330302 27 18 20
-0.626555 -0.184718 -0.554633 154 159 112
-0.614712 -0.159804 -0.551733 144 154 108
-0.598182 -0.141641 -0.551117 75 70 50
-0.762424 0.020574 -0.384816 147 175 57
-0.758117 0.018966 -0.392860 156 178 60
-0.745615 0.019676 -0.388791 132 151 45
-0.190094 0.219861 -0.441405 33 14 2
-0.920722 -0.062499 -0.402079 64 49 23
-0.919084 -0.057894 -0.415106 47 44 18
-0.285072 0.312881 -0.155861 80 40 17
-0.300071 0.310825 -0.140057 85 45 22
-0.251244 0.315997 -0.306434 71 31 9
-0.227458 0.315511 -0.319264 73 32 10
-0.147390 0.183462 -0.279197 100 51 28
-0.153102 0.180970 -0.275366 103 54 29
-0.163762 0.170139 -0.271376 106 56 32
-0.162625 0.191721 -0.280284 98 51 27
-0.163019 0.166844 -0.286082 99 52 28
-0.156299 0.186543 -0.283280 98 51 28
-0.139039 0.167091 -0.284665 96 50 26
-0.134307 0.179768 -0.283506 99 52 28
-0.494123 -0.241321 -0.585134 41 38 20
-0.159057 0.064850 -0.323163 45 30 33
-0.163721 0.048138 -0.321601 42 25 27
-0.552320 0.335455 -0.531996 51 20 3
-0.536324 0.328768 -0.525136 50 20 3
-0.214630 -0.523169 -0.341331 14 1 1
-0.195770 -0.521134 -0.348438 18 5 1
-0.507588 -0.319117 -0.561616 18 11 1
-0.500526 -0.313830 -0.574078 14 7 3
-0.511050 -0.334421 -0.565620 32 25 13
-0.516567 -0.332972 -0.558531 22 20 6
-0.515574 0.331075 -0.480742 57 23 4
-0.498239 0.329082 -0.484955 55 21 2
-0.517112 0.328304 -0.494858 51 21 4
-0.214722 -0.348066 -0.303187 39 18 1
-0.214428 -0.310835 -0.319891 39 13 2
-0.204133 -0.316263 -0.294055 106 64 35
-0.210814 -0.313937 -0.298759 43 15 2
-0.213813 -0.300154 -0.303050 41 14 5
-0.207777 -0.344753 -0.297942 122 73 42
-0.173470 0.031751 -0.271636 112 60 35
-0.883934 -0.006276 -0.384673 137 145 51
-0.897081 -0.030059 -0.381466 140 138 48
-0.888298 -0.020410 -0.378345 137 141 49
-0.888997 -0.043553 -0.371380 136 134 46
-0.396858 0.321246 -0.232855 75 36 13
-0.197700 -0.347707 -0.333308 25 11 5
-0.184801 -0.357043 -0.342642 25 9 2
-0.366292 0.326414 -0.351450 69 32 8
-0.552165 0.335181 -0.461613 60 26 7
-0.937748 -0.067066 -0.306297 92 81 40
-0.951447 -0.069068 -0.293643 159 179 84
-0.952429 -0.069151 -0.284355 155 166 72
-0.194986 0.138238 -0.306099 53 25 9
-0.195715 0.159780 -0.301283 53 25 9
-0.194557 0.147942 -0.314582 38 15 3
-0.199226 0.146574 -0.294454 93 48 25
-0.704953 0.006384 -0.373125 151 184 57
-0.682078 0.006883 -0.376235 152 183 58
-0.699934 0.022061 -0.384596 151 183 58
-0.684982 0.020003 -0.379393 151 183 59
-0.158069 0.071375 -0.269296 112 59 35
-0.201767 0.207282 -0.468244 23 7 1
-0.190487 0.214367 -0.468830 28 13 2
-0.151032 0.310303 -0.114174 98 49 26
-0.129691 0.312182 -0.114199 94 48 24
-0.147979 0.315743 -0.106463 95 49 25
-0.402777 0.329410 -0.398449 59 25 4
-0.344315 0.328525 -0.431237 56 23 3
-0.307839 0.327033 -0.427672 55 22 2
-0.323818 0.326181 -0.443527 54 22 2
-0.711376 -0.061243 -0.554569 94 57 25
-0.712907 -0.082878 -0.548519 88 57 31
-0.702649 -0.076722 -0.548212 89 58 31
-0.692453 -0.052173 -0.558080 131 120 87
-0.714347 -0.099518 -0.546060 86 59 32
-0.699898 -0.093871 -0.544726 91 68 40
-0.136612 0.183002 -0.275660 106 56 31
-0.108358 0.180189 -0.276274 104 57 31
-0.127645 0.169151 -0.271349 104 57 32
-0.124911 0.168245 -0.285974 99 54 30
-0.132606 0.185235 -0.279585 96 50 27
-0.115237 0.185140 -0.279244 105 57 33
-0.313644 0.318597 -0.231710 77 35 14
-0.303680 0.316116 -0.178394 77 36 14
-0.289911 0.316445 -0.205033 78 38 14
-0.736027 -0.063242 -0.555561 94 57 26
-0.730094 -0.081161 -0.549221 99 65 30
-0.822447 0.014873 -0.384974 141 162 53
-0.812512 0.012436 -0.389305 144 165 54
-0.800031 0.014800 -0.383356 153 175 58
-0.380194 -0.556305 -0.419024 109 125 45
-0.556253 0.340062 -0.203777 72 36 12
-0.559733 0.356515 -0.209592 71 35 14
-0.548473 0.329226 -0.100262 90 43 19
-0.552309 0.327606 -0.121189 88 42 19
-0.909659 -0.062904 -0.354690 135 114 58
-0.909642 -0.060598 -0.374881 80 92 41
-0.910792 -0.110017 -0.311088 108 84 25
-0.199994 -0.339661 -0.294879 134 76 35
-0.170358 -0.356010 -0.292403 138 79 37
-0.311657 0.315168 -0.157680 78 38 18
-0.165628 0.326791 -0.592641 41 30 33
-0.200264 0.320918 -0.096193 108 60 24
-0.191890 0.326543 -0.096106 115 68 34
-0.203611 0.311837 -0.411841 44 16 1
-0.197171 0.310679 -0.405119 43 16 2
-0.203935 0.307558 -0.386851 47 19 2
-0.215671 0.318364 -0.400268 48 18 1
-0.719104 -0.242121 -0.549462 142 143 104
-0.706904 -0.240390 -0.551057 111 118 86
-0.160215 0.314738 -0.363590 65 36 26
-0.157939 0.307115 -0.385430 50 34 36
-0.637773 -0.198529 -0.556458 120 128 96
-0.659855 -0.234846 -0.555993 79 73 56
-0.657295 -0.196452 -0.556742 76 73 53
-0.648013 -0.217291 -0.557586 107 108 76
-0.413314 0.329409 -0.516837 51 19 4
-0.417508 0.328147 -0.547589 50 18 3
-0.448142 0.328574 -0.531851 50 19 2
-0.422583 0.328126 -0.530033 50 19 3
-0.488112 -0.505611 -0.414583 180 221 79
-0.489942 -0.500735 -0.407407 179 220 76
-0.850741 -0.054203 -0.381817 95 137 37
-0.877275 -0.046001 -0.369128 144 178 59
-0.873857 -0.059741 -0.371288 126 167 54
-0.870682 -0.066641 -0.380793 118 162 49
-0.124169 0.139659 -0.346714 44 29 34
-0.535076 0.325759 -0.586042 56 37 9
-0.531156 0.325177 -0.568529 60 44 13
-0.551890 0.331109 -0.563742 47 22 5
-0.212978 -0.116318 -0.304837 36 14 1
-0.210842 -0.118636 -0.311756 33 12 5
-0.211937 -0.120990 -0.291944 39 16 1
-0.557188 0.347386 -0.250543 71 36 11
-0.556787 0.344879 -0.277028 72 34 13
-0.553352 0.334747 -0.265762 73 34 12
-0.195433 0.160617 -0.283062 98 54 32
-0.190782 0.156730 -0.271212 105 57 33
-0.191386 0.173641 -0.276852 101 55 32
-0.178838 0.167712 -0.271263 105 56 31
-0.275520 0.319165 -0.324634 71 32 7
-0.498980 0.322578 -0.166938 75 38 16
-0.498488 0.322403 -0.187673 75 36 12
-0.519114 0.320745 -0.158115 74 37 13
-0.136076 0.158831 -0.559027 19 5 1
-0.132732 0.160017 -0.566034 18 5 1
-0.143368 0.161661 -0.584881 21 6 1
-0.115016 0.159618 -0.564773 19 5 1
-0.169834 -0.254682 -0.337569 54 27 14
-0.178569 -0.280902 -0.339389 31 14 3
-0.179551 -0.262422 -0.336924 51 29 19
-0.687209 -0.141089 -0.551462 83 82 61
-0.499058 0.321101 -0.151612 74 36 13
-0.497799 0.323503 -0.135994 79 38 14
-0.442662 0.327960 -0.277801 76 34 12
-0.858057 -0.022843 -0.402605 72 66 10
-0.834225 -0.019499 -0.400716 90 59 16
-0.858935 -0.040559 -0.399779 97 70 22
-0.873232 -0.025103 -0.402104 92 67 20
-0.656986 -0.120458 -0.549617 97 94 65
-0.630919 -0.103404 -0.547344 78 72 51
-0.598057 -0.202849 -0.554407 72 69 50
-0.587304 -0.229564 -0.554102 73 71 46
-0.322046 0.316110 -0.119389 87 45 21
-0.344136 0.319999 -0.112583 95 49 22
-0.322645 0.321354 -0.103813 93 49 20
-0.340456 0.334723 -0.101242 94 49 21
-0.173732 0.101314 -0.267960 106 57 32
-0.162952 0.122266 -0.266898 106 57 32
-0.302827 0.320705 -0.282573 73 31 12
-0.313211 0.323039 -0.305586 72 33 12
-0.549595 -0.287412 -0.551279 118 115 73
-0.568892 -0.289647 -0.554280 93 88 52
-0.204811 0.169108 -0.368710 25 8 1
-0.221890 -0.560540 -0.338530 12 3 1
-0.222505 -0.543137 -0.336057 34 16 6
-0.148357 0.156917 -0.387303 17 3 1
-0.142463 0.155704 -0.398504 13 5 2
-0.127126 0.152862 -0.405032 11 3 1
-0.502010 -0.398388 -0.576299 28 21 5
-0.475020 0.321889 -0.137378 77 37 15
-0.210513 0.319459 -0.576359 27 7 1
-0.219244 0.325994 -0.571075 28 7 1
-0.208592 0.321478 -0.552857 32 9 2
-0.197083 0.320863 -0.565064 27 8 1
-0.199159 0.322679 -0.538663 27 8 1
-0.410776 0.349026 -0.096743 72 36 14
-0.375858 0.343921 -0.097700 71 36 17
-0.398253 0.329166 -0.103791 84 42 19
-0.213469 -0.379275 -0.304993 42 15 1
-0.214882 -0.383962 -0.315301 42 17 1
-0.204900 -0.389568 -0.298532 54 17 1
-0.561263 0.359659 -0.569748 48 21 3
-0.544651 -0.187290 -0.556254 85 82 58
-0.541992 -0.161504 -0.556571 76 73 51
-0.774335 -0.097282 -0.543193 101 88 65
-0.152680 -0.124190 -0.280670 130 81 62
-0.481623 0.327345 -0.254779 72 35 12
-0.207232 -0.001141 -0.295519 38 15 2
-0.209102 -0.020275 -0.295653 39 15 1
-0.196284 0.003279 -0.300084 63 30 14
-0.210272 -0.000328 -0.290668 42 14 1
-0.208094 -0.182723 -0.289960 171 143 129
-0.199782 -0.175925 -0.285740 180 150 136
-0.533481 -0.247532 -0.557921 87 81 63
-0.555677 -0.257008 -0.554865 87 81 62
-0.557217 -0.273482 -0.554046 81 78 53
-0.878825 -0.075511 -0.394874 84 68 15
-0.890663 -0.065287 -0.412103 100 66 19
-0.890533 -0.049932 -0.408262 98 66 19
-0.318995 0.326802 -0.374523 63 26 4
-0.300183 0.324458 -0.371834 66 28 7
-0.293772 0.322533 -0.352542 66 26 5
-0.311072 0.321137 -0.252420 74 34 11
-0.298327 0.315998 -0.237075 76 35 13
-0.181419 0.310015 -0.261032 72 34 11
-0.163356 0.306588 -0.277669 72 32 10
-0.672097 -0.058245 -0.551406 89 63 24
-0.672591 -0.043722 -0.568200 112 98 69
-0.648977 -0.035741 -0.567713 107 82 47
-0.664736 -0.042899 -0.562258 92 65 27
-0.202728 0.047121 -0.290921 48 20 6
-0.195381 0.045172 -0.295502 100 53 29
-0.191653 0.067071 -0.299706 82 44 21
-0.208284 0.188387 -0.374124 23 7 1
-0.201497 0.201776 -0.361258 27 10 1
-0.206178 0.185964 -0.356684 22 7 1
-0.204726 0.193989 -0.389032 25 8 1
-0.802655 -0.035066 -0.394381 89 54 13
-0.776208 -0.046474 -0.383497 75 60 10
-0.800545 -0.048481 -0.384884 72 61 7
-0.452275 0.320007 -0.124165 84 42 18
-0.443179 0.320321 -0.111739 85 43 18
-0.473477 0.320971 -0.101616 88 44 18
-0.466034 0.336263 -0.093297 88 44 18
-0.472120 0.317391 -0.110512 88 43 20
-0.446332 0.327265 -0.100554 88 43 19
-0.498820 0.329122 -0.373844 68 29 8
-0.642292 -0.238885 -0.555457 91 89 61
-0.657697 -0.258809 -0.555059 91 89 61
-0.171096 0.263309 -0.448903 45 33 35
-0.138247 0.306103 -0.147107 85 42 18
-0.157995 0.306630 -0.153054 85 42 17
-0.145065 0.307655 -0.129591 87 44 21
-0.195290 -0.066198 -0.277776 114 63 41
-0.214709 -0.444137 -0.307211 44 18 1
-0.216852 -0.451559 -0.312412 41 18 2
-0.347109 0.330107 -0.504530 50 18 3
-0.343085 0.331060 -0.485718 53 19 1
-0.327987 0.329099 -0.476403 51 18 1
-0.826229 -0.065390 -0.561938 125 114 80
-0.804033 -0.059037 -0.563883 129 112 75
-0.844028 -0.052748 -0.572164 105 98 79
-0.839681 -0.061128 -0.565320 114 102 74
-0.828111 -0.051959 -0.572237 118 111 83
-0.832621 -0.086625 -0.553649 121 114 80
-0.564546 -0.146864 -0.552120 128 128 83
-0.189358 0.316752 -0.495065 31 10 1
-0.205955 0.314684 -0.503236 28 7 1
-0.223700 0.324056 -0.468358 37 11 1
-0.225921 0.324032 -0.500353 37 10 1
-0.214420 0.321733 -0.473767 34 10 1
-0.411035 0.319192 -0.144415 77 38 16
-0.404061 0.319033 -0.135131 79 41 18
-0.170575 0.207315 -0.287815 95 49 25
-0.161956 0.221050 -0.314385 61 34 23
-0.181837 -0.187457 -0.331256 33 14 3
-0.547264 -0.356275 -0.555610 75 82 33
-0.523189 -0.343555 -0.553763 55 49 29
-0.536273 -0.359162 -0.553021 56 56 33
-0.548022 -0.335973 -0.548409 72 74 63
-0.538128 -0.342633 -0.548811 62 63 56
-0.523207 -0.348006 -0.561440 56 54 33
-0.555573 -0.357960 -0.555688 72 82 34
-0.891821 -0.106360 -0.384971 106 125 46
-0.892301 -0.109831 -0.413503 100 69 21
-0.208468 0.179460 -0.397162 25 8 1
-0.199724 0.202097 -0.415152 27 9 1
-0.410543 -0.550261 -0.402705 186 216 98
-0.621407 -0.331492 -0.554750 108 119 59
-0.581494 -0.367746 -0.561836 108 115 73
-0.603869 -0.352240 -0.560758 84 88 47
-0.585521 -0.351446 -0.558938 104 113 62
-0.596923 -0.337122 -0.554526 74 84 30
-0.198415 -0.137152 -0.283810 176 141 128
-0.199072 -0.112200 -0.281762 141 107 90
-0.184829 -0.140459 -0.282501 144 101 86
-0.509325 0.329821 -0.431001 63 27 5
-0.206576 0.199695 -0.514862 26 9 1
-0.208557 0.194541 -0.491745 24 8 1
-0.208367 0.179763 -0.505620 24 8 1
-0.212093 0.188781 -0.482636 26 8 1
-0.197783 0.211498 -0.396268 26 9 1
-0.186698 0.219700 -0.395067 33 15 6
-0.194528 0.215769 -0.426841 29 11 1
-0.187161 0.218250 -0.385027 29 13 1
-0.173478 0.192242 -0.294989 100 53 29
-0.166572 0.198682 -0.284362 99 52 28
-0.172113 0.169763 -0.291845 96 52 31
-0.168147 0.198943 -0.308955 99 54 31
-0.699208 -0.028863 -0.377525 134 174 62
-0.684687 -0.015417 -0.373526 95 113 40
-0.708043 -0.015666 -0.371129 151 190 58
-0.689492 -0.010263 -0.371221 157 188 74
-0.432734 0.321564 -0.205260 79 37 14
-0.159194 0.300591 -0.402153 46 31 33
-0.159605 0.312970 -0.398318 47 31 33
-0.251760 0.328627 -0.524324 38 13 1
-0.232855 0.327290 -0.515963 40 14 1
-0.219818 0.325308 -0.530979 34 11 1
-0.743589 -0.036619 -0.379937 96 125 34
-0.720226 -0.035982 -0.379094 90 111 29
-0.737904 -0.037663 -0.383655 75 83 14
-0.212070 -0.323575 -0.327309 19 4 1
-0.207706 -0.340278 -0.334103 30 11 2
-0.198973 -0.317796 -0.330330 29 12 4
-0.457739 0.328046 -0.501338 52 21 2
-0.162969 0.289595 -0.504903 44 30 32
-0.157665 0.022578 -0.324140 22 15 16
-0.160402 0.033638 -0.320077 30 18 19
-0.173529 0.018886 -0.319981 27 17 18
-0.166865 0.008932 -0.320408 24 17 15
-0.175699 0.254564 -0.563403 41 28 33
-0.186645 0.227517 -0.548963 37 21 21
-0.207041 0.180330 -0.434549 25 8 1
-0.134511 0.291396 -0.323487 100 52 28
-0.367938 0.324494 -0.308194 73 32 9
-0.565031 -0.037164 -0.575967 107 97 62
-0.704860 -0.119021 -0.549798 75 72 45
-0.161889 -0.229411 -0.285995 141 83 44
-0.177371 -0.209361 -0.284634 146 91 57
-0.681763 -0.004887 -0.391355 72 64 8
-0.701079 0.010873 -0.395673 131 151 47
-0.690316 0.017181 -0.391643 128 145 45
-0.679437 0.011065 -0.385080 127 143 47
-0.920040 -0.110326 -0.293441 143 204 73
-0.202615 0.168768 -0.480399 25 8 1
-0.203664 0.171457 -0.512501 24 7 1
-0.179331 0.161878 -0.483240 25 7 1
-0.193579 0.164536 -0.512240 24 7 1
-0.192297 0.163917 -0.488629 25 8 1
-0.164918 -0.132744 -0.330124 40 21 13
-0.214133 -0.372955 -0.321659 32 13 4
-0.209339 -0.367372 -0.332230 22 7 2
-0.207669 -0.384898 -0.337217 22 5 1
-0.499710 0.329948 -0.389684 65 30 6
-0.520708 0.328336 -0.409878 67 30 8
-0.177720 0.231802 -0.319486 72 35 16
-0.183193 0.218252 -0.340056 62 30 11
-0.731266 0.021921 -0.386172 137 164 54
-0.727439 0.009248 -0.398585 76 64 12
-0.712011 0.008113 -0.397275 83 86 19
-0.715571 0.018092 -0.396214 70 61 10
-0.163423 0.306616 -0.125824 86 46 22
-0.178762 0.308081 -0.135185 86 44 20
-0.177168 0.307070 -0.153597 87 43 20
-0.190588 0.306568 -0.138238 86 42 19
-0.151766 0.306135 -0.180096 83 40 17
-0.155151 0.306747 -0.168469 86 41 18
-0.666595 -0.170645 -0.553661 72 68 54
-0.691406 -0.176674 -0.552795 71 69 51
-0.333481 0.314958 -0.135774 81 41 20
-0.367731 0.321663 -0.249433 75 36 12
-0.198384 -0.234074 -0.287453 182 138 121
-0.810974 0.003256 -0.375395 149 175 54
-0.814436 -0.014718 -0.369506 150 178 55
-0.535605 0.326363 -0.549883 49 20 3
-0.942120 -0.079852 -0.278150 163 188 86
-0.552503 0.335840 -0.344153 73 33 11
-0.220306 -0.538116 -0.339560 17 5 3
-0.219077 -0.532863 -0.320559 40 18 3
-0.220679 -0.516361 -0.333830 14 2 1
-0.218389 -0.505074 -0.319712 42 19 2
-0.676725 -0.289284 -0.551040 92 94 92
-0.675004 -0.258877 -0.553606 107 113 77
-0.131113 0.146393 -0.268007 105 58 32
-0.388003 0.322341 -0.244947 73 34 10
-0.209741 0.310670 -0.193207 84 41 17
-0.220961 0.306271 -0.154532 81 42 18
-0.202653 0.309035 -0.173784 80 42 16
-0.432157 0.330213 -0.343123 75 33 12
-0.229670 0.328094 -0.552740 35 12 1
-0.222620 0.327764 -0.555587 32 12 1
-0.239765 0.327379 -0.579602 31 10 1
-0.559424 0.354994 -0.282729 71 34 12
-0.560127 0.365061 -0.316547 69 33 12
-0.518839 -0.393787 -0.567874 69 69 34
-0.411493 0.321486 -0.216845 77 36 13
-0.410216 0.320316 -0.202312 75 36 12
-0.387049 0.320641 -0.199192 72 34 10
-0.524928 0.326514 -0.216327 75 35 13
-0.539583 0.322883 -0.193417 76 36 13
-0.518324 0.323790 -0.196242 76 35 12
-0.548480 0.326074 -0.198464 77 37 14
-0.456988 0.327757 -0.400875 65 28 7
-0.480870 0.328064 -0.398541 65 28 6
-0.189052 -0.303447 -0.335641 22 8 2
-0.185518 -0.341860 -0.340521 27 12 4
-0.182201 -0.324598 -0.340596 34 16 4
-0.170581 -0.316714 -0.341119 38 24 27
-0.172574 -0.347219 -0.343958 37 27 29
-0.115794 0.306416 -0.214017 78 37 15
-0.112060 0.306679 -0.197880 81 39 15
-0.383457 0.330703 -0.533430 48 16 1
-0.370245 0.331354 -0.522398 50 18 3
-0.379048 0.329152 -0.499087 49 18 3
-0.159687 0.305679 -0.443308 44 33 36
-0.160446 0.315875 -0.431050 48 30 34
-0.162313 0.317061 -0.448021 47 32 35
-0.459730 0.324722 -0.299931 77 35 12
-0.161925 0.291385 -0.528513 44 30 33
-0.219668 -0.560474 -0.315433 43 18 3
-0.207579 -0.550877 -0.348888 25 9 2
-0.144866 0.156543 -0.428480 15 5 1
-0.124000 0.152553 -0.430930 15 4 1
-0.181927 0.181872 -0.276063 104 57 33
-0.192124 0.169347 -0.293486 98 54 28
-0.548048 0.327771 -0.261088 74 35 11
-0.594626 -0.289177 -0.555678 136 134 77
-0.591460 -0.309125 -0.555712 112 112 60
-0.605986 -0.304932 -0.554410 93 94 53
-0.460359 0.324506 -0.243702 73 36 11
-0.476086 0.324396 -0.234165 71 34 11
-0.171233 0.061505 -0.319581 42 20 8
-0.557214 0.344535 -0.376886 71 34 10
-0.558733 0.367011 -0.381138 70 33 10
-0.519608 0.329249 -0.094470 90 44 18
-0.499273 0.325041 -0.097952 90 44 16
-0.899565 -0.082438 -0.337330 104 94 23
-0.904669 -0.097808 -0.320007 109 71 21
-0.905726 -0.081511 -0.324650 107 75 21
-0.896922 -0.097626 -0.335469 102 80 18
-0.888711 -0.090768 -0.347921 140 141 54
-0.152916 0.268334 -0.306967 97 51 28
-0.155315 0.274469 -0.305210 95 48 25
-0.150732 0.282293 -0.305286 94 48 23
-0.139542 0.289653 -0.317239 99 53 29
-0.132024 0.302127 -0.314922 97 51 27
-0.159383 0.278812 -0.313249 97 53 27
-0.146726 0.287849 -0.304950 95 49 25
-0.194317 0.167288 -0.524784 25 7 1
-0.198209 0.172195 -0.553819 27 7 1
-0.191941 0.169712 -0.556849 25 7 1
-0.186601 0.168644 -0.554992 24 6 1
-0.202574 0.123088 -0.292568 67 29 12
-0.205755 0.114215 -0.285765 67 30 12
-0.200164 0.136720 -0.284258 59 24 7
-0.184430 0.132648 -0.267075 105 55 30
-0.200198 0.141975 -0.274791 83 43 24
-0.200748 0.122645 -0.275206 72 34 17
-0.195888 0.137010 -0.270695 104 57 32
-0.148295 -0.061387 -0.276442 113 65 41
-0.188443 0.040010 -0.307236 68 39 24
-0.190295 -0.004029 -0.311239 40 18 4
-0.179136 0.002176 -0.319526 39 19 6
-0.173427 0.033847 -0.318938 44 27 32
-0.179464 0.033883 -0.315976 38 18 4
-0.166781 0.019626 -0.315909 26 16 14
-0.198578 0.308497 -0.112996 91 47 22
-0.225303 0.308690 -0.108343 91 47 22
-0.233084 0.312196 -0.102895 95 46 21
-0.206553 0.311569 -0.103165 90 46 21
-0.473379 0.328157 -0.384464 68 32 9
-0.190889 0.187756 -0.313621 35 17 3
-0.172626 0.208186 -0.303797 100 55 30
-0.192850 0.179261 -0.304806 41 20 5
-0.185384 0.190443 -0.286620 95 52 27
-0.129918 0.156703 -0.476200 15 5 1
-0.102793 0.156637 -0.482676 14 4 1
-0.131893 0.158483 -0.508601 15 5 1
-0.142074 0.157956 -0.494318 17 5 1
-0.428767 0.326306 -0.272713 75 35 12
-0.411702 0.324062 -0.263433 76 37 12
-0.489302 0.327499 -0.301101 71 32 8
-0.138823 0.115808 -0.334762 40 25 26
-0.142859 0.135261 -0.339597 41 29 33
-0.128371 0.125139 -0.338982 25 16 19
-0.150559 0.105275 -0.330504 35 25 27
-0.205368 -0.075200 -0.307415 35 15 2
-0.211260 -0.099307 -0.307404 37 15 1
-0.212762 -0.095858 -0.295947 43 15 1
-0.192237 0.312058 -0.382518 46 18 4
-0.184570 0.312783 -0.378956 44 18 4
-0.165795 0.320545 -0.380454 54 26 11
-0.171589 0.319137 -0.368108 41 19 5
-0.155915 0.309732 -0.253525 73 35 10
-0.146568 0.306635 -0.276071 71 32 9
-0.128174 0.307988 -0.275062 65 29 9
-0.162540 0.304684 -0.283681 78 37 13
-0.343072 0.328921 -0.461675 52 20 1
-0.429577 -0.535582 -0.402839 185 212 105
-0.427014 -0.534791 -0.413353 184 219 84
-0.418046 -0.538777 -0.407204 162 188 69
-0.278222 0.318964 -0.101051 101 51 22
-0.345739 0.318798 -0.147160 81 41 18
-0.333128 0.315080 -0.144872 81 41 18
-0.336339 0.318270 -0.158989 80 40 20
-0.746012 -0.056307 -0.557892 109 74 39
-0.753594 -0.056272 -0.566303 107 72 43
-0.167129 0.279304 -0.586403 40 28 32
-0.870354 -0.058311 -0.397096 88 64 16
-0.874440 -0.066674 -0.393464 90 63 18
-0.859086 -0.058450 -0.387743 85 58 15
-0.847219 -0.049646 -0.390346 61 71 11
-0.371790 0.317593 -0.119746 90 45 20
-0.182995 0.304425 -0.321840 49 19 3
-0.184902 0.313591 -0.355609 49 18 3
-0.171778 0.313762 -0.325225 59 26 10
-0.180959 0.310826 -0.338888 49 18 2
-0.188292 0.307277 -0.331342 54 21 4
-0.169343 0.318639 -0.336409 53 21 5
-0.170239 0.319840 -0.352764 89 45 27
-0.798810 -0.043230 -0.376764 95 136 40
-0.786375 -0.046112 -0.378117 88 126 35
-0.788893 -0.017886 -0.369516 151 186 57
-0.756501 -0.185369 -0.546406 69 70 54
-0.761134 -0.188351 -0.545620 72 78 58
-0.198992 0.177181 -0.331581 27 10 1
-0.192983 0.190099 -0.328855 34 14 1
-0.199493 0.198877 -0.349056 23 8 1
-0.207250 0.179548 -0.347035 22 8 1
-0.585331 -0.201102 -0.554425 137 133 101
-0.565142 -0.188546 -0.553424 147 143 106
-0.509022 -0.198385 -0.575043 38 29 17
-0.509163 0.327347 -0.292403 69 32 9
-0.499809 0.326498 -0.278289 72 33 10
-0.462667 0.327467 -0.267479 75 34 11
-0.436697 0.325550 -0.257740 75 34 11
-0.177536 -0.046876 -0.321149 42 23 17
-0.817975 -0.085256 -0.549969 119 112 83
-0.184129 -0.236572 -0.333934 33 13 2
-0.171013 -0.231653 -0.335608 40 26 29
-0.164895 -0.224407 -0.338112 37 27 28
-0.524795 0.327734 -0.332053 70 33 9
-0.497142 0.326644 -0.329690 68 29 8
-0.159102 -0.158604 -0.282453 135 80 46
-0.132310 -0.144300 -0.281925 132 79 47
-0.179212 -0.175927 -0.283684 163 116 93
-0.195781 -0.087074 -0.315599 41 17 3
-0.191367 0.099442 -0.301484 39 17 2
-0.204800 0.091830 -0.287489 47 16 4
-0.215455 -0.295656 -0.309594 37 15 3
-0.207550 -0.284592 -0.294388 60 23 4
-0.214963 -0.278716 -0.300907 40 14 2
-0.639487 -0.040137 -0.559099 124 101 63
-0.660066 -0.047098 -0.555705 112 83 44
-0.632885 -0.049203 -0.553636 126 97 57
-0.652817 -0.042278 -0.570035 129 102 63
-0.638041 -0.042274 -0.570519 132 110 69
-0.898686 -0.112369 -0.347387 131 185 68
-0.401852 0.330764 -0.569849 44 16 1
-0.625633 -0.081471 -0.545853 89 71 38
-0.649198 -0.084477 -0.545104 148 139 101
-0.166541 0.237001 -0.309653 99 54 29
-0.159714 0.254926 -0.305238 97 51 27
-0.161389 0.259161 -0.303371 95 48 25
-0.158379 0.232578 -0.317763 94 52 30
-0.159072 0.253349 -0.315108 100 53 29
-0.166685 0.252133 -0.309687 98 53 27
-0.548087 0.330215 -0.414112 67 31 7
-0.542691 0.330638 -0.379959 71 33 10
-0.339359 0.330880 -0.512068 45 17 1
-0.545429 0.326699 -0.290403 74 35 10
-0.538078 0.325132 -0.314639 74 35 10
-0.508875 0.327827 -0.316115 69 31 9
-0.530976 0.326492 -0.285063 74 34 10
-0.548042 0.327391 -0.318845 75 36 11
-0.353228 0.319966 -0.169183 76 36 15
-0.322851 0.318857 -0.175447 78 37 15
-0.328666 0.319082 -0.189517 76 39 14
-0.341461 0.320703 -0.194287 76 37 14
-0.238392 0.310719 -0.198137 79 38 14
-0.200350 0.317267 -0.516129 29 9 1
-0.193911 0.315130 -0.524582 30 10 1
-0.208471 0.318550 -0.531289 32 9 1
-0.216936 0.324262 -0.518037 34 9 1
-0.214369 0.321826 -0.504029 32 7 1
-0.234644 0.322936 -0.451214 43 15 3
-0.534380 0.329364 -0.384093 66 30 6
-0.154469 0.301671 -0.307370 95 49 24
-0.159830 0.306649 -0.313481 94 51 26
-0.133737 0.303278 -0.297639 98 52 27
-0.157056 0.298999 -0.291727 103 53 30
-0.143945 0.303236 -0.299463 101 52 27
-0.415971 0.319912 -0.113283 86 41 19
-0.396870 0.321124 -0.114986 85 43 21
-0.264271 0.321769 -0.371924 63 26 6
-0.259110 0.318833 -0.344073 65 26 5
-0.177214 0.088585 -0.315643 46 21 7
-0.184792 0.086397 -0.308734 40 16 4
-0.208551 0.195051 -0.412662 25 8 1
-0.208353 0.186279 -0.394641 25 8 1
-0.214810 -0.422768 -0.308907 41 17 2
-0.215061 -0.408610 -0.307601 42 17 1
-0.202107 -0.412569 -0.297525 52 13 1
-0.481949 0.328803 -0.502030 49 20 2
-0.475792 0.329452 -0.526930 48 19 2
-0.203404 0.311107 -0.294220 69 31 8
-0.237511 0.315652 -0.291608 72 30 10
-0.198070 0.302471 -0.311885 61 26 7
-0.214042 0.313598 -0.287193 70 31 9
-0.186708 0.310329 -0.245172 74 35 12
-0.184454 0.309946 -0.211408 76 36 14
-0.164314 0.309362 -0.234897 75 35 13
-0.185708 0.308718 -0.232021 75 34 10
-0.185546 -0.246284 -0.287395 141 81 43
-0.489302 0.329525 -0.355314 70 32 9
-0.543968 0.341268 -0.092674 90 44 19
-0.520388 0.346929 -0.089779 117 68 35
-0.541884 0.357261 -0.090125 116 67 33
-0.204795 -0.480566 -0.343918 17 5 1
-0.186463 -0.497945 -0.350043 36 26 32
-0.196814 -0.495365 -0.344346 42 23 12
-0.535178 -0.072840 -0.570553 42 20 6
-0.259852 0.325939 -0.487039 44 15 1
-0.238622 0.322714 -0.486062 42 14 2
-0.161321 0.160552 -0.459781 24 6 1
-0.187171 0.162929 -0.473096 24 8 1
-0.518945 0.328922 -0.359748 71 33 12
-0.539666 0.329034 -0.348888 73 31 10
-0.537323 0.328706 -0.370700 72 31 11
-0.558924 0.366182 -0.345475 71 33 12
-0.555922 0.342445 -0.346711 72 32 10
-0.556351 0.340388 -0.319194 73 34 11
-0.559971 0.357170 -0.337632 73 34 11
-0.540950 -0.102162 -0.560586 88 84 52
-0.523857 -0.101966 -0.572924 42 24 12
-0.551694 -0.086588 -0.555485 79 76 46
-0.548556 -0.078814 -0.558131 113 116 73
-0.140649 0.149290 -0.289861 102 55 33
-0.126026 0.145252 -0.289047 105 55 32
-0.247029 0.312636 -0.224831 77 36 11
-0.229264 0.312415 -0.243127 73 35 12
-0.472296 0.328838 -0.354281 73 33 10
-0.462335 0.328680 -0.332119 71 32 10
-0.209741 0.189768 -0.447403 24 8 1
-0.208025 0.196894 -0.432462 25 9 1
-0.209183 0.189735 -0.409351 24 7 1
-0.547099 0.331270 -0.443407 62 26 5
-0.552761 0.336522 -0.443050 65 27 8
-0.186807 0.311926 -0.453126 39 16 5
-0.197527 0.315861 -0.458985 36 13 1
-0.188064 0.313627 -0.475516 35 12 2
-0.176334 0.322346 -0.469469 39 16 4
-0.163452 0.320765 -0.460450 43 29 34
-0.352055 0.330660 -0.523752 50 18 2
-0.367104 0.328426 -0.484499 53 20 2
-0.199889 -0.448379 -0.295659 128 70 33
-0.199728 -0.206247 -0.322109 27 9 1
-0.186437 -0.208468 -0.331485 27 11 2
-0.207952 -0.215159 -0.319809 23 6 1
-0.196207 -0.552759 -0.349963 26 20 29
-0.184138 0.062441 -0.269846 107 57 34
-0.156838 0.040903 -0.269816 112 60 35
-0.683863 -0.081299 -0.546674 132 125 92
-0.667901 -0.083170 -0.546217 123 117 84
-0.809934 -0.107711 -0.542458 136 138 116
-0.786343 -0.096422 -0.544028 147 145 103
-0.616333 -0.075661 -0.545798 76 60 41
-0.801853 -0.007423 -0.370455 148 174 54
-0.780718 -0.005431 -0.370903 149 177 56
-0.784379 0.007742 -0.375933 150 180 52
-0.472729 0.329587 -0.489403 56 23 4
-0.160635 0.287169 -0.373403 50 33 36
-0.607819 -0.040346 -0.558395 78 51 25
-0.605477 -0.032669 -0.567267 79 56 31
-0.587372 -0.039732 -0.576181 84 69 43
-0.592550 -0.033938 -0.570456 80 65 41
-0.832628 -0.028523 -0.369066 150 180 58
-0.810221 -0.028729 -0.368157 151 180 57
-0.194265 -0.175059 -0.323781 32 12 2
-0.853622 -0.047375 -0.372004 135 177 60
-0.837878 -0.042542 -0.372416 130 174 58
-0.815705 -0.042979 -0.373781 96 135 35
-0.500236 -0.501043 -0.403221 177 210 88
-0.482350 -0.508158 -0.411850 103 122 48
-0.484292 -0.504576 -0.402439 118 136 57
-0.145862 0.149919 -0.347324 43 30 36
-0.119271 0.152164 -0.357792 42 29 33
-0.199760 -0.069389 -0.309239 35 14 3
-0.135851 0.155791 -0.359652 35 27 33
-0.127969 0.158144 -0.392581 33 27 34
-0.209171 -0.054044 -0.300074 56 28 13
-0.209955 -0.067746 -0.303808 43 18 6
-0.353186 0.328575 -0.565344 44 16 2
-0.350342 0.330537 -0.543629 44 16 2
-0.334139 0.331364 -0.574369 42 14 1
-0.334910 0.332873 -0.552912 43 15 1
-0.475359 0.325168 -0.209323 74 35 13
-0.459172 0.323145 -0.204081 76 36 13
-0.459374 0.321965 -0.225087 76 36 13
-0.208785 0.186589 -0.518300 25 7 1
-0.209617 0.194536 -0.534002 25 7 1
-0.207996 0.188621 -0.546801 25 6 1
-0.207957 0.203408 -0.540223 26 7 1
-0.192109 0.162557 -0.435080 26 9 1
-0.190818 0.160101 -0.413347 25 8 1
-0.202701 0.170665 -0.426308 26 8 1
-0.544068 -0.314644 -0.549052 139 144 80
-0.572703 -0.325704 -0.553087 111 123 65
-0.555545 -0.300291 -0.551228 117 124 64
-0.566841 -0.338811 -0.552814 116 124 78
-0.553706 -0.318875 -0.551235 131 142 75
-0.222603 -0.630738 -0.315113 46 19 2
-0.214026 -0.626999 -0.308022 46 20 3
-0.200439 -0.637957 -0.303767 122 70 42
-0.478586 0.327037 -0.313045 75 33 10
-0.466543 0.326884 -0.281106 72 34 11
-0.461373 0.324798 -0.311885 73 33 10
