ply
format ascii 1.0
element vertex 1258
property float x
property float y
property float z
property uchar red
property uchar green
property uchar blue
end_header
0.003964 0.039138 0.090304 0 255 255
0.009603 0.028903 0.089708 0 255 255
-0.012499 0.000944 0.069709 0 255 255
0.042393 0.007390 0.075709 0 255 255
0.001113 0.053559 0.037709 0 255 255
-0.019163 0.022715 0.049708 0 255 255
0.017335 -0.005840 0.055709 0 255 255
-0.009585 0.032358 0.039708 0 255 255
-0.008878 0.017795 0.075709 0 255 255
-0.010129 0.015249 0.019709 0 255 255
-0.008173 0.009576 0.025708 0 255 255
-0.008161 0.009581 0.055709 0 255 255
-0.008365 0.034893 0.015709 0 255 255
0.016335 0.003208 0.084877 0 255 255
-0.010857 0.029805 0.061709 0 255 255
0.038739 0.011860 0.037709 0 255 255
0.040855 0.017997 0.008691 0 255 255
-0.003994 0.043817 0.051709 0 255 255
0.043075 0.027222 0.059708 0 255 255
-0.079372 0.374265 0.007708 255 0 255
-0.140819 0.253691 0.001709 255 0 255
-0.106204 0.371372 0.136076 255 0 255
-0.201732 0.406167 0.003708 255 0 255
-0.120662 0.472155 0.033709 255 0 255
0.005947 0.322104 0.029709 255 0 255
-0.025156 0.452159 0.017708 255 0 255
-0.185216 0.324400 0.033709 255 0 255
-0.061834 0.283003 -0.002292 255 0 255
-0.124331 0.387159 0.065709 255 0 255
-0.009574 0.385607 0.002914 255 0 255
-0.061220 0.363593 0.083742 255 0 255
-0.120914 0.319771 0.003708 255 0 255
-0.134786 0.414411 0.001709 255 0 255
-0.112209 0.335461 0.089708 255 0 255
-0.172349 0.446754 0.031708 255 0 255
-0.161168 0.365137 0.002855 255 0 255
-0.040695 0.334701 0.002867 255 0 255
-0.102726 0.275268 0.033904 255 0 255
-0.070220 0.426589 0.007708 255 0 255
-0.087348 0.341185 0.045708 255 0 255
-0.080297 0.401445 0.049708 255 0 255
-0.149749 0.290806 0.033709 255 0 255
-0.111011 0.409906 0.106555 255 0 255
-0.034648 0.298709 0.034629 255 0 255
-0.196634 0.369848 0.033966 255 0 255
-0.121960 0.363832 0.025708 255 0 255
-0.165340 0.309679 -0.004291 255 0 255
-0.138475 0.372951 0.105510 255 0 255
-0.070554 0.390700 0.117708 255 0 255
-0.009234 0.415337 0.034069 255 0 255
-0.106952 0.447263 0.000768 255 0 255
-0.080330 0.344322 0.115708 255 0 255
-0.079524 0.319216 0.007708 255 0 255
-0.145674 0.461428 0.002730 255 0 255
0.000923 0.361723 0.033709 255 0 255
-0.194598 0.345166 0.001709 255 0 255
-0.103112 0.282534 -0.004291 255 0 255
-0.046993 0.395990 0.002877 255 0 255
0.000318 0.344593 0.000714 255 0 255
-0.066083 0.279424 0.034041 255 0 255
-0.099736 0.405327 0.007708 255 0 255
-0.169557 0.423591 0.003708 255 0 255
-0.183557 0.411730 0.033709 255 0 255
-0.102822 0.349268 0.000723 255 0 255
-0.137014 0.288845 -0.003210 255 0 255
-0.067607 0.369855 0.045457 255 0 255
-0.014263 0.313223 0.003708 255 0 255
-0.023836 0.420885 0.002895 255 0 255
-0.111752 0.356770 0.062078 255 0 255
-0.112251 0.407364 0.042817 255 0 255
-0.122272 0.348916 0.119709 255 0 255
-0.034684 0.366385 0.008166 255 0 255
-0.125300 0.383833 0.000722 255 0 255
-0.083033 0.340939 0.077708 255 0 255
-0.148859 0.335531 0.004682 255 0 255
-0.191423 0.375872 -0.002292 255 0 255
-0.158938 0.395518 0.008061 255 0 255
-0.068008 0.346449 0.000736 255 0 255
-0.042721 0.303726 0.005709 255 0 255
-0.148866 0.464559 0.032404 255 0 255
-0.133267 0.357823 0.081048 255 0 255
-0.024685 0.325062 0.029709 255 0 255
-0.131849 0.396709 0.091709 255 0 255
-0.095927 0.396815 0.127709 255 0 255
-0.124211 0.390554 0.121709 255 0 255
-0.126783 0.277560 0.020090 255 0 255
-0.123995 0.478329 0.005709 255 0 255
-0.045538 0.440911 0.002855 255 0 255
-0.079604 0.367839 0.130725 255 0 255
-0.133267 0.357823 0.000741 255 0 255
-0.083878 0.275819 0.013708 255 0 255
-0.171052 0.304622 0.021708 255 0 255
-0.006117 0.387856 0.033709 255 0 255
-0.134226 0.365953 0.049708 255 0 255
-0.061872 0.365485 0.110594 255 0 255
-0.086793 0.352672 0.021708 255 0 255
-0.000079 0.410028 0.007708 255 0 255
-0.073592 0.399523 0.002881 255 0 255
-0.169182 0.449844 0.005709 255 0 255
-0.182267 0.349411 0.027708 255 0 255
-0.065314 0.393912 0.092710 255 0 255
-0.176967 0.327969 0.009709 255 0 255
-0.131535 0.438798 0.008572 255 0 255
-0.069942 0.382779 0.069709 255 0 255
-0.111681 0.344276 0.039708 255 0 255
-0.189600 0.389191 0.019709 255 0 255
-0.100495 0.305649 0.007317 255 0 255
-0.030416 0.433850 0.033709 255 0 255
-0.120576 0.388538 0.027708 255 0 255
-0.090637 0.366155 0.053708 255 0 255
-0.102526 0.336119 0.111709 255 0 255
0.003769 0.366934 0.009709 255 0 255
-0.094117 0.428415 0.007533 255 0 255
-0.056260 0.373762 0.002735 255 0 255
-0.048482 0.418745 0.008861 255 0 255
-0.097150 0.351221 0.129657 255 0 255
-0.021848 0.347537 0.007398 255 0 255
-0.008836 0.341441 0.029709 255 0 255
-0.154747 0.291200 0.010805 255 0 255
-0.069654 0.345084 0.095708 255 0 255
-0.057973 0.320291 0.001709 255 0 255
-0.010361 0.430896 0.017708 255 0 255
-0.099443 0.327165 0.000754 255 0 255
-0.107222 0.371021 0.003708 255 0 255
-0.184166 0.435482 0.015709 255 0 255
-0.179621 0.403204 0.003708 255 0 255
-0.115299 0.425351 0.001709 255 0 255
-0.057659 0.291819 0.017708 255 0 255
-0.110048 0.376394 0.050714 255 0 255
-0.126648 0.369315 0.125708 255 0 255
-0.129360 0.346476 0.099059 255 0 255
-0.074458 0.359035 0.067245 255 0 255
-0.121082 0.340866 0.008568 255 0 255
-0.025571 0.399136 0.007708 255 0 255
-0.144863 0.379213 0.008197 255 0 255
-0.197310 0.363269 0.013708 255 0 255
-0.151748 0.436068 0.002850 255 0 255
-0.131010 0.386098 0.045708 255 0 255
-0.069463 0.301528 0.002945 255 0 255
-0.125398 0.457833 0.002787 255 0 255
-0.136443 0.379334 0.081709 255 0 255
-0.004961 0.329207 0.013708 255 0 255
-0.087351 0.335050 0.097708 255 0 255
-0.174593 0.379552 0.008116 255 0 255
-0.077034 0.370839 0.027708 255 0 255
-0.015710 0.366572 0.000723 255 0 255
-0.049749 0.354851 0.000739 255 0 255
-0.106742 0.274645 0.013708 255 0 255
-0.102435 0.341999 0.071709 255 0 255
-0.180441 0.359679 0.003708 255 0 255
-0.165743 0.346640 0.007708 255 0 255
-0.119164 0.402868 0.008273 255 0 255
-0.106547 0.352217 0.019709 255 0 255
-0.084377 0.338697 0.008281 255 0 255
-0.131766 0.294881 0.027708 255 0 255
-0.166833 0.322997 0.027708 255 0 255
-0.194591 0.419202 0.016708 255 0 255
-0.071577 0.387525 0.038722 255 0 255
-0.134762 0.466598 0.017708 255 0 255
-0.020241 0.441161 0.002894 255 0 255
-0.084467 0.283671 0.031211 255 0 255
-0.152801 0.414554 0.007805 255 0 255
-0.122350 0.276972 0.001611 255 0 255
-0.085565 0.357326 0.001709 255 0 255
-0.071689 0.351528 0.047709 255 0 255
-0.139965 0.395706 0.000773 255 0 255
-0.025255 0.308289 0.021411 255 0 255
-0.174440 0.428255 0.033523 255 0 255
-0.126416 0.368643 0.067138 255 0 255
-0.113932 0.289387 0.027708 255 0 255
-0.120493 0.345299 0.074862 255 0 255
-0.081222 0.382089 0.053708 255 0 255
-0.157608 0.453088 0.020864 255 0 255
-0.031855 0.318708 0.007708 255 0 255
-0.079661 0.278979 -0.004291 255 0 255
-0.152058 0.307965 0.027708 255 0 255
-0.059127 0.377005 0.095708 255 0 255
-0.120904 0.404384 0.079708 255 0 255
-0.108282 0.389693 0.002823 255 0 255
-0.123534 0.363289 0.107708 255 0 255
-0.050365 0.289067 0.033835 255 0 255
-0.001821 0.394621 0.017708 255 0 255
-0.034219 0.383467 0.002747 255 0 255
-0.191286 0.337845 0.017708 255 0 255
-0.124557 0.350958 0.049708 255 0 255
0.000004 0.350831 0.017708 255 0 255
-0.084780 0.413586 0.003708 255 0 255
-0.195644 0.397686 0.033809 255 0 255
-0.109099 0.393642 0.053708 255 0 255
-0.110265 0.361513 0.121709 255 0 255
0.006143 0.395249 0.000726 255 0 255
-0.148771 0.353705 0.007708 255 0 255
-0.088359 0.390208 0.003708 255 0 255
-0.137825 0.322409 0.007708 255 0 255
-0.090486 0.381014 0.133978 255 0 255
-0.090667 0.350822 0.061709 255 0 255
-0.095607 0.410980 0.045708 255 0 255
-0.186375 0.419915 0.001585 255 0 255
-0.112929 0.347904 0.104709 255 0 255
-0.020421 0.331106 0.002855 255 0 255
-0.133935 0.390477 0.107708 255 0 255
-0.061470 0.388890 0.008394 255 0 255
-0.109522 0.387151 0.130828 255 0 255
-0.066894 0.361640 0.007971 255 0 255
-0.100000 0.353356 0.047709 255 0 255
-0.191799 0.392665 -0.001074 255 0 255
-0.001884 0.375563 0.023241 255 0 255
-0.077312 0.361182 0.115708 255 0 255
-0.183233 0.334272 -0.004291 255 0 255
-0.118806 0.377257 0.015709 255 0 255
-0.117791 0.358921 0.007708 255 0 255
-0.059766 0.408514 0.002756 255 0 255
-0.141743 0.284149 0.019709 255 0 255
-0.085305 0.304535 0.000733 255 0 255
-0.068213 0.279469 0.017708 255 0 255
-0.056537 0.337707 0.008148 255 0 255
-0.133025 0.461552 0.033682 255 0 255
-0.097482 0.346042 0.031708 255 0 255
-0.109646 0.399800 0.118842 255 0 255
-0.042043 0.294047 0.019709 255 0 255
-0.082021 0.356430 0.036677 255 0 255
-0.175589 0.311521 0.007708 255 0 255
-0.152686 0.300370 -0.002292 255 0 255
-0.035862 0.410399 0.003708 255 0 255
-0.129279 0.367656 0.093709 255 0 255
-0.186561 0.405044 0.017708 255 0 255
-0.069706 0.360671 0.097708 255 0 255
-0.127665 0.374558 0.035708 255 0 255
-0.097614 0.334140 0.084355 255 0 255
-0.074718 0.353647 0.083709 255 0 255
-0.201843 0.384976 0.011034 255 0 255
-0.196838 0.361316 -0.002292 255 0 255
-0.068702 0.375823 0.121709 255 0 255
-0.035307 0.429627 0.008600 255 0 255
-0.135277 0.342323 0.001709 255 0 255
-0.009381 0.324331 0.031708 255 0 255
-0.196711 0.355015 0.029709 255 0 255
-0.048314 0.289254 0.001709 255 0 255
-0.118818 0.276073 0.033709 255 0 255
-0.096824 0.350275 0.113708 255 0 255
-0.134292 0.280941 0.033709 255 0 255
-0.131500 0.371122 0.008262 255 0 255
-0.175585 0.321004 -0.004291 255 0 255
-0.037038 0.348652 0.007796 255 0 255
-0.160053 0.380328 0.002827 255 0 255
-0.125238 0.377509 0.112772 255 0 255
-0.100532 0.342614 0.097708 255 0 255
-0.122294 0.399675 0.104723 255 0 255
-0.160980 0.305975 0.009709 255 0 255
-0.096289 0.361007 0.011708 255 0 255
-0.069124 0.331259 0.002946 255 0 255
-0.015913 0.428590 0.031708 255 0 255
-0.114706 0.362098 0.047709 255 0 255
-0.170132 0.440314 0.017902 255 0 255
-0.165387 0.408105 0.002836 255 0 255
-0.176047 0.334631 0.026850 255 0 255
-0.056823 0.430680 0.002761 255 0 255
-0.180682 0.421810 0.021708 255 0 255
-0.013805 0.318037 0.017708 255 0 255
-0.173263 0.437122 -0.000932 255 0 255
-0.141897 0.425889 0.007708 255 0 255
-0.164025 0.299718 0.033709 255 0 255
-0.190925 0.337969 0.033709 255 0 255
-0.181217 0.318044 0.019709 255 0 255
-0.004359 0.408554 0.021708 255 0 255
-0.008056 0.424203 0.004812 255 0 255
-0.130050 0.382198 0.095708 255 0 255
-0.093492 0.365172 0.126732 255 0 255
-0.101378 0.338929 0.049708 255 0 255
-0.122678 0.397428 0.049708 255 0 255
-0.020233 0.312133 0.034886 255 0 255
-0.130492 0.392766 0.077708 255 0 255
-0.034843 0.446709 0.028452 255 0 255
-0.096083 0.280549 0.021708 255 0 255
-0.116996 0.439574 0.008390 255 0 255
-0.015496 0.408951 0.002825 255 0 255
-0.021509 0.377267 0.008717 255 0 255
-0.130362 0.287959 0.009709 255 0 255
-0.190372 0.376234 0.012716 255 0 255
-0.153763 0.448066 0.033924 255 0 255
-0.174558 0.311877 0.033768 255 0 255
-0.048771 0.302865 0.029709 255 0 255
-0.026391 0.305443 0.005709 255 0 255
-0.137333 0.449493 0.000723 255 0 255
-0.187362 0.351888 0.013708 255 0 255
-0.107132 0.337208 0.007982 255 0 255
-0.063107 0.377750 0.081709 255 0 255
-0.124587 0.375618 0.054322 255 0 255
-0.065954 0.381000 0.107708 255 0 255
-0.093859 0.274091 0.002733 255 0 255
-0.083261 0.353889 0.127192 255 0 255
-0.021870 0.438485 0.021708 255 0 255
-0.082985 0.389943 0.124836 255 0 255
-0.154416 0.449957 0.005029 255 0 255
-0.008645 0.356314 0.007708 255 0 255
-0.136453 0.358841 0.103709 255 0 255
-0.082249 0.347892 0.101709 255 0 255
-0.190434 0.382559 0.032570 255 0 255
-0.121592 0.351266 0.087708 255 0 255
-0.125865 0.477616 0.021708 255 0 255
-0.032952 0.447360 0.002788 255 0 255
-0.112892 0.375414 0.123708 255 0 255
-0.067968 0.352474 0.109709 255 0 255
-0.068812 0.397930 0.105708 255 0 255
-0.004677 0.402100 0.034521 255 0 255
-0.110741 0.412114 0.001709 255 0 255
-0.046868 0.383342 0.008875 255 0 255
-0.056226 0.306086 0.002904 255 0 255
-0.143743 0.366907 0.001709 255 0 255
-0.071825 0.412822 0.008675 255 0 255
-0.109467 0.343989 0.121709 255 0 255
-0.112750 0.457957 0.008380 255 0 255
-0.116410 0.284297 0.011708 255 0 255
-0.045593 0.318208 0.007456 255 0 255
-0.066340 0.292458 0.029709 255 0 255
-0.001233 0.373672 -0.001150 255 0 255
-0.106944 0.318236 0.007964 255 0 255
-0.121858 0.355405 0.036502 255 0 255
-0.077062 0.366599 0.055198 255 0 255
-0.169957 0.390660 0.001709 255 0 255
-0.129520 0.426801 0.000723 255 0 255
-0.136280 0.471008 0.002831 255 0 255
-0.075358 0.386223 0.002716 255 0 255
-0.148159 0.296641 0.021708 255 0 255
-0.122357 0.405999 0.092921 255 0 255
-0.146814 0.461035 0.019709 255 0 255
-0.081252 0.363042 0.015709 255 0 255
-0.132027 0.360364 0.117352 255 0 255
-0.006470 0.327449 0.000754 255 0 255
-0.120742 0.370596 0.000722 255 0 255
-0.072106 0.284634 0.005709 255 0 255
-0.111667 0.365260 0.017708 255 0 255
-0.188699 0.432804 0.003708 255 0 255
-0.006728 0.399279 0.003708 255 0 255
-0.097424 0.416700 0.001709 255 0 255
-0.103599 0.363808 0.054649 255 0 255
-0.183458 0.340540 0.007708 255 0 255
-0.198492 0.377669 0.023709 255 0 255
-0.067732 0.382503 0.049991 255 0 255
-0.128928 0.329703 0.001709 255 0 255
-0.092405 0.319011 0.008548 255 0 255
-0.009789 0.343228 0.008592 255 0 255
-0.120618 0.357947 0.072692 255 0 255
-0.025755 0.358883 0.002822 255 0 255
-0.141823 0.293534 0.007708 255 0 255
-0.090687 0.369311 0.003708 255 0 255
-0.068587 0.369518 0.071709 255 0 255
-0.150785 0.402557 0.000730 255 0 255
-0.104936 0.435265 0.008380 255 0 255
-0.186689 0.364810 0.027708 255 0 255
-0.163527 0.434128 0.007708 255 0 255
-0.085804 0.355128 0.048814 255 0 255
0.006127 0.355054 0.005709 255 0 255
-0.067046 0.312937 0.008083 255 0 255
-0.123687 0.416006 0.007708 255 0 255
-0.189577 0.408237 -0.002292 255 0 255
-0.003436 0.362338 0.021708 255 0 255
-0.129208 0.395179 0.008057 255 0 255
-0.047332 0.366260 0.008147 255 0 255
-0.150009 0.388017 0.000760 255 0 255
-0.076286 0.352060 0.008384 255 0 255
-0.160726 0.296280 0.021708 255 0 255
-0.090050 0.336744 0.110816 255 0 255
-0.082185 0.344619 0.089708 255 0 255
0.000907 0.349026 0.030999 255 0 255
-0.117736 0.386438 0.046745 255 0 255
-0.091978 0.348487 0.007708 255 0 255
-0.112929 0.347904 0.052763 255 0 255
-0.113078 0.388042 0.017708 255 0 255
-0.194572 0.398056 0.009709 255 0 255
-0.111935 0.335555 0.103709 255 0 255
-0.030000 0.340498 0.000762 255 0 255
-0.057332 0.282438 0.009709 255 0 255
-0.168644 0.316028 0.017708 255 0 255
-0.116634 0.364807 0.131709 255 0 255
-0.106079 0.358724 0.133454 255 0 255
-0.059253 0.351579 0.007708 255 0 255
-0.004542 0.420141 0.017708 255 0 255
-0.141330 0.405812 0.007757 255 0 255
-0.110730 0.353803 0.031708 255 0 255
-0.083012 0.328592 0.000735 255 0 255
-0.085000 0.401940 0.007225 255 0 255
0.000462 0.338296 0.019709 255 0 255
-0.092003 0.342418 0.121637 255 0 255
-0.116943 0.331714 0.001709 255 0 255
-0.180478 0.390502 0.007708 255 0 255
-0.178098 0.414305 0.008413 255 0 255
-0.036469 0.304427 0.023709 255 0 255
-0.046466 0.406747 0.008307 255 0 255
-0.096103 0.338890 0.001709 255 0 255
-0.075537 0.276169 0.027346 255 0 255
-0.079389 0.379502 0.019709 255 0 255
-0.139868 0.374587 0.093709 255 0 255
-0.115658 0.368116 0.058007 255 0 255
-0.067018 0.374288 0.007919 255 0 255
-0.185786 0.424348 0.032188 255 0 255
-0.110776 0.344414 0.081709 255 0 255
-0.179335 0.445606 0.011708 255 0 255
-0.130045 0.369508 0.079708 255 0 255
-0.122389 0.342531 0.109709 255 0 255
-0.114521 0.284952 -0.002292 255 0 255
-0.001013 0.377979 0.011708 255 0 255
-0.123053 0.380377 0.127709 255 0 255
-0.187968 0.353794 -0.004291 255 0 255
-0.169909 0.451955 0.019709 255 0 255
-0.030630 0.314900 0.029709 255 0 255
-0.123382 0.445836 0.000735 255 0 255
-0.179902 0.437972 0.029709 255 0 255
-0.114526 0.309280 0.007708 255 0 255
-0.122900 0.340000 0.091709 255 0 255
-0.126881 0.351560 0.008448 255 0 255
-0.064258 0.353985 0.089708 255 0 255
-0.079972 0.378289 0.123708 255 0 255
-0.143596 0.443106 0.008267 255 0 255
-0.100620 0.407138 0.117708 255 0 255
-0.103055 0.402069 0.047709 255 0 255
-0.119519 0.468319 0.001709 255 0 255
-0.114513 0.349473 0.001709 255 0 255
-0.045414 0.428262 0.002816 255 0 255
-0.058907 0.283157 0.025708 255 0 255
-0.105597 0.422346 0.007708 255 0 255
-0.071639 0.393849 0.048463 255 0 255
-0.119327 0.375313 0.027708 255 0 255
-0.081308 0.348215 0.068002 255 0 255
-0.021364 0.389134 0.003708 255 0 255
-0.128111 0.379709 0.073709 255 0 255
-0.178223 0.426953 -0.003260 255 0 255
-0.115520 0.275569 0.021708 255 0 255
-0.098665 0.281905 0.009709 255 0 255
-0.186721 0.326725 0.003708 255 0 255
-0.036886 0.397355 0.008738 255 0 255
-0.102822 0.349268 0.062813 255 0 255
-0.118836 0.390290 0.007708 255 0 255
-0.132814 0.473225 0.029709 255 0 255
-0.162448 0.442569 0.027708 255 0 255
-0.178223 0.426953 0.010424 255 0 255
-0.100593 0.379650 0.128736 255 0 255
-0.018876 0.431054 0.008062 255 0 255
-0.060668 0.418780 0.007708 255 0 255
-0.109374 0.275094 0.001709 255 0 255
-0.151623 0.423420 0.000710 255 0 255
-0.198487 0.371325 0.005709 255 0 255
-0.169112 0.357491 0.005709 255 0 255
-0.114785 0.384007 0.057709 255 0 255
-0.001233 0.373672 0.034432 255 0 255
-0.121369 0.470705 0.013708 255 0 255
-0.162692 0.455568 0.030706 255 0 255
-0.041721 0.374538 0.002823 255 0 255
-0.115534 0.355467 0.112730 255 0 255
-0.134167 0.385010 0.007829 255 0 255
-0.128896 0.363558 0.040033 255 0 255
-0.192575 0.407204 0.028589 255 0 255
-0.059084 0.366444 0.099709 255 0 255
-0.050473 0.329219 0.001709 255 0 255
-0.071759 0.359965 0.039708 255 0 255
-0.163676 0.298702 0.001534 255 0 255
-0.163800 0.311350 0.030482 255 0 255
-0.170764 0.368435 0.007708 255 0 255
-0.134916 0.460901 0.007927 255 0 255
-0.048674 0.342530 0.001709 255 0 255
-0.102080 0.285679 0.029709 255 0 255
-0.067288 0.357273 0.075709 255 0 255
-0.126791 0.406587 0.000754 255 0 255
-0.125930 0.287370 -0.002292 255 0 255
-0.124400 0.356645 0.098719 255 0 255
-0.092379 0.346518 0.073709 255 0 255
-0.030818 0.331757 0.007708 255 0 255
-0.176823 0.349171 0.005104 255 0 255
-0.087623 0.274409 0.025708 255 0 255
-0.076411 0.364708 0.002717 255 0 255
-0.007132 0.369525 0.007708 255 0 255
-0.070588 0.375174 0.035708 255 0 255
-0.022838 0.319697 0.000762 255 0 255
-0.192232 0.412352 0.007708 255 0 255
-0.148229 0.289213 -0.000292 255 0 255
-0.076871 0.359903 0.025708 255 0 255
-0.120306 0.400043 0.115708 255 0 255
-0.123811 0.361079 0.054213 255 0 255
-0.190953 0.329499 0.025708 255 0 255
-0.136069 0.358973 0.091709 255 0 255
-0.152364 0.370284 0.007788 255 0 255
-0.123472 0.390809 0.038350 255 0 255
-0.125260 0.285424 0.027708 255 0 255
-0.038077 0.357812 0.001709 255 0 255
-0.186742 0.326718 0.015709 255 0 255
-0.172642 0.337919 0.007708 255 0 255
-0.056510 0.399059 0.007518 255 0 255
-0.011168 0.334292 0.021708 255 0 255
-0.034016 0.446993 0.013708 255 0 255
-0.107755 0.400451 0.000735 255 0 255
-0.154138 0.461439 0.009709 255 0 255
-0.050745 0.296313 0.009709 255 0 255
-0.120092 0.368705 0.116729 255 0 255
-0.107662 0.360293 0.001709 255 0 255
-0.067544 0.363531 0.119988 255 0 255
-0.087192 0.346874 0.035708 255 0 255
-0.129702 0.350589 0.109709 255 0 255
-0.008632 0.354202 0.031708 255 0 255
-0.114173 0.379204 0.001709 255 0 255
-0.069650 0.320501 0.000736 255 0 255
-0.087316 0.282690 0.003708 255 0 255
-0.201235 0.389353 0.029709 255 0 255
-0.014887 0.407182 0.029709 255 0 255
-0.194458 0.345214 0.025708 255 0 255
-0.094924 0.371025 0.135708 255 0 255
-0.074690 0.341279 0.105708 255 0 255
-0.005326 0.315151 0.027708 255 0 255
-0.123472 0.390809 0.110778 255 0 255
-0.001247 0.390589 0.007708 255 0 255
-0.075792 0.399769 0.113708 255 0 255
-0.186826 0.396652 0.027708 255 0 255
-0.076162 0.339411 0.000736 255 0 255
-0.056787 0.363004 0.002768 255 0 255
-0.085471 0.354162 0.115708 255 0 255
-0.091878 0.329768 0.007945 255 0 255
-0.096842 0.356469 0.021708 255 0 255
-0.123160 0.359187 0.124974 255 0 255
-0.024993 0.409911 0.007708 255 0 255
-0.137450 0.333114 0.008097 255 0 255
-0.133517 0.370833 0.115708 255 0 255
-0.113057 0.352090 0.127709 255 0 255
-0.133942 0.382973 0.115708 255 0 255
-0.034059 0.303142 0.012761 255 0 255
-0.145280 0.454144 0.027708 255 0 255
-0.111308 0.349336 0.069709 255 0 255
-0.103414 0.332555 0.095708 255 0 255
-0.023892 0.442019 0.031708 255 0 255
-0.094234 0.312035 0.000754 255 0 255
-0.077152 0.311572 0.000735 255 0 255
-0.186001 0.381969 0.004676 255 0 255
-0.191177 0.427717 0.023709 255 0 255
-0.121955 0.395561 0.071709 255 0 255
-0.159773 0.422515 0.007708 255 0 255
-0.018752 0.418406 0.030608 255 0 255
-0.025772 0.303646 0.031708 255 0 255
-0.038680 0.322703 0.000739 255 0 255
-0.034774 0.311358 0.000739 255 0 255
-0.141413 0.283193 0.005709 255 0 255
-0.121724 0.370258 0.045708 255 0 255
-0.065379 0.369525 0.091709 255 0 255
-0.092323 0.343346 0.083709 255 0 255
-0.014761 0.333099 0.033709 255 0 255
-0.040972 0.298647 -0.003277 255 0 255
-0.074674 0.285946 0.023709 255 0 255
-0.137637 0.352088 0.008310 255 0 255
-0.083853 0.392467 0.053708 255 0 255
-0.013382 0.322953 0.007398 255 0 255
-0.141492 0.467717 0.025708 255 0 255
-0.111952 0.345063 0.093709 255 0 255
-0.014284 0.350141 0.000754 255 0 255
0.002861 0.343353 0.010696 255 0 255
-0.132553 0.349607 0.088989 255 0 255
-0.078863 0.420975 0.008797 255 0 255
-0.159504 0.354160 0.003708 255 0 255
-0.077332 0.275237 0.005709 255 0 255
-0.104283 0.273648 0.023709 255 0 255
-0.001997 0.335335 0.005709 255 0 255
-0.197681 0.367372 0.023709 255 0 255
-0.189334 0.367074 0.003708 255 0 255
-0.139556 0.290084 0.032511 255 0 255
-0.133678 0.376718 0.049708 255 0 255
-0.147485 0.395231 0.007708 255 0 255
-0.099417 0.388521 0.133708 255 0 255
-0.121955 0.429405 0.008345 255 0 255
-0.093890 0.280425 0.033709 255 0 255
-0.126111 0.466048 0.026839 255 0 255
-0.070149 0.371094 0.112739 255 0 255
-0.078459 0.284653 0.013708 255 0 255
-0.025228 0.369641 0.002774 255 0 255
-0.095470 0.346342 0.041709 255 0 255
-0.033942 0.419521 0.008285 255 0 255
-0.184712 0.344339 -0.002292 255 0 255
-0.031588 0.437254 0.002774 255 0 255
-0.086959 0.380113 0.003708 255 0 255
-0.196739 0.355005 0.005709 255 0 255
0.001296 0.393580 0.029709 255 0 255
-0.076812 0.375147 0.047709 255 0 255
-0.079854 0.393137 0.008686 255 0 255
-0.039315 0.294987 0.009709 255 0 255
-0.161627 0.307868 0.019709 255 0 255
-0.058208 0.290597 0.003708 255 0 255
-0.062692 0.386354 0.099709 255 0 255
-0.170347 0.397936 0.008790 255 0 255
-0.135996 0.378035 0.000710 255 0 255
-0.079104 0.347956 0.041709 255 0 255
-0.132018 0.279989 0.001709 255 0 255
-0.179959 0.444283 0.021708 255 0 255
-0.068784 0.360989 0.050157 255 0 255
-0.131647 0.288578 0.019709 255 0 255
-0.136709 0.386250 0.089059 255 0 255
-0.078330 0.302705 0.007797 255 0 255
0.007107 0.361737 0.017687 255 0 255
-0.083199 0.347564 0.000767 255 0 255
-0.093765 0.273816 0.013708 255 0 255
-0.145826 0.412725 0.000773 255 0 255
-0.144694 0.345427 0.003708 255 0 255
-0.137860 0.438735 0.000754 255 0 255
-0.066679 0.404019 0.008627 255 0 255
-0.196240 0.353061 0.019709 255 0 255
-0.106263 0.396117 0.127709 255 0 255
-0.162568 0.442919 0.002743 255 0 255
-0.194004 0.398251 0.019709 255 0 255
-0.168830 0.436533 0.032952 255 0 255
-0.115195 0.385198 0.122810 255 0 255
-0.138394 0.368749 0.085708 255 0 255
-0.087436 0.335296 0.087708 255 0 255
-0.060360 0.327930 0.007708 255 0 255
-0.107256 0.349857 0.112725 255 0 255
-0.094870 0.344599 0.105708 255 0 255
-0.101988 0.355901 0.121709 255 0 255
-0.067112 0.288559 0.013708 255 0 255
-0.015512 0.396709 0.007708 255 0 255
-0.143069 0.453864 0.008707 255 0 255
-0.074780 0.347685 0.075709 255 0 255
-0.020886 0.316140 0.025708 255 0 255
-0.128722 0.372079 0.103709 255 0 255
-0.092627 0.405660 0.000768 255 0 255
-0.095002 0.360422 0.001709 255 0 255
-0.071264 0.355905 0.000736 255 0 255
-0.098612 0.435327 0.000736 255 0 255
-0.152682 0.300371 0.007708 255 0 255
-0.177394 0.431468 0.021708 255 0 255
-0.120478 0.366457 0.035708 255 0 255
-0.161109 0.457113 0.003708 255 0 255
-0.169902 0.319825 0.003708 255 0 255
-0.128245 0.361667 0.008335 255 0 255
-0.189721 0.374343 0.026789 255 0 255
-0.181528 0.334859 0.017708 255 0 255
-0.129117 0.450206 0.007828 255 0 255
-0.072504 0.353362 0.119267 255 0 255
0.002561 0.402477 0.013708 255 0 255
-0.012642 0.376089 0.002873 255 0 255
-0.110450 0.352988 0.044725 255 0 255
-0.095407 0.358445 0.057709 255 0 255
-0.031614 0.375902 0.008425 255 0 255
-0.190084 0.348835 0.033709 255 0 255
-0.077262 0.354894 0.107708 255 0 255
-0.083535 0.358024 0.063708 255 0 255
-0.075823 0.369142 0.064574 255 0 255
-0.181802 0.440527 0.003708 255 0 255
-0.124927 0.345888 0.000710 255 0 255
-0.115567 0.355456 0.021708 255 0 255
-0.001109 0.361023 0.002914 255 0 255
-0.110200 0.327691 0.007545 255 0 255
-0.102418 0.341949 0.087708 255 0 255
-0.089149 0.309556 0.008709 255 0 255
-0.116917 0.369798 0.009709 255 0 255
-0.084273 0.362967 0.123708 255 0 255
-0.184802 0.415348 0.015709 255 0 255
-0.128277 0.392476 0.099709 255 0 255
-0.077588 0.355842 0.054123 255 0 255
-0.189339 0.367092 0.017708 255 0 255
-0.016209 0.417166 0.007930 255 0 255
-0.175922 0.321982 0.032470 255 0 255
-0.121967 0.376520 0.063708 255 0 255
-0.126653 0.360099 0.087708 255 0 255
-0.126783 0.277560 0.010171 255 0 255
-0.093305 0.346199 0.053652 255 0 255
-0.097614 0.334140 0.103634 255 0 255
-0.162786 0.449190 0.013708 255 0 255
-0.117211 0.397195 0.000733 255 0 255
-0.073458 0.343846 0.085708 255 0 255
-0.112216 0.339688 0.113557 255 0 255
-0.176336 0.326070 0.021708 255 0 255
-0.099841 0.395894 0.003708 255 0 255
-0.010629 0.336593 0.001709 255 0 255
-0.194082 0.345343 0.011708 255 0 255
-0.067946 0.340125 0.007946 255 0 255
-0.118117 0.449763 0.007708 255 0 255
-0.022132 0.440510 0.012260 255 0 255
-0.104901 0.367589 0.126801 255 0 255
-0.080193 0.363406 0.046736 255 0 255
-0.182062 0.319868 0.009709 255 0 255
-0.155869 0.405036 0.008439 255 0 255
-0.084125 0.282680 0.021708 255 0 255
-0.077338 0.330545 0.008178 255 0 255
-0.087757 0.360802 0.132997 255 0 255
-0.196759 0.382496 0.002015 255 0 255
-0.091782 0.354061 0.029709 255 0 255
-0.188081 0.415097 0.025708 255 0 255
-0.051983 0.293765 0.025708 255 0 255
-0.110021 0.437745 0.000736 255 0 255
-0.087882 0.373450 0.128840 255 0 255
-0.105490 0.363157 0.010687 255 0 255
-0.063614 0.382832 0.089708 255 0 255
-0.107907 0.351748 0.008339 255 0 255
-0.119475 0.434489 0.000735 255 0 255
-0.017539 0.359596 0.007873 255 0 255
-0.108279 0.281817 0.019709 255 0 255
-0.112670 0.377867 0.133708 255 0 255
-0.147245 0.300129 0.030456 255 0 255
-0.113428 0.398497 0.046852 255 0 255
-0.053843 0.385170 0.002771 255 0 255
-0.127552 0.349215 0.079708 255 0 255
-0.184755 0.344324 0.019709 255 0 255
-0.118884 0.408201 0.101709 255 0 255
-0.067274 0.368888 0.103709 255 0 255
-0.189555 0.389207 0.009709 255 0 255
-0.104991 0.312562 0.000753 255 0 255
-0.137236 0.381635 0.101709 255 0 255
-0.132000 0.421717 0.008201 255 0 255
-0.000458 0.359132 0.012726 255 0 255
-0.152456 0.361792 0.003708 255 0 255
-0.030869 0.392166 0.003708 255 0 255
-0.092437 0.355964 0.121709 255 0 255
-0.137377 0.363617 0.007708 255 0 255
-0.064075 0.396454 0.002715 255 0 255
-0.128190 0.382839 0.105708 255 0 255
-0.170494 0.304815 0.003708 255 0 255
-0.075108 0.360926 0.124763 255 0 255
-0.124712 0.388266 0.052643 255 0 255
-0.130787 0.362907 0.073179 255 0 255
-0.116110 0.393997 0.125708 255 0 255
-0.080658 0.346324 0.050727 255 0 255
-0.112001 0.382067 0.010687 255 0 255
-0.030399 0.350938 0.001709 255 0 255
-0.182071 0.339838 0.031708 255 0 255
-0.046729 0.349546 0.007708 255 0 255
-0.111003 0.280879 0.032501 255 0 255
0.000997 0.404053 0.000730 255 0 255
-0.042525 0.327726 0.008654 255 0 255
-0.023597 0.338473 0.007708 255 0 255
-0.043334 0.295718 0.033709 255 0 255
-0.089621 0.421501 0.002847 255 0 255
-0.045530 0.311884 0.000737 255 0 255
-0.103873 0.348906 0.037709 255 0 255
-0.120030 0.362380 0.064628 255 0 255
-0.123313 0.378059 0.007708 255 0 255
-0.146115 0.325901 0.005709 255 0 255
-0.071327 0.362228 0.108783 255 0 255
-0.061316 0.300103 0.007708 255 0 255
-0.106761 0.336130 0.081709 255 0 255
-0.065528 0.351533 0.100819 255 0 255
-0.057251 0.345922 0.000737 255 0 255
-0.190401 0.336034 0.003708 255 0 255
-0.149328 0.287748 0.023709 255 0 255
-0.008548 0.345770 0.021612 255 0 255
-0.188012 0.360125 0.009709 255 0 255
-0.122848 0.327566 0.008241 255 0 255
-0.063298 0.381914 0.002721 255 0 255
-0.038563 0.439082 0.008528 255 0 255
-0.087257 0.399048 0.125708 255 0 255
-0.075336 0.352387 0.097708 255 0 255
-0.090437 0.344011 0.097708 255 0 255
-0.172611 0.435230 0.008202 255 0 255
-0.123999 0.380051 0.044756 255 0 255
-0.107529 0.283075 0.007708 255 0 255
-0.090458 0.282644 0.013708 255 0 255
-0.079069 0.338410 0.095708 255 0 255
-0.120827 0.284835 0.019709 255 0 255
-0.007470 0.411715 0.013708 255 0 255
-0.014034 0.324844 0.023856 255 0 255
-0.198972 0.373273 0.015709 255 0 255
-0.096999 0.359734 0.133708 255 0 255
-0.022776 0.313373 0.008438 255 0 255
-0.138931 0.366449 0.097708 255 0 255
-0.168546 0.415477 0.007708 255 0 255
-0.162007 0.297161 0.011708 255 0 255
-0.164354 0.386674 0.007708 255 0 255
-0.059740 0.374678 0.105708 255 0 255
-0.106765 0.428290 0.000736 255 0 255
-0.134409 0.281281 0.015073 255 0 255
-0.104377 0.344503 0.105708 255 0 255
-0.002655 0.334799 0.029709 255 0 255
-0.140803 0.416569 0.008129 255 0 255
-0.140526 0.292899 0.017708 255 0 255
-0.151500 0.376928 0.001709 255 0 255
-0.104063 0.346726 0.054119 255 0 255
-0.115504 0.275523 0.009709 255 0 255
-0.088414 0.356566 0.013708 255 0 255
-0.022249 0.324131 0.008735 255 0 255
-0.122437 0.381658 0.033709 255 0 255
-0.002661 0.390103 -0.001206 255 0 255
-0.188633 0.355680 0.025708 255 0 255
-0.083112 0.371884 0.015709 255 0 255
-0.110797 0.340176 0.047709 255 0 255
-0.162493 0.373143 0.007708 255 0 255
-0.118490 0.345625 0.045708 255 0 255
-0.091200 0.389230 0.128873 255 0 255
-0.049697 0.434560 0.007708 255 0 255
-0.188417 0.401272 0.003708 255 0 255
-0.118815 0.340424 0.083709 255 0 255
-0.051855 0.311821 0.008368 255 0 255
-0.081685 0.373882 0.057709 255 0 255
-0.128654 0.467288 0.008766 255 0 255
-0.069130 0.365100 0.079708 255 0 255
-0.083592 0.274987 0.033709 255 0 255
-0.132463 0.404635 0.008497 255 0 255
-0.120395 0.338987 0.101709 255 0 255
-0.100870 0.343595 0.008174 255 0 255
-0.131885 0.375220 0.089708 255 0 255
-0.131688 0.390095 0.000753 255 0 255
-0.087293 0.347166 0.109709 255 0 255
-0.077409 0.370711 0.119709 255 0 255
-0.070988 0.391959 0.008748 255 0 255
-0.040605 0.389728 0.002787 255 0 255
-0.100782 0.343625 0.123708 255 0 255
-0.047671 0.336529 0.008228 255 0 255
-0.119265 0.470734 0.023709 255 0 255
-0.153577 0.429093 0.007996 255 0 255
-0.115880 0.454765 0.000736 255 0 255
-0.144772 0.434240 0.008343 255 0 255
-0.126997 0.401043 0.085708 255 0 255
-0.089788 0.277608 -0.004291 255 0 255
-0.059152 0.288156 0.033709 255 0 255
-0.071858 0.382200 0.115708 255 0 255
-0.153046 0.458889 0.025708 255 0 255
-0.095072 0.332900 0.092855 255 0 255
-0.007168 0.415478 0.005709 255 0 255
-0.109709 0.406124 0.008093 255 0 255
-0.113616 0.417469 0.008093 255 0 255
-0.065996 0.389566 0.109769 255 0 255
-0.061906 0.359127 0.103709 255 0 255
-0.194915 0.420143 0.003708 255 0 255
-0.027969 0.444845 0.021708 255 0 255
-0.157847 0.294058 0.029709 255 0 255
-0.120347 0.368617 0.017708 255 0 255
-0.146827 0.286628 0.011708 255 0 255
-0.112777 0.396606 0.008402 255 0 255
-0.128762 0.336106 0.007708 255 0 255
-0.132089 0.366689 0.000710 255 0 255
-0.075151 0.385620 0.123708 255 0 255
-0.157745 0.343048 0.007708 255 0 255
-0.141142 0.386839 0.002868 255 0 255
-0.064766 0.279877 0.005709 255 0 255
-0.115661 0.340617 0.001709 255 0 255
-0.053503 0.414901 0.002824 255 0 255
-0.040731 0.402377 0.002716 255 0 255
-0.044637 0.413723 0.002843 255 0 255
-0.078302 0.364057 0.034665 255 0 255
-0.155683 0.386063 0.008357 255 0 255
-0.003767 0.368743 0.015709 255 0 255
-0.101881 0.352676 0.027708 255 0 255
-0.145361 0.429807 0.000753 255 0 255
-0.073564 0.376265 0.055709 255 0 255
-0.191314 0.360541 0.033709 255 0 255
0.000739 0.368005 0.027708 255 0 255
-0.190163 0.384767 -0.004291 255 0 255
-0.100744 0.330946 0.008449 255 0 255
-0.143650 0.462125 0.011708 255 0 255
-0.085524 0.360461 0.025708 255 0 255
-0.071888 0.419146 0.002743 255 0 255
-0.002881 0.349837 0.007708 255 0 255
-0.129396 0.357040 0.045708 255 0 255
-0.155210 0.301616 0.017708 255 0 255
-0.009947 0.417407 0.025708 255 0 255
-0.183368 0.374320 0.007708 255 0 255
-0.082922 0.383619 0.130730 255 0 255
-0.176075 0.311354 0.023709 255 0 255
-0.092689 0.411984 0.007170 255 0 255
-0.073709 0.283144 0.032510 255 0 255
-0.101992 0.273138 0.005709 255 0 255
-0.077686 0.408690 0.003708 255 0 255
-0.136211 0.365270 0.109709 255 0 255
-0.052942 0.357983 0.008612 255 0 255
-0.178187 0.328561 -0.000292 255 0 255
-0.129127 0.376515 0.121709 255 0 255
-0.017165 0.321651 0.034166 255 0 255
-0.118994 0.350046 0.097708 255 0 255
-0.060569 0.361702 0.092706 255 0 255
-0.129478 0.389821 0.085708 255 0 255
-0.134071 0.280298 0.023709 255 0 255
-0.096091 0.274429 0.027708 255 0 255
-0.166343 0.312590 0.008753 255 0 255
-0.120330 0.353817 0.105708 255 0 255
-0.117152 0.464599 0.031708 255 0 255
-0.075619 0.380839 0.031708 255 0 255
-0.172677 0.407710 0.007708 255 0 255
-0.023310 0.431643 0.028655 255 0 255
-0.113502 0.315978 0.001709 255 0 255
-0.121921 0.361730 0.000753 255 0 255
-0.051980 0.324470 0.008664 255 0 255
-0.072115 0.278515 -0.000292 255 0 255
-0.188329 0.425588 0.008269 255 0 255
-0.104938 0.410699 0.045708 255 0 255
-0.119503 0.373138 0.130515 255 0 255
-0.092592 0.337985 0.077073 255 0 255
-0.107720 0.332775 0.000722 255 0 255
-0.130949 0.371312 0.043709 255 0 255
-0.026172 0.430657 0.003708 255 0 255
-0.172667 0.312528 -0.001049 255 0 255
-0.129894 0.464746 0.000735 255 0 255
-0.114663 0.362113 0.029709 255 0 255
-0.075358 0.386223 0.048868 255 0 255
-0.135255 0.431171 0.008062 255 0 255
-0.189584 0.391312 0.033709 255 0 255
-0.111838 0.357021 0.013708 255 0 255
-0.134687 0.353103 0.097708 255 0 255
-0.091816 0.323444 0.000733 255 0 255
-0.186688 0.350004 0.003708 255 0 255
-0.136245 0.403332 0.000735 255 0 255
-0.172507 0.321043 0.011708 255 0 255
-0.098730 0.318949 0.002927 255 0 255
-0.110778 0.341656 0.073709 255 0 255
-0.014749 0.426129 0.023709 255 0 255
-0.128552 0.321372 0.007708 255 0 255
-0.180944 0.318138 0.001532 255 0 255
-0.152587 0.456932 0.033880 255 0 255
-0.161668 0.415731 0.002868 255 0 255
-0.012490 0.424792 0.011934 255 0 255
-0.033319 0.356278 0.008462 255 0 255
0.007107 0.361737 0.000724 255 0 255
-0.117425 0.354816 0.054329 255 0 255
-0.007094 0.363193 0.031708 255 0 255
-0.102203 0.341322 0.041709 255 0 255
-0.142106 0.420351 0.000753 255 0 255
-0.032239 0.402288 0.003708 255 0 255
-0.115075 0.403278 0.109709 255 0 255
-0.076512 0.275833 0.017708 255 0 255
-0.061610 0.312693 0.001709 255 0 255
-0.122125 0.285511 0.005709 255 0 255
-0.082547 0.351815 0.029709 255 0 255
-0.169025 0.303205 0.013708 255 0 255
-0.196400 0.384735 0.017708 255 0 255
-0.003838 0.381236 0.029073 255 0 255
-0.070952 0.324283 0.008083 255 0 255
-0.060631 0.368026 0.008219 255 0 255
-0.079480 0.355190 0.072692 255 0 255
-0.085090 0.346913 0.122910 255 0 255
-0.170892 0.304677 0.031708 255 0 255
-0.084720 0.407270 0.045708 255 0 255
-0.178160 0.420628 0.002791 255 0 255
-0.134637 0.472377 0.011708 255 0 255
-0.081876 0.337578 0.103709 255 0 255
-0.141482 0.357109 0.002898 255 0 255
-0.078614 0.395678 0.120690 255 0 255
-0.039206 0.311946 0.007752 255 0 255
-0.088472 0.301328 0.007708 255 0 255
-0.139931 0.297316 0.027708 255 0 255
-0.068033 0.352666 0.007708 255 0 255
-0.140367 0.372300 0.007236 255 0 255
-0.179643 0.418794 0.031708 255 0 255
-0.047999 0.289882 0.015709 255 0 255
-0.118325 0.382004 0.022485 255 0 255
-0.014097 0.331169 0.008222 255 0 255
-0.168857 0.375181 0.002807 255 0 255
-0.174169 0.309895 0.015709 255 0 255
-0.006630 0.407774 0.002708 255 0 255
-0.061761 0.373983 0.113708 255 0 255
-0.119565 0.379462 0.118749 255 0 255
-0.085714 0.274780 0.005709 255 0 255
-0.088408 0.362692 0.008115 255 0 255
-0.066430 0.286576 0.021708 255 0 255
-0.119614 0.351947 0.079708 255 0 255
-0.151810 0.442392 0.008888 255 0 255
-0.036325 0.340436 0.008389 255 0 255
-0.111849 0.430770 0.007787 255 0 255
-0.052978 0.425658 0.008277 255 0 255
-0.119226 0.409193 0.002818 255 0 255
-0.100231 0.354026 0.013708 255 0 255
-0.159026 0.306648 0.001709 255 0 255
-0.110314 0.367841 0.051709 255 0 255
-0.039117 0.366974 0.000762 255 0 255
-0.080380 0.382379 0.008865 255 0 255
-0.197347 0.378063 0.033530 255 0 255
-0.017013 0.370354 0.008309 255 0 255
-0.071513 0.381201 0.008330 255 0 255
-0.135961 0.390221 0.097708 255 0 255
-0.075573 0.343844 0.008106 255 0 255
-0.111627 0.344121 0.008129 255 0 255
-0.026159 0.382011 0.003708 255 0 255
-0.141240 0.460839 0.033821 255 0 255
-0.048045 0.374476 0.008183 255 0 255
-0.070348 0.359385 0.087708 255 0 255
-0.156428 0.302226 0.031708 255 0 255
-0.127788 0.477060 0.013708 255 0 255
-0.155737 0.292974 -0.000292 255 0 255
-0.100511 0.342554 0.079708 255 0 255
-0.040918 0.421350 0.002773 255 0 255
-0.164674 0.399889 0.002814 255 0 255
-0.130233 0.435016 0.000733 255 0 255
-0.040464 0.343242 0.001709 255 0 255
-0.005037 0.397005 0.025708 255 0 255
-0.013959 0.314294 0.029709 255 0 255
-0.196482 0.391052 0.005709 255 0 255
-0.193690 0.392013 0.026237 255 0 255
-0.030856 0.299982 0.019709 255 0 255
-0.179755 0.431404 0.003708 255 0 255
-0.118665 0.352274 0.067125 255 0 255
-0.004948 0.353356 0.023709 255 0 255
-0.125640 0.354103 0.000773 255 0 255
-0.087955 0.349090 0.043709 255 0 255
-0.166846 0.443057 0.009709 255 0 255
-0.108949 0.442345 0.007708 255 0 255
-0.191486 0.382196 0.023709 255 0 255
-0.015042 0.434490 0.023709 255 0 255
-0.061844 0.426836 0.008119 255 0 255
-0.126559 0.277638 0.029709 255 0 255
-0.066956 0.367964 0.002796 255 0 255
-0.051363 0.390255 0.008623 255 0 255
-0.052140 0.404795 0.002809 255 0 255
-0.086669 0.314641 0.002859 255 0 255
-0.080782 0.358973 0.008084 255 0 255
-0.074454 0.373843 0.127709 255 0 255
-0.189078 0.399948 -0.004291 255 0 255
-0.146903 0.296015 0.013708 255 0 255
-0.115846 0.387088 0.000723 255 0 255
-0.117439 0.391715 0.053708 255 0 255
-0.176019 0.395983 0.002823 255 0 255
-0.184438 0.323281 0.025708 255 0 255
-0.127372 0.469708 0.019709 255 0 255
-0.097457 0.281313 0.001709 255 0 255
-0.145549 0.448780 0.002807 255 0 255
-0.002864 0.381571 -0.000292 255 0 255
-0.067780 0.278211 0.025708 255 0 255
-0.099139 0.424570 0.000768 255 0 255
-0.062076 0.356953 0.001709 255 0 255
-0.104098 0.414401 0.007182 255 0 255
-0.033217 0.306838 0.031708 255 0 255
-0.107048 0.358389 0.049708 255 0 255
-0.104000 0.340402 0.000754 255 0 255
-0.145326 0.362131 0.008111 255 0 255
-0.125025 0.419888 0.000733 255 0 255
-0.072102 0.376768 0.064740 255 0 255
-0.016554 0.424310 0.003708 255 0 255
-0.120285 0.461709 0.007708 255 0 255
-0.043708 0.359047 0.007708 255 0 255
-0.185239 0.435043 0.023709 255 0 255
-0.110761 0.384609 0.050725 255 0 255
-0.125089 0.398713 0.001709 255 0 255
-0.029412 0.344932 0.008474 255 0 255
-0.048786 0.321340 0.000737 255 0 255
-0.115517 0.444313 0.001709 255 0 255
-0.108254 0.451044 0.007774 255 0 255
-0.081629 0.349148 0.079708 255 0 255
-0.108247 0.322018 0.000753 255 0 255
-0.086918 0.339937 0.000735 255 0 255
-0.062211 0.335754 0.002782 255 0 255
-0.015246 0.383653 0.008274 255 0 255
-0.031116 0.325308 0.002909 255 0 255
-0.027217 0.442989 0.006456 255 0 255
-0.108280 0.358974 0.023709 255 0 255
-0.108848 0.406420 0.113708 255 0 255
-0.118399 0.283927 0.031708 255 0 255
-0.039242 0.379622 0.008523 255 0 255
-0.093644 0.285752 0.027708 255 0 255
-0.191875 0.337599 0.025708 255 0 255
-0.152374 0.456314 0.015709 255 0 255
-0.101431 0.400513 0.123049 255 0 255
-0.128388 0.355272 0.073709 255 0 255
-0.004225 0.388505 0.025708 255 0 255
-0.143001 0.284667 0.027708 255 0 255
-0.136030 0.445711 0.008753 255 0 255
-0.084501 0.351346 0.007999 255 0 255
-0.191860 0.405335 0.011708 255 0 255
-0.197600 0.363170 0.005709 255 0 255
-0.060726 0.282297 0.017708 255 0 255
-0.126603 0.387615 0.008273 255 0 255
-0.080934 0.310270 0.007797 255 0 255
-0.136772 0.392574 0.008128 255 0 255
-0.013106 0.359007 0.000723 255 0 255
-0.153389 0.410121 0.000730 255 0 255
-0.068686 0.286989 -0.001269 255 0 255
-0.181416 0.430083 0.028745 255 0 255
-0.102885 0.355592 0.057935 255 0 255
-0.001287 0.407498 0.029709 255 0 255
-0.164521 0.448593 0.034137 255 0 255
-0.127312 0.401961 0.097708 255 0 255
-0.062723 0.369421 0.077708 255 0 255
-0.059554 0.291180 0.025708 255 0 255
-0.066116 0.383956 0.077708 255 0 255
-0.048849 0.296952 -0.000292 255 0 255
-0.068683 0.380060 0.041709 255 0 255
-0.048572 0.363718 0.000709 255 0 255
-0.176546 0.385225 0.002898 255 0 255
-0.105366 0.350508 0.128927 255 0 255
-0.190060 0.359419 0.001709 255 0 255
-0.063326 0.320563 0.007774 255 0 255
-0.077588 0.355842 0.044616 255 0 255
-0.005483 0.398299 0.011708 255 0 255
-0.053996 0.336467 0.000737 255 0 255
-0.017352 0.340624 0.002896 255 0 255
-0.129769 0.344220 0.007708 255 0 255
-0.114357 0.364334 0.002892 255 0 255
-0.100254 0.409380 0.000736 255 0 255
-0.125693 0.387929 0.073709 255 0 255
-0.056447 0.392734 0.002787 255 0 255
-0.094874 0.341429 0.091709 255 0 255
-0.116893 0.348654 0.035708 255 0 255
-0.159901 0.429031 0.002895 255 0 255
-0.126501 0.368888 0.029709 255 0 255
-0.129590 0.390147 0.115708 255 0 255
-0.107942 0.419423 0.000767 255 0 255
-0.019529 0.402234 0.003708 255 0 255
-0.004621 0.338661 0.013708 255 0 255
-0.086455 0.357019 0.056426 255 0 255
-0.096320 0.348810 0.023709 255 0 255
-0.084689 0.370319 0.050718 255 0 255
-0.117738 0.355726 0.043709 255 0 255
-0.127383 0.374655 0.001709 255 0 255
-0.173223 0.437005 0.025708 255 0 255
-0.007897 0.343880 0.000723 255 0 255
-0.065851 0.413901 0.003708 255 0 255
-0.100126 0.366008 0.003708 255 0 255
-0.116372 0.376331 0.057850 255 0 255
-0.153509 0.395272 0.001709 255 0 255
-0.132553 0.349607 0.000730 255 0 255
-0.031463 0.424605 0.002860 255 0 255
-0.076276 0.324565 0.001709 255 0 255
-0.147467 0.386777 0.008057 255 0 255
-0.140027 0.340596 0.007708 255 0 255
-0.198814 0.373327 -0.002292 255 0 255
-0.183611 0.332027 0.034230 255 0 255
-0.127877 0.397456 0.109709 255 0 255
-0.007620 0.379934 0.008097 255 0 255
-0.041623 0.300537 0.014634 255 0 255
-0.007308 0.348313 0.014374 255 0 255
-0.120236 0.276977 0.015709 255 0 255
-0.073342 0.374226 0.002842 255 0 255
-0.123265 0.337998 0.001709 255 0 255
-0.008299 0.320473 0.012689 255 0 255
-0.056323 0.380085 0.008043 255 0 255
-0.050635 0.303781 0.007708 255 0 255
-0.054798 0.289655 -0.003147 255 0 255
-0.188731 0.402182 0.033001 255 0 255
-0.098051 0.378410 0.135906 255 0 255
-0.190053 0.359422 0.017708 255 0 255
-0.095134 0.339224 0.044627 255 0 255
-0.041623 0.300537 0.027884 255 0 255
-0.034450 0.304275 0.003708 255 0 255
-0.024016 0.310831 0.000772 255 0 255
-0.184421 0.414242 -0.003208 255 0 255
-0.111600 0.405473 0.050225 255 0 255
-0.084712 0.325890 0.007708 255 0 255
-0.027279 0.449314 0.010872 255 0 255
0.002084 0.357893 0.027173 255 0 255
-0.195581 0.391362 0.013916 255 0 255
-0.114696 0.334604 0.008420 255 0 255
-0.163408 0.449511 0.024321 255 0 255
-0.149081 0.422180 0.007801 255 0 255
-0.059648 0.372595 0.087708 255 0 255
-0.108247 0.346590 0.031708 255 0 255
-0.032278 0.441247 0.033709 255 0 255
-0.073499 0.308600 0.007708 255 0 255
-0.072832 0.348171 0.113708 255 0 255
-0.090825 0.351284 0.000735 255 0 255
-0.157120 0.371809 0.001709 255 0 255
-0.136807 0.460251 0.027224 255 0 255
-0.032457 0.362921 0.001709 255 0 255
-0.095847 0.347439 0.066105 255 0 255
-0.132023 0.288449 0.031708 255 0 255
-0.080363 0.367578 0.021708 255 0 255
-0.066168 0.359534 0.113708 255 0 255
-0.169543 0.444748 0.024005 255 0 255
-0.023489 0.426019 0.033709 255 0 255
-0.081510 0.365067 0.061709 255 0 255
-0.072245 0.368258 0.039708 255 0 255
-0.111003 0.274736 0.027708 255 0 255
-0.152587 0.456932 0.002792 255 0 255
-0.131286 0.413500 0.008335 255 0 255
-0.054184 0.344864 0.007708 255 0 255
-0.006845 0.365395 0.000714 255 0 255
-0.002938 0.354048 0.000714 255 0 255
-0.176518 0.446577 0.004797 255 0 255
-0.019617 0.377918 0.000723 255 0 255
-0.134694 0.374253 0.076187 255 0 255
-0.132962 0.455228 0.002847 255 0 255
-0.000077 0.410030 0.015709 255 0 255
-0.128025 0.363858 0.101709 255 0 255
-0.191531 0.410314 0.019709 255 0 255
0.001868 0.398007 0.007708 255 0 255
-0.127531 0.353451 0.116840 255 0 255
-0.146898 0.296018 -0.004291 255 0 255
-0.101957 0.389755 0.126747 255 0 255
-0.132277 0.385662 0.079358 255 0 255
-0.027396 0.332935 0.000762 255 0 255
-0.078458 0.284649 0.001709 255 0 255
-0.180882 0.332966 0.005709 255 0 255
-0.118005 0.344217 0.115708 255 0 255
-0.171878 0.319145 0.023709 255 0 255
-0.097025 0.338573 0.116168 255 0 255
-0.000922 0.342051 0.028966 255 0 255
-0.089960 0.361055 0.019709 255 0 255
-0.148826 0.407461 0.007708 255 0 255
-0.092779 0.356957 0.050798 255 0 255
0.005552 0.350626 0.011708 255 0 255
-0.067794 0.388827 0.002756 255 0 255
-0.117024 0.378222 0.048734 255 0 255
-0.054092 0.410467 0.008816 255 0 255
-0.115257 0.391522 0.118713 255 0 255
-0.030814 0.299859 0.027708 255 0 255
-0.110353 0.374174 0.009709 255 0 255
-0.167001 0.443508 -0.003227 255 0 255
-0.031679 0.310308 0.007708 255 0 255
-0.009273 0.396286 0.033709 255 0 255
-0.128065 0.471721 0.002802 255 0 255
-0.179805 0.316416 0.027708 255 0 255
-0.196238 0.359408 0.023709 255 0 255
-0.093244 0.339875 0.008501 255 0 255
-0.136981 0.379811 0.109709 255 0 255
-0.198575 0.377640 0.009709 255 0 255
-0.165648 0.300138 0.025708 255 0 255
-0.116533 0.336087 0.095708 255 0 255
-0.107951 0.379231 0.127709 255 0 255
-0.120877 0.281710 -0.004291 255 0 255
-0.048853 0.296959 0.019709 255 0 255
-0.124115 0.443469 0.007708 255 0 255
-0.131598 0.445122 0.002859 255 0 255
-0.121921 0.361730 0.044789 255 0 255
-0.014935 0.352032 0.007873 255 0 255
-0.081495 0.367188 0.007842 255 0 255
-0.100994 0.356244 0.002801 255 0 255
-0.145768 0.440243 0.001709 255 0 255
-0.192100 0.377754 0.005709 255 0 255
-0.083047 0.396267 0.002822 255 0 255
-0.134217 0.289808 0.003708 255 0 255
-0.009804 0.392418 0.005709 255 0 255
-0.013016 0.435188 0.009709 255 0 255
-0.100040 0.273612 0.017708 255 0 255
-0.069286 0.310050 0.001709 255 0 255
-0.105026 0.380239 0.134560 255 0 255
-0.126762 0.345072 0.085708 255 0 255
-0.189985 0.368968 -0.004291 255 0 255
-0.172405 0.446914 0.013708 255 0 255
-0.076545 0.349856 0.089708 255 0 255
-0.119260 0.356300 0.029709 255 0 255
-0.159956 0.306328 0.026767 255 0 255
-0.097836 0.420789 0.007774 255 0 255
-0.137118 0.467298 0.031708 255 0 255
-0.171524 0.389070 0.008685 255 0 255
-0.105213 0.399211 0.007490 255 0 255
-0.069872 0.407149 0.002829 255 0 255
-0.125890 0.379400 0.027662 255 0 255
-0.039152 0.434649 0.002734 255 0 255
-0.156306 0.449306 0.027174 255 0 255
-0.010229 0.326079 0.017708 255 0 255
-0.128654 0.467288 0.034896 255 0 255
-0.106231 0.310020 0.008527 255 0 255
-0.109251 0.389360 0.123708 255 0 255
-0.115596 0.361792 0.116714 255 0 255
-0.114750 0.368428 0.121709 255 0 255
-0.064905 0.288290 0.006748 255 0 255
-0.100199 0.372363 0.129709 255 0 255
-0.130323 0.379989 0.041121 255 0 255
-0.188474 0.398040 0.013708 255 0 255
-0.127410 0.361954 0.079708 255 0 255
-0.071223 0.368610 0.123708 255 0 255
-0.064538 0.379373 0.100713 255 0 255
-0.035521 0.387249 0.008842 255 0 255
-0.154211 0.291384 0.019709 255 0 255
-0.116699 0.383423 0.129709 255 0 255
-0.069472 0.345945 0.103709 255 0 255
-0.009070 0.427147 0.029709 255 0 255
-0.182578 0.421173 0.009709 255 0 255
-0.006996 0.347405 0.033709 255 0 255
-0.125130 0.407909 0.007708 255 0 255
-0.071957 0.278056 0.009709 255 0 255
-0.115160 0.317522 0.008614 255 0 255
-0.096776 0.313276 0.007446 255 0 255
-0.135996 0.378035 0.008698 255 0 255
-0.128959 0.369882 0.052800 255 0 255
-0.177250 0.436414 0.013708 255 0 255
-0.115776 0.346923 0.087708 255 0 255
-0.128799 0.381706 0.051709 255 0 255
-0.186030 0.412768 0.003708 255 0 255
-0.009644 0.330524 0.027708 255 0 255
0.004502 0.369301 0.002901 255 0 255
-0.004375 0.402204 0.017708 255 0 255
