ply
format ascii 1.0
element vertex 1214
property float x
property float y
property float z
property uchar red
property uchar green
property uchar blue
end_header
0.950736 -0.112656 0.581783 158 238 199
0.949957 -0.084913 0.575648 197 254 250
0.949836 -0.622478 0.339079 224 205 180
0.954627 -0.284131 0.253948 204 226 238
0.957845 -0.246921 0.275131 134 192 212
0.951492 -0.331820 0.234640 254 254 255
0.952601 -0.313962 0.228856 254 254 255
0.944496 -0.343133 0.191237 243 254 252
0.957326 -0.241363 0.921866 143 130 120
0.954330 -0.228002 0.904464 145 136 116
0.956780 -0.230780 0.915931 143 136 113
0.944889 -0.243163 0.908212 128 116 100
0.939365 -0.234947 0.920309 83 76 67
0.946097 -0.227337 0.924079 122 112 99
0.942190 -0.212401 0.896029 127 120 101
0.956739 -0.231218 0.893821 119 119 92
0.959621 -0.198070 0.805809 214 197 161
0.956782 -0.182431 0.790806 222 208 176
0.960994 -0.203873 0.822963 184 170 134
0.961220 -0.202813 0.816631 191 173 139
0.962101 -0.186306 0.823239 205 186 154
0.959870 -0.208142 0.802202 209 188 159
0.967656 -0.193713 0.829284 196 181 143
0.963472 -0.213818 0.821266 191 180 144
0.957563 -0.563717 0.354009 228 214 180
0.958106 -0.548313 0.350872 228 218 178
0.955835 -0.543526 0.355927 230 217 179
0.958432 -0.569563 0.366546 225 207 185
0.956146 -0.555489 0.362414 220 204 179
0.959328 -0.557203 0.370727 216 199 164
0.956337 -0.549700 0.396130 222 206 176
0.950489 -0.558685 0.386591 220 199 169
0.960270 -0.536416 0.370050 227 211 178
0.941832 -0.214064 0.529047 168 234 205
0.946414 -0.192971 0.530570 179 230 208
0.941596 -0.209757 0.535903 179 230 208
0.944117 -0.191347 0.506156 170 225 206
0.944075 -0.192417 0.540028 178 236 212
1.016897 0.323389 0.502193 233 215 178
1.017943 0.309532 0.478970 237 215 184
1.014605 0.306595 0.501120 233 214 180
1.017648 0.329437 0.486888 230 211 188
0.952584 -0.017476 0.512612 173 198 199
0.948484 0.010685 0.525205 167 197 196
0.956569 0.259680 1.033614 142 137 115
0.954559 0.233789 1.022801 146 138 114
0.946967 -0.214232 0.448616 115 217 239
0.944434 -0.229594 0.463922 116 220 245
1.028578 0.038650 0.927648 150 137 103
1.028014 0.028924 0.937264 150 135 111
1.000163 0.219484 0.554129 115 100 73
1.004556 0.236335 0.550431 153 135 97
0.998207 0.207587 0.575324 107 87 69
1.018255 0.308435 0.334141 227 210 173
0.976422 -0.023279 0.209220 254 254 255
0.970180 -0.035552 0.195565 254 255 255
0.987899 -0.010227 0.785229 246 240 230
0.990773 -0.014133 0.781398 248 242 230
0.976877 0.002397 0.786182 236 229 210
0.975044 -0.005475 0.786817 250 245 234
0.978508 -0.009424 0.777644 247 244 234
0.987499 -0.001693 0.778212 248 246 238
0.965740 -0.005600 0.766364 252 254 251
0.980092 0.007251 0.796480 230 218 189
0.988380 -0.007230 0.768198 252 253 250
0.988237 0.002978 0.773037 253 253 251
0.982296 0.008313 0.769658 253 252 250
0.979288 -0.019601 0.774241 253 253 250
0.982099 -0.010519 0.772167 252 251 247
0.987911 -0.018298 0.769501 252 251 247
0.981816 0.006136 0.776563 251 249 245
0.953564 -0.286375 0.362304 124 193 223
0.951520 -0.287578 0.353919 121 193 206
0.950481 -0.301999 0.363756 150 215 239
0.953337 -0.263049 0.378334 135 209 229
0.949196 -0.293812 0.380006 166 214 227
0.948882 -0.299929 0.357308 145 191 196
0.999706 0.098592 0.720238 252 254 254
1.013630 0.091353 0.724896 248 251 249
0.996355 0.105330 0.724871 254 255 255
1.020862 0.102957 0.736022 248 248 248
1.007563 0.110503 0.725749 251 251 251
1.012492 0.078903 0.729028 253 253 252
1.000359 0.081415 0.718813 253 254 253
0.982908 0.072063 0.250319 255 255 255
0.981204 0.057543 0.231853 254 254 255
0.966963 -0.164342 0.219793 254 255 255
0.969192 -0.139465 0.251175 251 254 255
1.020962 0.273138 0.281272 225 208 171
1.020283 0.248004 0.269943 229 207 167
1.022464 0.273944 0.270345 228 208 173
1.021919 0.264175 0.258623 229 204 170
1.019079 0.233213 0.286148 227 207 170
0.898548 -0.354848 0.701379 235 239 240
0.888515 -0.356753 0.722488 218 222 223
0.884285 -0.366635 0.727529 184 190 191
0.897208 -0.363001 0.716826 233 239 239
0.905913 -0.352921 0.718316 235 239 240
0.896303 -0.347183 0.732291 219 223 224
0.885115 -0.361761 0.732549 184 190 190
0.980653 -0.085233 0.854853 189 176 143
0.971972 -0.090059 0.848423 192 178 145
0.971132 -0.081922 0.842387 191 177 143
0.967602 -0.101823 0.840964 199 185 150
0.967438 -0.143148 0.368859 134 194 218
0.947572 0.006748 0.644324 124 167 163
0.944601 0.037812 0.644558 136 176 178
0.947695 0.042462 0.666652 169 201 196
0.945617 0.018597 0.652982 132 162 166
0.915459 -0.370810 0.510418 250 252 253
0.918556 -0.349373 0.479860 253 252 253
0.932609 -0.349353 0.507952 253 251 253
0.968950 -0.490068 0.269446 232 220 189
0.965639 -0.508716 0.277384 233 218 183
0.970523 -0.497589 0.257282 231 217 194
0.950542 -0.292835 0.876900 87 82 69
0.939529 -0.275656 0.879245 87 82 71
0.951860 -0.289075 0.864110 88 83 68
0.945533 -0.292380 0.888346 85 77 63
0.934977 -0.433816 0.460045 236 222 187
0.933278 -0.425377 0.473894 236 221 191
0.921425 -0.404514 0.460511 237 226 205
0.915865 -0.392416 0.449192 237 224 185
0.965259 0.290400 1.138598 144 130 114
0.961566 0.291981 1.155669 143 130 112
0.962945 0.279904 1.143841 141 133 106
0.968364 0.287066 1.120904 138 134 104
0.961642 0.278748 1.130435 140 134 112
1.001290 -0.022774 0.869914 179 167 150
0.995958 -0.026857 0.867835 184 168 146
0.997142 -0.044072 0.889200 175 167 137
1.000566 -0.030944 0.884465 179 163 134
0.991074 -0.030309 0.895449 174 166 133
1.025706 -0.033067 0.885447 167 154 131
1.022821 -0.041585 0.884285 170 152 134
1.021003 -0.025381 0.872437 170 158 139
1.015465 -0.031320 0.885530 173 162 135
1.013074 -0.014246 0.897605 172 160 134
1.016455 -0.034486 0.871783 170 157 132
1.024085 -0.030651 0.869497 171 155 136
1.015823 -0.019312 0.864006 176 154 136
1.026827 -0.017368 0.877450 165 155 122
1.027685 -0.043729 0.892917 166 150 125
0.953301 -0.095935 0.533613 163 204 191
0.956605 -0.085503 0.525168 200 241 240
0.982898 0.322766 0.898927 150 134 121
0.950400 -0.024674 0.604809 170 209 218
0.949787 -0.026336 0.625219 146 198 212
0.990617 -0.036017 0.729252 249 248 244
0.913171 -0.432987 0.733774 94 88 80
0.918277 -0.434119 0.744929 134 128 117
0.909483 -0.407714 0.759883 162 166 162
0.900709 0.065209 1.126224 103 103 83
0.894613 0.054292 1.133750 103 103 83
0.973082 0.012876 0.977952 148 140 117
0.971555 0.032270 0.984047 149 143 117
0.975934 0.010256 0.962717 147 145 115
0.974895 0.022551 0.965848 150 139 125
0.964713 0.011355 0.986386 147 140 116
0.965634 0.042461 0.973773 148 140 121
0.964760 0.022468 0.992485 148 138 120
0.966953 0.042913 0.957531 152 141 114
0.969847 0.023445 0.959863 153 145 120
1.012836 0.331153 0.624513 219 198 172
1.014405 0.364132 0.618006 211 193 165
1.011036 0.363199 0.633947 206 189 157
0.937704 -0.213692 0.640844 172 246 249
0.940840 0.105636 0.698873 254 255 255
0.952640 0.151122 0.688865 255 254 255
0.951253 0.112795 0.682007 255 254 255
0.953684 0.131823 0.688512 255 254 255
0.948556 -0.068437 0.983522 148 138 113
0.954634 -0.061464 0.972281 153 143 110
0.951878 -0.070958 0.975207 147 141 127
0.952280 -0.065348 0.963939 154 143 117
0.949043 -0.072020 0.964247 157 140 108
0.951102 -0.084785 0.982035 140 133 123
0.953100 -0.055948 0.985236 146 141 120
0.951863 -0.553253 0.462293 172 161 139
0.957880 -0.523944 0.354801 229 217 190
0.952289 -0.525132 0.361805 228 217 182
0.954238 -0.509702 0.377663 229 213 184
0.954267 -0.503564 0.358786 235 218 187
0.953027 -0.501772 0.368853 226 217 181
1.008434 0.047668 0.815449 224 201 162
1.018886 0.028669 0.798281 214 197 158
1.019974 0.023322 0.812784 185 167 135
1.012104 0.041352 0.804584 209 186 151
1.013972 0.022232 0.821398 198 178 154
1.011633 0.034465 0.822083 194 176 149
1.019186 0.023618 0.827503 185 165 136
0.998622 0.219021 0.642084 151 131 98
0.998147 0.204701 0.624579 111 94 68
1.000231 0.217011 0.601069 154 134 97
1.002227 0.239963 0.631858 162 143 110
1.007175 0.255056 0.614186 234 215 170
1.003661 0.253776 0.633323 235 210 179
1.008957 0.064165 0.803601 218 201 167
1.012366 0.060708 0.799303 213 194 161
1.021002 0.069688 0.798345 213 196 163
1.007979 0.055557 0.801532 215 195 161
1.017747 0.064590 0.811608 179 164 140
0.927151 -0.464977 0.639381 171 156 126
0.932206 -0.458660 0.625564 170 156 127
0.934461 -0.444526 0.641673 171 155 134
0.933253 -0.441991 0.626134 172 159 140
0.938578 -0.462318 0.616024 172 159 140
0.933802 -0.436438 0.607695 203 190 165
0.945735 -0.193656 0.610465 176 248 242
0.941980 -0.191503 0.598832 175 243 238
0.945350 -0.199105 0.588263 175 252 229
0.944789 -0.172665 0.590882 179 246 229
0.944802 -0.203018 0.573776 167 250 228
0.941717 -0.192066 0.594030 178 251 240
0.959005 -0.553519 0.286268 230 216 190
0.961897 -0.548353 0.260803 232 215 179
0.959915 -0.566289 0.262194 230 213 188
0.953607 0.274705 1.177365 137 132 113
0.956340 0.293334 1.164563 141 134 105
0.956867 0.273070 1.160332 140 129 110
0.931596 -0.557768 0.578658 167 156 123
0.935912 -0.546084 0.558007 171 158 141
0.940922 -0.551724 0.542990 171 157 135
0.936538 -0.532432 0.554081 201 185 158
0.931154 -0.569378 0.565671 168 154 135
0.939775 -0.556355 0.549570 171 159 144
1.019606 0.286053 0.310653 229 209 174
1.020353 0.306359 0.305336 227 211 168
1.011324 0.186880 0.173303 244 254 254
0.988723 0.175990 0.201996 250 254 255
1.002659 0.182980 0.219788 232 244 248
0.993684 0.179890 0.209810 249 255 255
1.016590 0.189701 0.206940 216 224 232
1.017644 0.265680 0.398187 232 210 178
0.953455 0.065074 1.022183 147 142 123
0.957967 0.071259 1.016876 148 139 125
0.949741 0.076894 1.021514 149 139 127
0.973508 0.156761 0.400476 251 255 255
0.973065 0.165992 0.405274 244 255 255
0.974318 0.157662 0.382937 251 254 255
0.975751 0.173977 0.407191 243 253 255
0.890992 -0.380009 0.739546 183 190 192
0.901162 -0.352781 0.751807 183 191 192
0.888312 -0.351656 0.741489 183 191 192
0.886768 -0.362913 0.745330 183 191 192
0.896370 -0.371280 0.753838 179 190 191
0.902256 -0.346641 0.744909 215 223 224
0.929037 -0.293481 0.614372 241 250 251
0.923833 -0.298772 0.633637 234 250 250
0.920870 -0.279441 0.630587 226 251 251
0.920455 -0.308478 0.635090 243 247 247
0.924436 -0.282176 0.640854 226 247 247
0.961431 0.114743 0.509475 174 185 172
0.960852 0.135638 0.515188 242 243 243
0.961351 0.137601 0.496052 239 243 242
0.965539 0.140063 0.475836 254 254 255
0.962967 0.127284 0.477437 163 180 175
0.926262 -0.400937 0.417305 248 243 232
0.932204 -0.210154 0.934707 81 73 66
0.942856 -0.210743 0.916308 81 73 66
0.999966 0.184742 0.409207 116 103 68
1.001379 0.183236 0.391494 121 105 70
1.010913 0.204322 0.399491 165 145 108
1.007552 0.187318 0.390680 124 106 73
1.010609 0.188904 0.376657 136 112 84
1.007681 0.192111 0.410734 139 116 91
1.018895 0.312873 0.350570 227 209 177
1.018579 0.342007 0.355886 227 207 172
1.019269 0.334256 0.366266 225 207 173
1.017457 0.295244 0.362318 230 208 177
0.993091 0.266135 0.790733 170 153 134
0.988877 0.242169 0.779371 167 156 117
0.993316 0.254463 0.781238 166 155 129
0.967778 -0.070938 0.362948 208 249 250
0.970028 -0.061624 0.356245 202 254 253
0.967893 -0.063339 0.382802 215 249 251
0.985048 0.361143 0.882035 149 136 110
1.001803 0.225609 0.681316 119 105 78
0.995341 0.222307 0.697326 168 151 104
1.002730 0.234828 0.675392 217 195 151
0.994098 0.203975 0.676522 113 99 69
0.975024 0.045473 0.803588 220 196 166
0.980227 0.059806 0.823018 213 191 160
0.977790 0.091675 0.821368 210 189 158
0.950089 -0.065672 0.612317 156 241 244
0.950920 -0.043369 0.615115 165 236 243
0.949823 -0.048427 0.621587 165 236 243
0.942710 -0.059379 0.633102 141 225 232
0.944592 -0.070572 0.627957 158 234 240
0.946534 0.046108 1.042991 147 139 121
0.940180 0.042651 1.050653 144 141 116
0.946328 0.058964 1.046786 147 134 121
0.955301 0.044459 1.031277 151 138 124
0.945827 0.061621 1.033439 139 141 116
0.953768 0.046851 1.026568 145 140 120
0.964191 0.046862 1.019526 148 140 114
0.950211 0.071338 1.029772 148 139 126
0.957108 -0.531140 0.428990 218 202 172
0.961341 -0.230853 0.241132 254 255 255
0.961469 -0.218600 0.232501 254 255 255
0.978315 -0.008893 0.799495 225 209 176
0.975476 -0.000797 0.811358 215 197 158
0.978111 0.005050 0.807941 220 202 163
0.986783 -0.011819 0.828851 214 194 159
0.981394 -0.008684 0.830643 211 191 156
0.982382 -0.019161 0.808947 226 207 175
0.993485 -0.004579 0.821841 215 195 159
0.964324 -0.274147 0.903366 119 111 99
0.948923 -0.255452 0.912986 119 111 90
0.942730 -0.259206 0.927543 118 111 91
0.953460 -0.605768 0.310243 226 210 177
0.924013 0.133548 1.159365 64 65 65
0.913219 0.117217 1.157255 73 63 63
0.947805 -0.353805 0.233697 253 255 255
0.935887 -0.374121 0.230287 254 255 255
0.967508 -0.129706 0.393453 121 197 226
0.964398 -0.119939 0.417840 108 197 223
0.981080 0.137218 0.327528 251 255 255
0.974024 0.160179 0.333379 253 255 255
0.970363 0.210434 0.935139 148 142 112
0.970265 0.229998 0.938625 149 139 112
0.970981 0.230860 0.950741 148 138 120
0.972274 0.223849 0.922676 146 141 122
0.969563 0.217248 0.958746 151 139 117
0.970281 0.215417 0.946796 147 140 117
0.961878 0.155711 0.931742 155 141 113
0.957875 0.157160 0.944117 150 137 116
0.956428 0.176925 0.952430 149 140 116
0.937746 -0.270117 0.416585 204 253 253
0.953859 -0.616928 0.357639 201 183 157
0.977908 0.096488 0.324595 254 254 255
0.982056 0.122956 0.322674 254 254 255
0.981646 0.134150 0.343841 254 254 255
0.942290 -0.451589 0.450333 233 218 189
0.941310 -0.440328 0.441782 233 219 185
0.943577 -0.448845 0.476645 233 218 184
0.943494 -0.460448 0.469007 233 218 185
0.949386 -0.484008 0.487135 233 217 186
0.996817 0.233033 0.750156 178 157 129
0.995855 0.218998 0.751759 168 147 104
0.999537 0.229418 0.735697 190 164 124
1.006697 0.334931 0.695920 187 172 145
1.007137 0.318378 0.691809 197 184 154
1.006522 0.303965 0.698925 184 171 147
1.007547 0.327180 0.674998 189 173 152
0.954515 -0.282615 0.293943 136 200 219
0.952258 -0.040608 0.595101 181 218 206
0.955902 -0.031930 0.584453 181 233 218
0.957076 -0.254017 0.788166 208 212 209
0.955408 -0.276127 0.805438 195 187 174
0.953587 -0.263287 0.786415 197 189 175
0.948223 -0.249939 0.773348 211 216 216
0.954316 -0.239927 0.783907 211 216 215
0.949537 -0.274421 0.780895 208 214 212
0.973259 -0.063858 0.243550 255 254 254
0.971583 -0.071704 0.229016 254 254 255
0.995555 0.339634 0.770639 161 149 128
0.996039 0.362326 0.770080 159 151 119
0.996030 0.366027 0.803272 159 148 125
0.995389 0.362765 0.781305 153 148 117
0.993480 0.338152 0.787225 160 149 117
0.975388 0.011378 0.815445 222 201 174
0.981806 0.019315 0.806602 226 211 174
0.978437 0.025647 0.815286 214 194 163
0.977866 0.045364 0.820916 205 189 157
0.973993 0.020423 0.796792 225 209 174
0.976505 0.033435 0.802298 222 201 168
0.939125 -0.308618 0.391951 183 219 222
0.907995 -0.394911 0.665008 193 186 175
0.895842 -0.382012 0.660558 217 214 208
0.912430 -0.397700 0.634184 201 198 186
0.903246 -0.382240 0.654031 221 223 223
0.903645 -0.388447 0.661554 191 184 175
0.939378 -0.592318 0.455636 168 158 134
0.945130 -0.563215 0.454520 170 159 130
0.946629 -0.581758 0.465874 171 160 134
0.939705 -0.588944 0.472515 197 184 163
0.958195 0.177468 0.678685 255 254 255
0.988855 0.198215 0.673554 128 106 84
0.977567 0.193217 0.679068 254 253 250
0.963306 0.183129 0.670520 255 254 254
0.960155 -0.531612 0.290181 227 218 187
0.959390 -0.544142 0.307576 229 220 178
0.955991 0.174472 0.965177 150 139 115
0.952331 -0.628968 0.222284 201 194 178
0.949633 -0.629378 0.246807 202 194 171
1.017133 0.313515 0.463924 230 207 179
1.020327 0.298010 0.449714 230 208 171
0.961790 -0.600240 0.188923 223 209 177
0.953787 0.266580 1.044385 145 135 118
0.952967 0.243596 1.044970 143 137 115
1.024249 0.018309 0.851875 174 157 131
1.029061 0.032613 0.853760 175 160 123
1.024154 0.023040 0.843673 175 160 142
0.952755 0.264850 1.057794 139 136 118
0.960800 -0.215227 0.307426 112 185 210
0.959074 -0.225935 0.293943 117 183 206
0.950623 -0.128513 0.588885 150 230 194
0.945865 -0.142445 0.585642 144 213 198
0.947777 -0.136256 0.613813 132 199 194
0.947114 -0.141129 0.596048 133 199 196
0.958822 -0.515438 0.344919 234 216 188
0.962079 -0.493566 0.350753 234 220 189
0.942950 0.087227 1.049442 143 140 109
0.950840 0.092571 1.024828 147 140 112
0.948108 0.071774 1.040973 148 136 114
0.947361 0.101172 1.042119 148 139 125
0.946526 0.086750 1.033315 144 142 108
0.981465 0.133174 0.375664 252 254 255
0.980845 0.132141 0.394956 252 254 255
0.979983 0.135560 0.418117 252 254 255
0.981134 0.118835 0.400843 252 254 255
1.014923 0.339440 0.466108 231 212 175
1.017692 0.340912 0.450518 226 209 171
1.016934 0.354756 0.463002 224 206 163
1.018447 0.355684 0.452942 225 207 173
0.936016 -0.221846 0.601027 194 249 234
0.933898 -0.226617 0.593109 180 243 220
0.934282 -0.210173 0.591878 176 248 232
0.938898 -0.202946 0.597012 172 249 231
0.934780 -0.228230 0.578327 173 247 224
0.914890 -0.351931 0.630881 247 246 247
0.920249 -0.343340 0.611509 247 246 247
0.916389 -0.342832 0.619244 247 246 247
0.924703 -0.348356 0.626108 247 246 247
0.956378 0.209625 1.012028 144 138 119
0.957585 0.237489 1.013443 144 138 117
0.959320 0.204370 0.997039 144 138 123
0.958990 0.230203 0.992076 150 133 117
0.984702 0.128333 0.298876 254 254 255
0.981194 0.110579 0.286415 252 255 255
0.986958 0.126281 0.265062 253 255 255
0.984679 0.141696 0.275943 254 254 255
0.939668 -0.297722 0.782064 173 180 177
0.931771 -0.290324 0.760024 211 222 221
0.932782 -0.286399 0.770601 181 190 189
0.936208 -0.278833 0.769605 210 219 219
0.938997 -0.338464 0.819204 96 88 72
0.961326 -0.176706 0.383793 111 190 215
0.956638 -0.205234 0.407122 143 193 199
0.961518 -0.187218 0.399358 132 195 196
0.926855 -0.128559 0.740757 254 255 255
0.926423 -0.118446 0.744420 252 254 254
0.925789 -0.132812 0.730380 254 255 255
1.016210 0.238936 0.415817 234 212 173
1.016776 0.272517 0.420883 231 209 179
1.018361 0.264520 0.430368 234 213 178
1.016539 0.266284 0.445022 233 212 177
1.001447 0.331834 0.704442 182 164 144
0.998131 0.329289 0.727946 173 163 137
1.000881 0.308561 0.728116 178 165 124
1.002710 0.306317 0.707287 186 170 140
0.952962 -0.235711 0.405450 144 198 213
0.952111 -0.218217 0.412288 153 214 221
0.959928 -0.212501 0.397733 141 204 210
0.959577 -0.230602 0.386790 132 194 213
0.963355 -0.194955 0.390779 127 196 216
0.971638 0.310095 0.976811 140 136 116
0.972420 0.307324 0.962370 145 137 114
0.974286 0.327592 0.964657 146 134 122
0.972899 0.320648 0.978350 148 135 115
0.909466 -0.373042 0.536782 252 252 253
0.954852 -0.041537 0.547235 173 201 202
0.951752 -0.023796 0.532997 161 196 195
1.025218 -0.051587 0.829472 205 189 156
1.002239 0.183094 0.333616 194 202 206
1.012981 0.198079 0.339280 182 161 119
1.008196 0.187403 0.341376 130 112 87
0.948021 0.075866 0.637569 167 204 197
0.948852 0.098799 0.638482 199 224 209
0.949555 0.097072 0.616996 212 232 217
1.017200 0.081773 0.883918 160 149 122
0.967731 0.136999 1.175495 106 98 89
0.962990 0.127591 1.174867 106 96 89
0.962692 0.132632 1.164493 68 66 58
0.947838 0.165034 0.708829 255 254 255
0.945856 0.142533 0.720814 255 254 255
0.949034 0.157543 0.723090 255 254 255
0.950658 0.170185 0.720218 255 255 254
0.968563 0.022184 0.348489 134 182 199
0.974921 0.040460 0.331671 133 186 204
0.971786 0.027634 0.333244 128 177 195
0.978542 0.365745 0.997884 148 134 111
0.973207 0.355321 0.995457 147 135 112
0.969671 0.336829 0.986407 143 136 110
0.968590 0.339287 1.005970 144 133 114
0.971318 0.346769 1.019315 148 133 119
0.992100 0.203731 0.702810 95 84 50
1.015003 0.049583 0.790793 209 189 151
1.013042 0.059748 0.787699 215 200 169
0.999075 0.054142 0.775713 234 224 202
0.961973 0.033778 0.437841 128 200 207
0.963989 0.034355 0.416195 142 195 199
0.962804 0.056884 0.447888 138 192 203
0.964464 0.020987 0.423001 139 206 205
0.963753 0.032519 0.423155 137 196 210
0.963858 0.009496 0.418631 139 205 216
1.027681 -0.046875 0.951128 145 138 117
1.031379 -0.050997 0.944897 142 131 107
0.991154 -0.019047 0.835216 214 193 158
0.982632 0.009796 0.829556 206 188 154
0.984864 -0.000478 0.848826 186 174 142
0.980197 -0.006070 0.840571 188 174 141
0.994633 -0.008244 0.839489 201 187 145
0.984095 -0.023189 0.840126 199 181 155
0.993476 0.201499 0.540249 140 119 91
0.941513 -0.185851 0.677119 249 253 255
0.940945 -0.178522 0.688292 254 253 255
1.017567 0.245862 0.301065 231 208 180
1.004718 0.219456 0.471030 124 100 84
1.007531 0.214220 0.458373 227 201 156
1.010151 0.228451 0.454061 231 206 169
1.011860 0.240582 0.464929 208 188 138
1.007802 0.231092 0.464884 208 188 138
0.925217 -0.236581 0.669480 231 246 248
0.928471 -0.242052 0.681071 249 250 249
0.923121 -0.257421 0.675760 244 247 246
0.922496 -0.279057 0.681883 247 247 247
0.923954 -0.254192 0.688442 247 247 247
0.918764 -0.271367 0.695960 247 247 247
0.927847 -0.259714 0.665358 236 251 250
0.942719 -0.407971 0.243943 245 254 254
0.935821 -0.385963 0.238150 246 254 254
0.956818 -0.136046 0.447213 114 192 217
0.955830 -0.119617 0.447261 102 217 247
0.953684 -0.118812 0.472536 127 215 243
0.951886 -0.144793 0.451695 110 189 218
0.950760 -0.146006 0.470263 101 198 219
0.955941 -0.132803 0.468992 90 209 237
0.956460 -0.104628 0.467656 103 217 246
0.924907 -0.633963 0.424184 167 155 133
0.929129 -0.255059 0.575974 217 251 238
0.925010 -0.263456 0.599018 221 252 244
0.931145 -0.246242 0.598910 220 253 243
0.950764 0.005402 0.540550 165 188 164
0.946769 0.033514 0.521873 171 179 170
0.948184 0.037053 0.506388 168 182 172
0.948451 0.019301 0.525299 167 182 168
0.949907 0.041300 0.532653 169 182 174
0.950262 -0.626137 0.258039 207 196 169
0.954061 -0.043917 0.576056 195 249 230
0.956233 -0.028881 0.570800 190 241 210
0.951027 -0.025598 0.556410 196 243 223
0.953722 -0.036359 0.563063 190 233 221
0.963261 0.002042 0.435345 202 253 254
1.001550 0.126842 0.743445 240 237 236
0.997814 0.117423 0.748547 253 252 252
1.004237 0.141732 0.748431 188 174 142
0.996413 0.108910 0.757963 251 248 245
1.016568 0.137246 0.764160 192 172 135
1.006596 0.128369 0.768033 202 179 145
0.996016 0.132025 0.751381 210 196 173
0.998452 0.122851 0.729062 249 250 248
1.001798 0.140373 0.736134 211 213 206
0.999565 0.114525 0.757741 231 220 200
1.001588 0.326235 0.738699 174 158 128
1.000533 0.320523 0.759633 168 155 129
0.966560 -0.113620 0.899201 174 163 132
0.948674 -0.320379 0.365395 195 228 241
0.946304 -0.340134 0.365608 254 254 255
0.947215 -0.319053 0.380513 186 225 225
0.945703 -0.326412 0.370854 254 254 254
0.947286 -0.319755 0.356901 246 254 255
0.943386 -0.345284 0.357596 255 254 255
0.955533 -0.107788 0.948648 138 131 106
0.947666 -0.091204 0.947968 157 144 120
0.946797 -0.113452 0.950515 133 133 100
0.956556 -0.101643 0.941099 166 150 131
0.967882 -0.093199 0.934395 161 150 128
0.959917 -0.121443 0.945509 147 140 108
0.941771 -0.361832 0.200421 242 254 251
0.937157 -0.390969 0.223687 247 254 254
0.938754 -0.377311 0.210165 250 254 255
0.950542 -0.151564 0.619854 142 179 176
0.945194 -0.132855 0.638935 142 179 176
0.944766 -0.132096 0.625111 143 182 179
0.961869 -0.165879 0.860969 185 167 143
0.954693 -0.175595 0.865464 171 161 136
0.962469 -0.154862 0.849534 184 167 149
0.958238 -0.172638 0.847860 168 153 141
0.956842 -0.173638 0.840441 201 185 158
0.957563 -0.156474 0.830642 200 186 151
0.949085 -0.145907 0.781931 244 243 232
0.945053 -0.136438 0.772166 248 248 244
0.946125 -0.125186 0.772692 250 251 251
0.953845 -0.119923 0.777113 243 240 227
0.953374 -0.135747 0.789743 238 235 223
0.966069 -0.133039 0.793222 241 236 217
0.960073 -0.139152 0.798006 233 222 194
0.988595 0.197658 0.722904 129 113 86
0.980561 0.194619 0.702296 148 131 112
0.974062 0.188749 0.712076 254 254 252
0.961176 0.181706 0.714652 255 255 253
0.974577 0.190518 0.726008 254 255 248
0.964201 -0.085819 0.437041 135 194 211
0.963767 -0.105939 0.423042 120 198 225
0.965904 -0.094650 0.416923 118 190 203
0.939261 -0.183103 0.646201 135 221 234
0.941757 -0.178650 0.661205 113 190 200
1.031257 -0.056715 0.926157 149 140 114
0.968975 0.360253 1.079226 147 133 113
0.967552 0.352612 1.062697 143 134 111
0.949928 -0.317023 0.334695 236 253 252
0.947743 -0.337583 0.329914 252 254 255
0.967673 0.343867 1.067956 143 137 106
1.000572 0.222265 0.533029 141 120 88
1.008463 0.240526 0.532998 235 214 177
0.997236 0.206410 0.522263 109 88 64
0.972592 -0.474719 0.232454 233 234 214
0.937123 -0.304790 0.408579 244 253 255
0.940742 -0.294902 0.404171 234 254 254
0.994922 0.198387 0.461026 136 114 75
0.990131 0.192622 0.453154 111 92 76
1.000428 0.201161 0.450889 121 101 84
0.980145 0.268436 0.879559 155 142 114
0.978129 0.251929 0.881177 158 136 122
0.977625 0.232543 0.875535 159 146 118
0.928800 -0.579596 0.521238 109 104 86
0.931593 -0.571138 0.542676 164 155 136
0.935090 -0.599119 0.533759 164 155 136
0.932202 -0.584180 0.515071 168 157 131
0.934495 -0.570979 0.514690 169 158 132
0.964292 -0.022782 0.998573 151 141 121
0.971042 0.278605 0.967290 142 139 104
0.972427 0.296049 0.973007 139 141 102
0.965218 0.279302 0.990344 150 135 118
0.971062 0.273428 0.976751 146 137 120
0.954592 -0.022391 0.460789 160 224 252
0.955345 0.011270 0.459809 201 246 247
0.961595 -0.010383 0.450680 204 253 251
0.954079 0.006184 0.472751 153 216 230
0.970101 -0.112796 0.912290 169 159 133
0.971926 -0.126925 0.893332 175 162 133
0.955986 -0.092887 0.512765 166 200 202
0.954463 -0.091064 0.499934 155 200 202
0.953006 -0.098789 0.477264 152 201 205
0.952616 -0.084903 0.478121 203 253 253
0.951705 -0.101171 0.503710 158 189 199
0.915078 -0.391566 0.554759 245 244 240
0.913337 -0.386967 0.565513 245 245 242
0.920839 -0.409926 0.567818 230 227 212
1.024735 -0.039378 0.969500 155 139 121
1.024671 -0.037624 0.957612 145 136 108
0.925633 -0.266858 0.645936 203 249 247
0.928238 -0.255052 0.646452 184 247 246
0.966368 0.184959 0.615106 255 254 255
0.969825 0.185371 0.632663 238 234 233
0.961671 0.176093 0.635761 255 254 255
0.952820 -0.590551 0.291332 224 209 188
0.954360 -0.602431 0.254764 226 209 177
0.986400 0.314511 0.862564 151 140 115
0.983682 0.320738 0.879963 150 136 120
0.950894 0.172317 1.023819 149 136 116
0.954502 0.194104 1.048605 147 136 113
0.950377 0.174732 1.040555 141 136 115
0.951562 0.185324 1.029735 143 139 114
0.951407 -0.337153 0.798019 110 110 107
0.950981 -0.376927 0.790021 111 114 116
0.955217 -0.360966 0.790556 111 114 116
0.969711 0.145768 0.771521 248 246 234
0.981283 0.163725 0.781385 228 218 193
0.980168 0.153212 0.788388 227 215 198
0.977919 0.131326 0.788688 227 215 196
0.976138 -0.109144 0.906406 172 158 133
0.987670 -0.088711 0.921375 170 160 128
0.987960 -0.098469 0.907928 171 159 138
0.979024 -0.105222 0.919508 171 156 127
0.981408 -0.095680 0.921465 169 155 129
0.980354 -0.081125 0.927733 168 156 131
0.972707 -0.085227 0.922733 169 156 131
0.980909 -0.102072 0.907697 172 158 136
0.973398 -0.097539 0.920476 170 156 129
0.966218 -0.106245 0.899755 173 160 135
0.901444 0.083856 1.136271 68 66 58
0.906752 0.093443 1.145046 77 65 49
0.922586 0.091520 1.123418 125 115 107
0.919681 0.104849 1.122610 123 114 112
0.895919 0.089166 1.121839 108 101 82
0.896346 0.083651 1.118498 105 100 92
0.898016 0.078333 1.142905 68 66 57
0.906588 0.096561 1.126430 105 102 81
0.963922 -0.102861 0.853887 186 172 150
0.967394 -0.110202 0.840707 201 185 156
0.973119 0.092465 0.852410 179 164 141
0.973025 0.090961 0.857899 176 165 135
0.941522 -0.214335 0.576639 179 253 227
1.021097 0.062503 0.893943 160 149 125
1.025361 0.056952 0.905467 144 138 103
1.030032 0.062295 0.917275 153 139 116
1.027984 0.067234 0.912878 150 140 119
0.951259 -0.041277 0.714400 255 255 255
0.956053 -0.039465 0.729419 255 255 255
0.955801 -0.037273 0.512200 158 190 191
0.958226 -0.036463 0.487787 154 193 207
0.952146 -0.009089 0.495533 164 197 210
1.002666 0.226998 0.588364 147 124 97
1.001061 0.228731 0.574135 141 122 80
1.001646 0.235384 0.605278 187 166 122
0.946235 -0.600544 0.425038 210 197 172
0.943205 -0.611287 0.427848 195 184 161
0.939377 -0.622971 0.424750 196 181 168
0.928723 -0.629734 0.443209 196 181 161
0.930103 -0.629969 0.434986 196 180 165
0.993856 -0.008712 0.871862 177 169 143
0.986988 0.011317 0.870509 179 166 138
0.992425 -0.013412 0.885575 177 167 138
0.973468 0.009551 0.888411 177 165 135
0.982838 -0.014347 0.863179 182 169 142
0.987096 -0.012816 0.866561 182 169 142
0.983735 -0.000128 0.860976 176 168 142
0.988104 0.004793 0.885068 177 163 139
0.982936 -0.006524 0.891234 179 167 134
0.965795 -0.153233 0.387794 123 198 238
0.962338 -0.173366 0.391743 114 193 224
0.960289 -0.166637 0.411325 121 199 221
0.965025 -0.154691 0.407530 116 198 232
0.999274 0.338444 0.753822 166 151 132
0.998346 0.364147 0.751797 169 152 126
0.999904 0.336552 0.761430 165 150 126
0.997997 0.353833 0.761949 162 151 129
1.003995 0.348041 0.741358 166 153 130
0.925490 -0.279454 0.618047 226 250 250
0.932931 -0.234840 0.621989 210 250 244
0.931747 -0.255587 0.607511 225 253 250
0.925499 -0.270702 0.605231 235 251 250
0.929724 -0.233164 0.632668 193 251 248
0.932713 -0.253065 0.626480 214 251 250
0.925862 -0.268536 0.628837 224 251 250
0.931515 -0.257477 0.636924 203 252 250
0.954811 0.162190 0.574848 255 254 255
0.956881 0.167407 0.598995 255 254 255
0.953693 0.053959 0.516321 148 185 191
0.952418 0.062865 0.497561 148 181 190
0.951064 0.041222 0.486703 168 201 195
0.933718 -0.325827 0.491893 252 253 253
0.959229 -0.151872 0.426019 107 190 232
0.964266 -0.117272 0.426100 110 193 233
0.962100 -0.118026 0.436203 126 190 218
0.955897 -0.146433 0.435286 109 193 222
0.966070 -0.152524 0.875197 175 164 135
0.956363 -0.190899 0.884485 154 143 122
0.955617 -0.161949 0.889221 167 155 124
0.949797 -0.179315 0.879774 155 143 119
0.961955 -0.148825 0.885387 171 158 133
0.952720 -0.168784 0.872701 164 152 126
0.959035 -0.171856 0.899936 166 153 120
1.026153 0.127102 0.846626 181 162 135
0.986131 0.179405 0.278729 224 244 249
0.993459 0.179361 0.251833 219 236 244
1.017134 0.230596 0.300553 167 147 114
1.008113 0.183948 0.269242 167 161 155
1.015445 0.190370 0.269536 135 116 89
1.018756 0.206385 0.269208 156 136 104
1.017141 0.284859 0.458365 230 212 168
0.950193 0.061271 0.539575 169 184 177
0.953031 0.076787 0.524736 162 178 180
0.974329 -0.010606 0.902894 173 160 127
0.974415 0.021082 0.898595 172 158 134
0.979608 0.005967 0.909328 168 159 126
0.987954 0.004793 0.918016 170 156 125
0.992394 -0.000782 0.929116 168 156 124
0.975255 0.007400 0.901038 173 159 137
0.983452 -0.001079 0.915114 169 155 132
0.985363 0.013266 0.923548 169 154 132
0.904355 -0.330128 0.745383 217 223 224
0.903131 -0.324526 0.733980 238 238 239
0.935857 0.045330 0.715323 254 255 255
0.941010 0.021375 0.702643 255 255 254
0.940958 0.043133 0.731749 254 255 255
0.941622 0.021387 0.722541 254 255 255
0.946142 -0.197712 0.480263 141 218 223
0.918189 -0.343563 0.594046 251 250 251
0.923297 -0.340911 0.581397 251 250 251
0.996976 0.203879 0.641393 118 100 72
1.006176 0.340809 0.707572 179 163 131
1.005479 0.340795 0.724726 176 159 137
1.004187 0.366241 0.727686 171 159 133
1.027849 -0.030727 0.878689 162 154 119
1.015603 0.278885 0.555041 235 217 179
1.014998 0.290187 0.581711 235 214 183
1.013247 0.277507 0.536050 236 216 182
0.954336 0.234941 1.170213 131 126 111
0.948438 0.227301 1.177650 120 112 102
0.954988 0.211763 1.157195 139 129 114
0.949923 0.208746 1.176004 120 114 97
0.954373 0.209828 1.166692 133 123 96
0.956169 -0.194766 0.417621 138 212 228
0.952038 -0.193596 0.425203 125 217 242
0.956582 -0.183372 0.417083 137 201 208
0.951993 -0.203098 0.439483 144 215 234
0.950619 -0.199663 0.445960 121 214 241
0.957678 0.116626 0.536274 196 202 189
0.956691 0.096763 0.533867 211 221 205
0.954492 0.081194 0.536482 177 184 179
0.958273 0.097290 0.509324 191 204 188
0.901503 0.033172 1.129486 68 69 49
0.891114 0.035899 1.133905 104 104 83
0.891579 0.033642 1.147271 102 104 81
0.982988 0.094264 0.243628 254 254 255
0.983765 0.112311 0.250699 255 254 255
0.982526 0.080597 0.232215 253 255 255
0.985604 0.110589 0.229899 252 255 255
1.019095 0.262156 0.304484 229 207 172
1.019368 0.250375 0.287825 230 208 171
0.995695 0.285661 0.787252 168 151 121
0.994314 0.283003 0.804218 167 149 129
0.996178 0.262106 0.773498 168 156 131
0.998044 0.287430 0.770083 166 154 138
0.988045 0.197968 0.584727 248 246 244
0.971823 0.190172 0.596168 255 254 254
0.984862 0.196411 0.605370 229 221 210
0.962003 0.183766 0.585114 255 254 255
0.956673 0.175529 0.584276 255 254 255
0.950441 -0.327792 0.307566 244 255 255
0.952274 -0.307991 0.296155 216 245 251
0.951397 -0.302176 0.323285 167 213 223
0.953129 -0.295633 0.310105 174 220 228
0.960642 0.308507 1.162134 142 131 112
0.959257 0.321503 1.157615 143 129 107
0.961039 0.329732 1.164423 145 130 110
0.957955 0.314756 1.177680 144 127 105
0.968496 0.307051 1.003958 143 139 108
0.968150 0.323535 1.001100 146 136 109
0.968827 0.311872 1.019424 143 137 112
0.968678 0.327251 1.013096 142 139 109
0.970136 -0.012570 0.988040 150 138 126
1.007079 0.359661 0.655761 197 178 146
1.006806 0.348066 0.641465 210 191 167
1.008970 0.337313 0.675309 195 180 147
1.002734 0.016457 0.846216 189 176 143
1.006502 0.020315 0.861500 183 167 141
1.002256 0.027251 0.860591 183 168 141
1.007290 0.030644 0.841687 183 173 141
1.021220 0.030058 0.841532 183 171 140
1.012739 0.036602 0.843103 184 172 140
1.018659 0.020287 0.838105 181 163 133
1.012439 0.047846 0.834362 190 172 144
1.018609 0.028314 0.853589 177 163 134
1.011995 0.042874 0.849181 180 167 130
0.970818 -0.082209 1.010439 140 132 104
0.963205 -0.086983 1.007925 140 134 118
0.972292 -0.102319 1.006738 73 73 55
0.917470 -0.232055 0.738895 244 247 247
0.919777 -0.214478 0.731700 250 251 251
0.932087 -0.218714 0.757297 247 251 250
0.935582 -0.233373 0.757683 242 247 246
0.928817 -0.247291 0.753522 248 251 251
0.931141 -0.409270 0.392710 236 225 205
0.943578 -0.436044 0.413341 237 224 186
0.930236 0.073428 1.101476 142 132 117
0.945581 0.109351 1.057676 147 136 120
0.943057 0.139558 1.074107 143 137 113
0.937568 0.138659 1.081904 146 135 122
0.941800 0.115229 1.065094 148 137 126
1.008650 0.285266 0.664204 212 196 155
1.009196 0.297470 0.661404 206 191 148
1.010699 0.274992 0.641205 225 202 177
0.956201 -0.552595 0.430376 201 187 162
0.959778 -0.559009 0.419121 217 199 171
0.957789 -0.534352 0.442149 217 200 175
0.950630 -0.561458 0.433952 202 186 165
1.018532 0.312370 0.420923 228 211 175
1.018183 0.289886 0.431170 231 211 177
1.017153 0.285800 0.442021 231 210 179
0.922203 -0.387687 0.394397 254 252 252
0.919323 -0.376825 0.402343 253 254 254
0.921632 -0.384981 0.417504 252 254 252
0.943744 -0.200566 0.565010 161 243 214
0.946179 -0.193173 0.545368 183 247 217
0.977664 0.190060 0.664445 246 244 238
0.989207 0.196701 0.643710 182 168 151
0.954540 0.177162 0.658380 255 254 255
0.969929 0.184036 0.648553 255 254 253
0.966758 -0.108157 0.929457 168 154 119
0.949800 0.166121 1.005455 150 137 120
0.952840 0.190656 1.005327 149 134 121
0.954012 0.193802 1.012474 152 135 113
0.932918 -0.457546 0.592813 175 160 137
0.930510 -0.445945 0.583698 176 164 142
0.928643 -0.466841 0.598729 174 162 133
0.937105 -0.452029 0.601211 205 191 159
0.934869 -0.462093 0.579174 206 193 160
0.968843 0.182928 0.490317 254 254 254
0.984497 0.195110 0.492770 245 240 233
0.986936 0.197374 0.510696 254 251 251
0.960850 -0.318832 0.827667 92 88 74
0.955858 -0.302174 0.833520 93 89 72
0.953671 -0.325156 0.849272 89 84 76
0.951162 -0.335259 0.830211 87 84 69
0.958685 -0.318794 0.839799 92 86 74
0.947143 -0.311732 0.848597 92 83 78
0.951155 -0.340915 0.850099 85 83 64
0.951821 -0.055279 0.997351 149 139 122
0.962464 -0.072830 1.003963 147 142 112
0.958561 -0.060605 1.007225 140 130 107
0.943278 -0.142237 0.702492 255 255 254
0.945893 -0.160398 0.724773 255 255 255
0.948591 -0.145949 0.715485 255 255 255
0.996422 0.206686 0.596194 118 98 72
0.956921 -0.238537 0.866386 136 127 103
0.954875 -0.229735 0.885083 150 141 113
0.949931 -0.240455 0.883554 129 122 102
0.948377 -0.217316 0.879772 164 154 125
0.946398 -0.219549 0.862385 134 127 100
0.956791 -0.229396 0.872360 157 145 114
0.991725 0.133789 0.214003 253 254 255
0.982934 0.125418 0.191764 251 255 255
0.990401 0.121547 0.211379 253 255 255
0.949927 -0.046680 0.682486 227 241 246
0.949026 -0.031449 0.681545 226 241 246
0.950986 -0.041134 0.700260 255 255 254
0.948256 -0.037281 0.690067 255 255 254
0.958442 -0.048235 0.462341 179 227 237
0.953703 -0.019503 0.469773 146 200 219
0.957328 -0.038971 0.471072 159 202 219
0.956469 -0.024560 0.482307 151 195 216
0.950944 0.326860 1.206078 140 122 104
0.954737 0.311739 1.206269 137 125 103
0.958018 0.328415 1.180986 134 123 120
0.938951 -0.298590 0.520941 160 230 221
0.934752 -0.297516 0.537365 173 247 236
0.933648 -0.283262 0.541211 165 244 232
0.936760 -0.289560 0.528325 162 242 228
0.929999 -0.305935 0.543944 217 251 248
0.936833 -0.302631 0.510946 181 232 218
0.932991 -0.339053 0.416327 253 255 255
0.938203 -0.337030 0.397795 254 255 255
0.933035 0.097197 1.091908 146 136 119
0.930986 0.090751 1.092732 146 137 114
0.950610 -0.299790 0.844467 90 86 70
0.941604 -0.273218 0.864070 86 83 70
0.943276 -0.278278 0.841470 91 87 65
0.964069 0.027881 1.010077 148 140 115
0.962929 0.043048 1.010252 147 137 123
0.966701 0.036081 1.001587 148 139 117
0.964722 0.009606 0.999713 146 142 119
0.964933 0.035621 0.991803 150 136 126
0.979787 0.103682 0.812820 197 182 142
0.982592 0.129505 0.818578 203 182 149
0.980333 0.113704 0.802848 211 193 151
0.982433 0.124039 0.796264 208 188 154
0.977031 0.125121 0.828674 189 177 144
0.933536 -0.317549 0.529105 250 253 253
0.929196 -0.332003 0.517748 253 252 253
0.929872 -0.324852 0.521083 253 252 253
0.930343 -0.321197 0.539675 252 253 253
0.929161 -0.319106 0.511407 254 253 254
0.959917 -0.227110 0.276655 141 188 200
0.962032 -0.211093 0.262629 139 187 200
0.961629 -0.230627 0.259110 196 224 233
0.955865 0.253770 1.196801 128 127 105
0.954462 0.257225 1.204241 133 128 111
0.958175 0.251615 1.216129 134 126 110
0.946992 0.049534 0.635618 127 182 187
0.946478 0.058606 0.646240 127 182 187
0.944907 0.071759 0.622236 134 183 185
0.962184 0.183000 0.547461 255 255 253
0.977026 0.193123 0.549983 253 251 249
0.978811 0.194013 0.568990 252 251 248
0.964795 0.183573 0.557380 255 254 253
0.957475 0.181033 0.569587 255 255 254
0.935083 -0.567661 0.550485 168 153 134
0.935714 -0.578187 0.550074 168 157 131
0.997901 0.312613 0.784854 159 150 128
0.995433 0.307446 0.767242 167 152 127
0.996775 0.304226 0.780196 167 152 127
0.996057 0.331106 0.784713 160 147 125
0.972529 -0.072385 0.799392 237 217 188
0.988700 -0.057986 0.831106 215 195 158
0.983177 -0.068481 0.816462 233 210 177
0.974080 -0.076835 0.813713 217 197 165
0.985514 -0.065017 0.801055 234 213 186
0.990229 -0.054790 0.809671 228 207 173
0.982621 -0.060018 0.824635 231 208 173
0.973101 -0.072386 0.828584 217 198 163
0.984709 0.149205 0.244193 254 255 255
0.984126 0.174817 0.252149 253 255 255
0.982047 0.170275 0.238333 253 255 255
1.028010 -0.018847 0.846216 178 160 132
1.030954 -0.045950 0.847131 177 161 142
0.935259 0.132673 1.131476 124 118 88
0.934543 0.131300 1.143359 107 99 85
0.938272 0.137294 1.143287 124 116 101
0.967173 -0.134628 0.381413 146 202 224
0.967033 -0.086728 0.369323 162 233 250
0.965759 -0.574576 0.188802 224 210 179
0.960232 -0.586128 0.209912 224 209 184
0.890035 0.046851 1.145386 69 69 62
0.895763 0.068761 1.130443 69 69 55
0.957065 0.154116 0.606530 255 253 255
0.988966 0.143854 0.224398 253 255 255
0.989748 0.127076 0.236217 253 255 255
0.988328 0.132125 0.251541 254 255 255
0.973977 -0.136009 0.802243 228 210 176
0.960846 0.305060 1.055991 144 136 115
0.957409 0.283096 1.059711 142 136 112
0.957820 0.274775 1.076992 142 135 110
1.015248 0.221487 0.375916 229 205 168
1.017850 0.247714 0.376379 233 210 175
1.014877 0.229215 0.363008 231 208 172
0.945582 0.115665 0.700959 255 253 255
0.947393 0.139035 0.704680 255 253 255
0.946134 0.122403 0.729785 255 255 254
0.945787 0.125226 0.724001 255 254 255
0.959606 -0.073680 0.450787 159 204 212
0.961776 -0.051737 0.452958 167 211 221
0.955070 -0.077584 0.461453 187 242 244
0.929652 -0.384425 0.318568 252 255 255
0.933497 -0.371442 0.328471 254 255 255
0.932073 -0.395870 0.338542 253 254 255
0.931814 -0.378944 0.338756 252 255 255
0.972037 -0.017859 0.195734 254 254 255
0.972598 0.015635 0.191594 254 254 255
0.978147 0.008738 0.209954 254 254 255
0.971135 -0.019534 0.187435 254 255 255
0.960975 0.077078 1.002866 150 141 112
0.964460 0.058701 1.018233 148 141 114
0.964420 0.054181 0.998270 150 141 122
0.965107 0.067247 1.002935 141 139 112
0.966405 0.051399 1.010333 146 142 121
0.966135 0.054463 0.421573 142 184 201
0.965470 0.062941 0.440807 128 181 191
1.015460 0.338976 0.507325 233 215 173
1.018316 0.348421 0.498594 230 213 179
0.947753 -0.179188 0.574506 178 241 212
0.945114 -0.149698 0.567319 157 218 193
0.942872 -0.157838 0.590589 164 223 200
0.943862 -0.172647 0.598558 154 211 201
0.945011 0.064267 0.669063 190 206 203
0.946310 0.075670 0.651217 144 183 184
1.033437 -0.029663 0.894382 158 151 108
0.951406 -0.555497 0.399573 201 185 163
1.016096 0.227352 0.314907 207 184 143
0.931430 -0.489227 0.571103 201 186 161
0.930938 -0.471179 0.572489 204 186 163
0.925697 -0.474742 0.585475 204 186 163
0.921446 -0.485580 0.587142 170 157 132
0.926344 -0.492957 0.609621 169 154 135
0.998036 0.036321 0.725544 251 251 250
0.954022 0.149863 0.962545 149 141 117
0.956486 0.164595 0.977006 150 139 115
0.951197 0.146984 0.984360 150 139 117
0.955648 0.177846 0.984598 150 139 121
0.943358 -0.228385 0.494885 132 223 216
0.944243 -0.225609 0.478829 124 221 219
0.944269 -0.204771 0.503581 150 229 229
0.951326 -0.461224 0.375857 232 218 187
0.952458 -0.456311 0.365219 232 218 186
0.945811 -0.440782 0.370919 233 218 188
0.955460 -0.451652 0.359082 238 228 217
0.982791 0.153891 0.192394 253 255 255
1.022017 0.016237 0.799205 191 170 140
1.017387 -0.015466 0.811058 195 177 149
1.013841 -0.004289 0.806571 195 175 153
1.026499 0.012369 0.811383 187 168 142
1.026823 0.011527 0.825711 178 163 141
1.022830 -0.012571 0.827239 181 171 127
1.021697 0.005773 0.818336 182 167 144
1.021803 -0.005835 0.814792 190 171 139
0.996513 -0.010356 0.820684 217 197 161
1.014569 -0.013233 0.799211 201 183 141
0.995791 0.204833 0.764565 163 147 121
0.992140 0.213008 0.779480 172 155 125
1.015459 0.334194 0.574595 230 205 170
0.953796 0.217004 1.119083 142 136 110
0.948104 0.226088 1.082968 145 132 112
0.946149 0.205058 1.087452 145 135 108
0.947803 0.230579 1.096111 145 133 109
0.946213 0.219848 1.109628 140 133 116
0.948466 0.214572 1.094292 143 132 115
0.934408 -0.194211 0.678367 227 245 248
0.931937 -0.209365 0.680649 231 248 250
0.931536 -0.221784 0.690502 252 251 253
0.930160 -0.191976 0.693816 252 252 253
0.933126 -0.180495 0.696641 254 254 255
0.929084 -0.195500 0.701337 255 254 254
0.941052 -0.467992 0.547272 208 195 159
0.940999 -0.435937 0.543392 223 208 178
0.936475 -0.446367 0.573374 205 193 162
0.942584 -0.443520 0.551621 223 208 181
0.944385 -0.453047 0.560251 208 193 164
1.017928 0.156924 0.732287 143 123 95
1.014027 0.146159 0.728606 178 175 152
1.010683 0.212084 0.437279 232 209 165
1.011414 0.226493 0.436815 232 212 180
1.007039 0.214260 0.446426 228 203 157
1.010283 0.234144 0.446056 237 211 178
1.016414 0.239835 0.426911 233 212 178
1.010670 0.208813 0.420949 231 202 170
0.966311 0.081430 0.867491 173 161 132
0.963200 0.104872 0.866159 173 158 132
0.967671 0.082737 0.881974 170 159 122
1.034043 -0.023380 0.824807 190 174 139
1.024039 -0.009857 0.803605 190 172 144
1.022362 -0.045854 0.761391 235 208 173
1.019187 -0.034623 0.760412 235 209 172
1.009582 -0.046552 0.751143 235 210 178
1.017925 -0.047332 0.767746 233 207 165
0.992450 -0.030976 0.728550 245 242 235
0.999360 -0.025268 0.737902 246 242 236
1.009534 -0.021267 0.757057 232 212 177
0.990404 -0.040057 0.749054 244 234 215
1.007609 -0.036649 0.756953 236 212 173
0.995262 -0.046153 0.757329 244 235 216
0.999797 -0.029796 0.761257 244 235 217
1.007253 -0.028111 0.753977 233 215 187
1.006605 -0.044590 0.744083 234 220 203
1.013788 -0.032006 0.748197 235 221 205
1.007394 -0.021543 0.749053 246 237 222
0.996158 -0.032282 0.746035 251 247 241
1.007959 -0.043487 0.753907 233 210 180
1.016517 0.285437 0.473641 235 214 187
1.016329 0.296963 0.471098 234 213 189
1.017241 0.267199 0.461811 233 210 180
0.968701 -0.054135 0.193238 254 255 255
0.972134 -0.079390 0.220529 254 255 255
0.974714 -0.051830 0.212436 254 255 255
1.014608 0.251225 0.461457 235 213 173
1.019786 0.269190 0.451961 234 211 164
1.015683 0.247319 0.453307 233 212 171
1.028566 -0.055162 0.839462 181 162 140
1.021824 0.026738 0.761837 230 205 169
1.025099 0.046394 0.744598 233 221 199
0.995900 0.024372 0.741002 230 225 202
1.008356 0.036834 0.745240 243 239 231
0.993732 0.020972 0.746834 249 246 240
1.011308 0.023983 0.765870 240 228 212
1.018416 0.036172 0.752394 227 200 165
1.005894 0.039675 0.736857 252 251 248
1.008336 0.014483 0.756025 225 208 176
1.002439 0.023903 0.757458 238 223 204
0.996264 0.036336 0.747073 241 230 213
0.946859 -0.323711 0.809850 151 140 116
0.948716 -0.313510 0.796923 150 141 118
0.952021 -0.325550 0.795562 154 149 127
0.960295 -0.312871 0.818823 98 90 77
0.946020 -0.332736 0.813391 148 137 115
0.931971 -0.249513 0.558628 170 246 215
0.933611 -0.272032 0.541266 162 241 219
0.932623 -0.244066 0.571865 212 253 232
0.927965 -0.254846 0.567800 212 253 231
0.963303 0.175616 0.505728 255 254 253
0.985493 0.197033 0.523338 254 253 252
0.969740 0.189889 0.516235 255 255 253
0.969013 0.186652 0.531740 254 255 254
0.983022 0.193053 0.535342 249 246 247
0.959700 0.173406 0.530223 255 255 253
0.949373 0.159597 1.041658 145 138 118
0.946267 0.171285 1.050725 144 137 113
0.946003 0.139458 1.033973 147 138 120
0.950769 0.159754 1.032295 149 138 114
0.992287 0.038491 0.723510 252 253 253
0.997529 0.022920 0.736941 252 253 253
0.976877 0.063755 0.350051 137 196 215
0.976200 0.048529 0.312452 127 182 199
0.976738 0.054185 0.330035 140 192 213
0.958299 0.098588 0.944663 150 140 119
0.955210 0.079777 0.932882 150 144 120
0.953633 0.085418 0.955113 152 140 126
0.956626 0.087080 0.945395 146 143 123
0.942558 0.164048 1.121293 142 135 112
0.935409 0.149599 1.099258 141 136 111
0.938947 0.155121 1.097506 147 135 108
0.941237 0.149516 1.089533 146 137 114
0.940011 0.152721 1.111399 141 131 119
0.934140 0.146639 1.109451 138 135 112
0.990860 0.038151 0.733651 253 252 250
0.979695 0.027762 0.752691 253 253 252
0.978299 0.033911 0.743665 254 254 255
0.961947 0.016681 0.750403 253 254 255
0.971222 0.028415 0.753127 252 253 252
0.985825 0.045215 0.761234 237 230 212
0.980272 0.036101 0.752467 246 242 234
0.976304 0.022601 0.738115 253 254 255
0.991510 0.039263 0.747191 252 247 244
0.979648 0.048641 0.747952 253 253 253
0.991501 0.016960 0.764896 241 231 213
0.991732 0.018937 0.740115 252 252 251
0.962927 0.029028 0.769051 252 254 252
0.962084 0.037530 0.755229 254 254 254
0.981730 0.031109 0.764695 253 254 253
0.966897 0.144903 1.183147 66 65 57
0.961010 -0.192071 0.358446 115 197 227
0.964842 -0.179464 0.370827 113 196 225
0.962909 -0.195107 0.380513 100 188 216
0.966792 0.090711 0.464160 222 249 249
0.967410 0.078333 0.454693 189 246 243
0.959263 0.091891 0.476928 187 238 235
1.001342 0.228328 0.634454 174 152 120
0.998772 0.215517 0.672829 114 94 67
0.951915 -0.006402 0.731082 255 255 255
0.944314 -0.005512 0.706644 255 255 255
0.946822 -0.017155 0.711054 255 255 255
0.944130 0.003139 0.705805 255 255 255
0.945835 0.003789 0.718863 255 255 255
0.937063 -0.270199 0.447546 143 227 237
0.945021 -0.259924 0.458923 142 228 228
0.936343 -0.276193 0.477432 149 226 219
0.932156 -0.486334 0.645178 164 154 123
0.942426 -0.459736 0.498495 222 206 182
0.944772 -0.450653 0.494888 228 216 179
0.954480 0.178005 0.691940 255 254 255
0.967037 -0.455131 0.231713 239 243 246
0.954362 -0.282686 0.281095 136 189 208
0.952256 -0.295617 0.261354 242 253 255
0.978082 0.076843 0.326304 141 189 213
0.979209 0.098108 0.298566 145 189 213
0.979775 0.098529 0.283506 118 169 192
0.953117 -0.254471 0.802732 188 172 142
0.943982 -0.269143 0.821826 151 139 118
0.940656 -0.248513 0.826405 152 139 122
0.938673 -0.246887 0.814871 157 143 122
0.957706 0.171370 0.641753 255 254 255
0.954219 0.163231 0.668842 255 253 255
