ply
format ascii 1.0
element vertex 1250
property float x
property float y
property float z
property uchar red
property uchar green
property uchar blue
end_header
-0.447634 0.123080 0.071623 255 0 255
-0.599076 0.128585 0.046185 255 0 255
-0.529485 0.103423 0.037185 255 0 255
-0.455225 0.117165 0.043184 255 0 255
-0.431191 0.114467 0.064185 255 0 255
-0.571604 0.165184 0.064185 255 0 255
-0.613540 0.113547 -0.016816 255 0 255
-0.526558 0.115615 0.004185 255 0 255
-0.558177 0.118766 0.010184 255 0 255
-0.515681 0.105478 -0.031815 255 0 255
-0.615568 0.143243 0.061184 255 0 255
-0.474139 0.115489 0.022185 255 0 255
-0.521829 0.116210 0.058184 255 0 255
-0.547869 0.103951 0.037855 255 0 255
-0.600212 0.104396 -0.025816 255 0 255
-0.529477 0.116308 0.031185 255 0 255
-0.451147 0.114667 0.013185 255 0 255
-0.502707 0.176410 0.044732 255 0 255
-0.612431 0.130607 0.007184 255 0 255
-0.535501 0.104067 0.007564 255 0 255
-0.496048 0.101338 0.067184 255 0 255
-0.560467 0.150169 0.070184 255 0 255
-0.438306 0.105414 0.055185 255 0 255
-0.572406 0.117412 0.010184 255 0 255
-0.571510 0.108290 -0.034816 255 0 255
-0.461989 0.101845 0.019030 255 0 255
-0.559770 0.131489 0.062865 255 0 255
-0.463507 0.114550 -0.016816 255 0 255
-0.590844 0.104861 0.001184 255 0 255
-0.446484 0.115021 -0.031815 255 0 255
-0.438200 0.105389 0.034184 255 0 255
-0.469393 0.115962 -0.004815 255 0 255
-0.546583 0.128324 0.061184 255 0 255
-0.583575 0.109438 0.071945 255 0 255
-0.456971 0.109895 0.071493 255 0 255
-0.481518 0.161862 0.064185 255 0 255
-0.521963 0.134754 0.071709 255 0 255
-0.489430 0.116053 -0.010815 255 0 255
-0.428147 0.139998 0.061371 255 0 255
-0.507610 0.155991 0.065501 255 0 255
-0.611086 0.125299 0.040185 255 0 255
-0.535282 0.117831 -0.028815 255 0 255
-0.523362 0.103224 0.013185 255 0 255
-0.503760 0.133469 0.071830 255 0 255
-0.596291 0.146429 0.032593 255 0 255
-0.547815 0.104180 0.013185 255 0 255
-0.464690 0.116297 0.052184 255 0 255
-0.513648 0.098820 0.070184 255 0 255
-0.606906 0.127918 0.067184 255 0 255
-0.569466 0.103954 -0.001815 255 0 255
-0.561755 0.110370 0.072974 255 0 255
-0.600378 0.116558 -0.036112 255 0 255
-0.538187 0.118581 -0.004815 255 0 255
-0.474143 0.115473 -0.034816 255 0 255
-0.547650 0.117718 -0.031815 255 0 255
-0.463737 0.133116 0.062809 255 0 255
-0.606060 0.108666 0.001184 255 0 255
-0.605779 0.142536 0.022185 255 0 255
-0.476554 0.176302 0.043184 255 0 255
-0.573394 0.103909 0.034184 255 0 255
-0.605513 0.142472 0.052184 255 0 255
-0.599118 0.128596 -0.010815 255 0 255
-0.481239 0.137319 0.062866 255 0 255
-0.538723 0.103496 -0.019815 255 0 255
-0.460936 0.144785 0.071040 255 0 255
-0.440515 0.139883 0.070428 255 0 255
-0.573070 0.153194 0.069780 255 0 255
-0.529667 0.102666 0.059523 255 0 255
-0.508069 0.102669 -0.001815 255 0 255
-0.554073 0.103815 -0.010815 255 0 255
-0.508054 0.102736 0.022185 255 0 255
-0.465183 0.101388 0.001184 255 0 255
-0.540867 0.133122 0.071933 255 0 255
-0.593959 0.130442 0.074186 255 0 255
-0.553474 0.119158 0.022185 255 0 255
-0.498273 0.169175 0.054804 255 0 255
-0.495251 0.117513 0.031185 255 0 255
-0.532366 0.117124 0.019184 255 0 255
-0.499327 0.126235 0.062811 255 0 255
-0.522902 0.117991 -0.022815 255 0 255
-0.492731 0.102306 0.043184 255 0 255
-0.596622 0.145050 -0.007816 255 0 255
-0.438767 0.108610 -0.024319 255 0 255
-0.522779 0.144206 0.062758 255 0 255
-0.555337 0.124255 0.071795 255 0 255
-0.597743 0.122095 0.019184 255 0 255
-0.479966 0.116924 0.046185 255 0 255
-0.556393 0.119853 0.049185 255 0 255
-0.548015 0.103344 0.058184 255 0 255
-0.449989 0.157583 0.043184 255 0 255
-0.578226 0.118869 0.022185 255 0 255
-0.550550 0.157044 0.068037 255 0 255
-0.572486 0.129927 0.064185 255 0 255
-0.434509 0.152054 0.058184 255 0 255
-0.449796 0.101225 0.058184 255 0 255
-0.593490 0.158097 0.059756 255 0 255
-0.567631 0.117951 -0.016816 255 0 255
-0.597122 0.104416 0.031185 255 0 255
-0.439584 0.118062 0.056829 255 0 255
-0.603787 0.151314 -0.025816 255 0 255
-0.599455 0.133251 0.025184 255 0 255
-0.602657 0.107064 0.070184 255 0 255
-0.508317 0.114490 0.061184 255 0 255
-0.599012 0.140911 -0.034816 255 0 255
-0.594885 0.146091 0.007184 255 0 255
-0.604343 0.151446 0.059332 255 0 255
-0.607880 0.118358 0.031185 255 0 255
-0.485326 0.107447 0.071098 255 0 255
-0.529610 0.154306 0.067184 255 0 255
-0.445685 0.150380 0.058184 255 0 255
-0.569478 0.116755 0.061184 255 0 255
-0.583460 0.135625 0.064185 255 0 255
-0.501800 0.115930 -0.007816 255 0 255
-0.584776 0.117286 -0.019815 255 0 255
-0.517083 0.116530 0.037185 255 0 255
-0.593504 0.119484 0.058184 255 0 255
-0.560392 0.103872 -0.028815 255 0 255
-0.599996 0.138062 0.001184 255 0 255
-0.446484 0.115022 0.034184 255 0 255
-0.576185 0.140223 0.073185 255 0 255
-0.575706 0.103665 -0.022815 255 0 255
-0.447166 0.150734 0.026885 255 0 255
-0.513738 0.175973 0.043184 255 0 255
-0.452768 0.127398 0.062722 255 0 255
-0.608275 0.118453 0.019184 255 0 255
-0.586489 0.148703 0.061184 255 0 255
-0.465040 0.101989 -0.022815 255 0 255
-0.606445 0.121099 -0.025816 255 0 255
-0.474282 0.102044 0.055185 255 0 255
-0.503644 0.121101 0.071561 255 0 255
-0.566367 0.104011 0.010184 255 0 255
-0.536549 0.138256 0.062812 255 0 255
-0.466536 0.160010 0.064185 255 0 255
-0.497995 0.110488 -0.034816 255 0 255
-0.486596 0.102157 0.025184 255 0 255
-0.486159 0.123074 0.055185 255 0 255
-0.590912 0.104585 -0.016816 255 0 255
-0.611241 0.128421 -0.013815 255 0 255
-0.532470 0.103339 -0.010815 255 0 255
-0.581938 0.103406 0.061184 255 0 255
-0.584855 0.104108 0.016184 255 0 255
-0.443107 0.149760 -0.007816 255 0 255
-0.422571 0.144831 0.052184 255 0 255
-0.498783 0.102799 -0.016816 255 0 255
-0.605014 0.148650 0.013185 255 0 255
-0.526348 0.103636 0.049185 255 0 255
-0.471185 0.102094 0.013185 255 0 255
-0.554218 0.103211 0.049185 255 0 255
-0.495878 0.102048 0.004185 255 0 255
-0.483595 0.114655 -0.025816 255 0 255
-0.468157 0.101851 0.046185 255 0 255
-0.597497 0.154260 0.043184 255 0 255
-0.454309 0.108132 -0.034816 255 0 255
-0.457202 0.134633 0.071763 255 0 255
-0.518814 0.109317 0.071265 255 0 255
-0.450784 0.148518 0.069024 255 0 255
-0.529898 0.127403 0.072354 255 0 255
-0.492908 0.140119 0.071779 255 0 255
-0.508894 0.137787 0.062884 255 0 255
-0.569453 0.155411 0.059691 255 0 255
-0.532367 0.117120 0.055185 255 0 255
-0.581128 0.119633 0.004185 255 0 255
-0.556968 0.143158 0.062798 255 0 255
-0.528548 0.107327 -0.034816 255 0 255
-0.600159 0.130320 -0.022815 255 0 255
-0.604750 0.148459 -0.013815 255 0 255
-0.557134 0.116767 -0.010815 255 0 255
-0.565604 0.132891 0.071761 255 0 255
-0.520714 0.171477 0.052184 255 0 255
-0.541121 0.119213 0.061184 255 0 255
-0.479971 0.116900 -0.004815 255 0 255
-0.496641 0.150272 0.068342 255 0 255
-0.608721 0.120361 0.049185 255 0 255
-0.594891 0.152263 0.068387 255 0 255
-0.600120 0.104782 0.052184 255 0 255
-0.563398 0.103528 0.031185 255 0 255
-0.598853 0.143958 0.043184 255 0 255
-0.538830 0.103054 0.064185 255 0 255
-0.507783 0.100497 0.061184 255 0 255
-0.452930 0.101026 -0.004815 255 0 255
-0.535283 0.117828 0.040185 255 0 255
-0.570559 0.118654 -0.034816 255 0 255
-0.489643 0.102313 0.053040 255 0 255
-0.578407 0.118115 0.073185 255 0 255
-0.439468 0.105694 0.023226 255 0 255
-0.595864 0.155582 -0.004815 255 0 255
-0.445142 0.103970 -0.031815 255 0 255
-0.441838 0.115518 -0.007816 255 0 255
-0.438265 0.105404 0.001184 255 0 255
-0.608598 0.133724 -0.001815 255 0 255
-0.523833 0.101266 0.067835 255 0 255
-0.499775 0.117086 0.055185 255 0 255
-0.479455 0.131902 0.073185 255 0 255
-0.544015 0.158560 0.059787 255 0 255
-0.587690 0.118003 0.028185 255 0 255
-0.541843 0.116205 0.022185 255 0 255
-0.590603 0.118721 0.040185 255 0 255
-0.523363 0.128920 0.062776 255 0 255
-0.466903 0.119930 0.061184 255 0 255
-0.551603 0.114103 0.070676 255 0 255
-0.503708 0.102604 0.037185 255 0 255
-0.486489 0.154005 0.059804 255 0 255
-0.597061 0.137358 0.052184 255 0 255
-0.439315 0.119184 0.067184 255 0 255
-0.611297 0.135329 0.046185 255 0 255
-0.446814 0.100796 -0.016816 255 0 255
-0.443433 0.140582 0.060116 255 0 255
-0.439816 0.142799 0.031072 255 0 255
-0.587945 0.104092 0.052184 255 0 255
-0.491391 0.133585 0.062737 255 0 255
-0.592047 0.157750 0.025184 255 0 255
-0.538751 0.103382 0.034184 255 0 255
-0.498789 0.102775 0.019184 255 0 255
-0.514161 0.103000 0.007184 255 0 255
-0.480441 0.102089 0.016184 255 0 255
-0.550561 0.118446 0.040185 255 0 255
-0.594075 0.142811 0.059711 255 0 255
-0.475394 0.148816 0.070184 255 0 255
-0.495593 0.116082 0.011686 255 0 255
-0.482645 0.105764 -0.031815 255 0 255
-0.454106 0.115378 -0.025816 255 0 255
-0.469374 0.115958 -0.025816 255 0 255
-0.584816 0.104270 0.040185 255 0 255
-0.514613 0.126819 0.071942 255 0 255
-0.466290 0.105962 -0.031815 255 0 255
-0.486489 0.102602 0.001184 255 0 255
-0.569529 0.103694 0.052184 255 0 255
-0.444249 0.150035 0.046711 255 0 255
-0.456022 0.100993 0.046185 255 0 255
-0.427678 0.167653 -0.030510 255 0 255
-0.577857 0.120406 0.053655 255 0 255
-0.610743 0.111934 -0.007816 255 0 255
-0.458918 0.101785 0.028185 255 0 255
-0.602998 0.105641 0.040185 255 0 255
-0.496294 0.113166 0.071426 255 0 255
-0.461598 0.104836 0.064185 255 0 255
-0.523257 0.103666 -0.013815 255 0 255
-0.605230 0.139319 0.061184 255 0 255
-0.554669 0.108668 -0.034816 255 0 255
-0.557138 0.103897 0.016184 255 0 255
-0.593978 0.104663 0.022185 255 0 255
-0.455224 0.117173 0.004185 255 0 255
-0.483486 0.102261 0.034184 255 0 255
-0.594155 0.149001 -0.022815 255 0 255
-0.539934 0.111301 0.072167 255 0 255
-0.593967 0.104707 -0.007816 255 0 255
-0.593506 0.119481 -0.007816 255 0 255
-0.511114 0.102837 0.049185 255 0 255
-0.471340 0.101447 0.034184 255 0 255
-0.511165 0.102628 0.031185 255 0 255
-0.593027 0.108622 0.071380 255 0 255
-0.452742 0.101809 0.067184 255 0 255
-0.544928 0.103353 0.004185 255 0 255
-0.575318 0.118130 -0.010815 255 0 255
-0.517092 0.116495 -0.007816 255 0 255
-0.504714 0.116644 0.040185 255 0 255
-0.504715 0.116642 -0.025816 255 0 255
-0.473189 0.132300 0.062743 255 0 255
-0.455959 0.114110 0.034184 255 0 255
-0.598354 0.131498 0.037185 255 0 255
-0.517085 0.116520 0.010184 255 0 255
-0.532364 0.117132 -0.019815 255 0 255
-0.541682 0.142574 0.071548 255 0 255
-0.568757 0.119760 0.031185 255 0 255
-0.608094 0.118410 0.004185 255 0 255
-0.514164 0.115840 -0.025816 255 0 255
-0.590601 0.118725 0.004185 255 0 255
-0.611955 0.132593 0.034184 255 0 255
-0.516981 0.102706 -0.022815 255 0 255
-0.449389 0.115772 0.025184 255 0 255
-0.428669 0.150674 -0.031815 255 0 255
-0.502636 0.163852 0.064185 255 0 255
-0.579640 0.112979 -0.034816 255 0 255
-0.608115 0.118415 0.061184 255 0 255
-0.441819 0.115513 0.013185 255 0 255
-0.605396 0.108506 0.012100 255 0 255
-0.596424 0.120174 0.049185 255 0 255
-0.563466 0.103242 0.067184 255 0 255
-0.546000 0.137440 0.062817 255 0 255
-0.471235 0.114736 0.031185 255 0 255
-0.489759 0.114682 0.053601 255 0 255
-0.597747 0.122096 -0.028815 255 0 255
-0.605141 0.148553 0.034184 255 0 255
-0.470972 0.128683 0.071444 255 0 255
-0.565852 0.119011 -0.025816 255 0 255
-0.570547 0.118651 0.040185 255 0 255
-0.578523 0.156189 0.061184 255 0 255
-0.532584 0.103366 -0.001309 255 0 255
-0.544799 0.103891 0.025184 255 0 255
-0.595944 0.109322 -0.032589 255 0 255
-0.597974 0.126571 0.010184 255 0 255
-0.614279 0.161464 0.052184 255 0 255
-0.610901 0.131424 0.016184 255 0 255
-0.605242 0.109148 -0.019815 255 0 255
-0.565532 0.158893 0.067184 255 0 255
-0.602122 0.150914 0.025184 255 0 255
-0.446819 0.113629 0.071691 255 0 255
-0.549734 0.147592 0.070043 255 0 255
-0.521379 0.150040 0.069580 255 0 255
-0.554672 0.165576 0.064185 255 0 255
-0.506760 0.108125 -0.034816 255 0 255
-0.613794 0.150630 0.054203 255 0 255
-0.528382 0.120869 0.062911 255 0 255
-0.578089 0.145144 0.065829 255 0 255
-0.450752 0.154681 0.034184 255 0 255
-0.596815 0.157100 -0.025816 255 0 255
-0.511275 0.115020 0.022185 255 0 255
-0.504577 0.142921 0.071406 255 0 255
-0.432580 0.147233 0.065572 255 0 255
-0.531999 0.118652 0.071646 255 0 255
-0.473694 0.101569 -0.019815 255 0 255
-0.560586 0.140941 0.071979 255 0 255
-0.471224 0.114780 0.004185 255 0 255
-0.470855 0.116314 0.071830 255 0 255
-0.491275 0.121216 0.070985 255 0 255
-0.449416 0.101911 0.034184 255 0 255
-0.512512 0.135570 0.071403 255 0 255
-0.452870 0.101274 0.016184 255 0 255
-0.578682 0.104120 -0.001815 255 0 255
-0.547658 0.117686 0.055185 255 0 255
-0.602836 0.106314 0.061184 255 0 255
-0.513797 0.117367 0.071662 255 0 255
-0.445534 0.131831 0.071430 255 0 255
-0.506793 0.146539 0.062763 255 0 255
-0.486527 0.115295 0.001184 255 0 255
-0.483340 0.128567 0.062811 255 0 255
-0.531530 0.146307 0.062878 255 0 255
-0.489291 0.142336 0.062822 255 0 255
-0.501810 0.115889 -0.016816 255 0 255
-0.438288 0.105410 0.046185 255 0 255
-0.520001 0.117229 0.028185 255 0 255
-0.553478 0.119145 0.031185 255 0 255
-0.504714 0.116643 0.007184 255 0 255
-0.586608 0.122507 0.074554 255 0 255
-0.570506 0.112471 0.071417 255 0 255
-0.606515 0.139627 0.007184 255 0 255
-0.502013 0.102198 -0.008445 255 0 255
-0.504711 0.099759 0.070184 255 0 255
-0.458834 0.153536 0.068419 255 0 255
-0.585239 0.166762 0.064185 255 0 255
-0.602595 0.120175 0.071956 255 0 255
-0.564647 0.117234 0.004185 255 0 255
-0.471087 0.141051 0.062844 255 0 255
-0.446288 0.101161 0.001184 255 0 255
-0.596810 0.157121 0.013185 255 0 255
-0.604343 0.151446 0.068200 255 0 255
-0.462028 0.101682 0.010184 255 0 255
-0.535641 0.103487 -0.028815 255 0 255
-0.461804 0.148079 0.061184 255 0 255
-0.572839 0.128457 0.074212 255 0 255
-0.606786 0.136607 -0.019815 255 0 255
-0.531646 0.158676 0.059788 255 0 255
-0.434797 0.150851 0.049471 255 0 255
-0.479138 0.146070 0.062775 255 0 255
-0.477725 0.105622 0.067184 255 0 255
-0.594789 0.139836 0.073185 255 0 255
-0.455813 0.101870 -0.016816 255 0 255
-0.568637 0.145960 0.071673 255 0 255
-0.572560 0.103917 -0.010815 255 0 255
-0.514290 0.102459 0.016184 255 0 255
-0.445416 0.158022 0.064185 255 0 255
-0.492100 0.104931 -0.031815 255 0 255
-0.560239 0.103836 -0.004802 255 0 255
-0.440943 0.109132 -0.013815 255 0 255
-0.444017 0.125297 0.062929 255 0 255
-0.454870 0.118646 0.070397 255 0 255
-0.471364 0.101348 -0.004815 255 0 255
-0.575547 0.104326 0.016184 255 0 255
-0.572591 0.103789 0.043184 255 0 255
-0.486558 0.102314 -0.013815 255 0 255
-0.544760 0.104052 -0.013815 255 0 255
-0.427677 0.133714 -0.031815 255 0 255
-0.529615 0.102878 0.028185 255 0 255
-0.538881 0.154243 0.068190 255 0 255
-0.550946 0.103989 -0.001815 255 0 255
-0.436038 0.135722 0.058184 255 0 255
-0.554868 0.151909 0.062822 255 0 255
-0.557317 0.103154 0.037185 255 0 255
-0.548101 0.128688 0.072363 255 0 255
-0.517186 0.103247 -0.007816 255 0 255
-0.527798 0.136155 0.062905 255 0 255
-0.449968 0.139066 0.071303 255 0 255
-0.483616 0.114570 0.025184 255 0 255
-0.474151 0.115441 0.052184 255 0 255
-0.474148 0.115450 0.013185 255 0 255
-0.501800 0.115931 0.025184 255 0 255
-0.518346 0.136971 0.062893 255 0 255
-0.575309 0.118170 -0.001815 255 0 255
-0.532375 0.117086 0.010184 255 0 255
-0.581130 0.119625 0.043184 255 0 255
-0.490576 0.124134 0.062757 255 0 255
-0.547653 0.117704 -0.022815 255 0 255
-0.515545 0.148640 0.062818 255 0 255
-0.489424 0.116079 0.040185 255 0 255
-0.547658 0.117684 -0.010815 255 0 255
-0.464690 0.116296 0.019184 255 0 255
-0.562948 0.118251 0.055185 255 0 255
-0.446491 0.114995 0.052184 255 0 255
-0.547643 0.117745 0.016184 255 0 255
-0.605641 0.107485 -0.031815 255 0 255
-0.590603 0.118720 -0.025816 255 0 255
-0.507929 0.103254 -0.022815 255 0 255
-0.477038 0.154821 0.063143 255 0 255
-0.426278 0.173488 -0.036307 255 0 255
-0.544962 0.103211 -0.028815 255 0 255
-0.514926 0.112661 0.055185 255 0 255
-0.564788 0.123439 0.062758 255 0 255
-0.504383 0.169429 0.049185 255 0 255
-0.444017 0.151000 0.001184 255 0 255
-0.514807 0.113157 -0.034816 255 0 255
-0.607728 0.124493 -0.033267 255 0 255
-0.520411 0.102666 0.034184 255 0 255
-0.598868 0.143961 0.016184 255 0 255
-0.608372 0.136988 0.028185 255 0 255
-0.470265 0.105923 0.061184 255 0 255
-0.435851 0.107910 0.062615 255 0 255
-0.550561 0.118445 0.007184 255 0 255
-0.604513 0.139146 -0.028815 255 0 255
-0.455953 0.114135 -0.013815 255 0 255
-0.472957 0.107563 -0.036293 255 0 255
-0.532700 0.115736 -0.036222 255 0 255
-0.438468 0.145561 0.043184 255 0 255
-0.443201 0.115845 -0.024440 255 0 255
-0.608926 0.119503 -0.013815 255 0 255
-0.604847 0.148482 0.046185 255 0 255
-0.610940 0.123965 0.013185 255 0 255
-0.600058 0.138077 -0.013815 255 0 255
-0.495783 0.102443 0.058184 255 0 255
-0.429872 0.145662 0.055185 255 0 255
-0.559025 0.103544 -0.019815 255 0 255
-0.600233 0.104309 -0.001815 255 0 255
-0.587893 0.104304 0.008935 255 0 255
-0.484157 0.138018 0.071681 255 0 255
-0.439164 0.114876 -0.034816 255 0 255
-0.569546 0.103624 -0.028815 255 0 255
-0.599114 0.153277 0.004185 255 0 255
-0.518492 0.096898 0.064185 255 0 255
-0.460096 0.101390 -0.028815 255 0 255
-0.547058 0.103756 0.046185 255 0 255
-0.586791 0.108893 -0.034816 255 0 255
-0.494656 0.171392 0.048067 255 0 255
-0.587776 0.104794 0.067184 255 0 255
-0.518930 0.121685 0.062812 255 0 255
-0.574381 0.104145 0.058184 255 0 255
-0.448198 0.113960 0.043184 255 0 255
-0.600048 0.138075 0.031185 255 0 255
-0.448207 0.113962 0.004185 255 0 255
-0.460004 0.122964 0.062806 255 0 255
-0.602711 0.132543 0.071692 255 0 255
-0.605396 0.108506 0.032828 255 0 255
-0.599793 0.131844 -0.003347 255 0 255
-0.446118 0.116545 0.062754 255 0 255
-0.442659 0.103374 0.061184 255 0 255
-0.582917 0.118535 -0.028815 255 0 255
-0.598850 0.143958 0.025184 255 0 255
-0.435509 0.109332 0.007184 255 0 255
-0.501427 0.117484 0.062777 255 0 255
-0.541451 0.117836 -0.036346 255 0 255
-0.613794 0.150630 0.062236 255 0 255
-0.557126 0.116799 -0.028815 255 0 255
-0.498511 0.116783 -0.030311 255 0 255
-0.596293 0.127917 0.055185 255 0 255
-0.455570 0.115729 -0.036319 255 0 255
-0.544369 0.118537 0.002682 255 0 255
-0.508983 0.175970 0.049185 255 0 255
-0.483225 0.116199 0.014689 255 0 255
-0.524753 0.161683 0.061184 255 0 255
-0.588825 0.126124 0.062799 255 0 255
-0.569160 0.149170 0.064185 255 0 255
-0.598747 0.136200 0.043184 255 0 255
-0.558194 0.118771 -0.001815 255 0 255
-0.532584 0.103366 0.014582 255 0 255
-0.596636 0.144993 -0.028815 255 0 255
-0.482181 0.120547 0.061184 255 0 255
-0.519996 0.117249 0.049185 255 0 255
-0.509398 0.116312 -0.007816 255 0 255
-0.537013 0.116771 0.004185 255 0 255
-0.601141 0.151932 0.052184 255 0 255
-0.562797 0.138387 0.064185 255 0 255
-0.596619 0.145063 -0.016816 255 0 255
-0.496992 0.116418 0.019184 255 0 255
-0.513050 0.159030 0.061184 255 0 255
-0.524648 0.116887 0.037185 255 0 255
-0.596291 0.146429 -0.000245 255 0 255
-0.501402 0.156143 0.061184 255 0 255
-0.554157 0.103465 0.064185 255 0 255
-0.605647 0.142504 -0.004815 255 0 255
-0.532584 0.103366 0.044853 255 0 255
-0.609151 0.157123 0.058184 255 0 255
-0.438924 0.146512 0.061184 255 0 255
-0.610530 0.112824 -0.023690 255 0 255
-0.610646 0.125192 0.032584 255 0 255
-0.440806 0.109100 0.040185 255 0 255
-0.613516 0.113239 0.061184 255 0 255
-0.602970 0.105758 0.019184 255 0 255
-0.539350 0.126587 0.063023 255 0 255
-0.440006 0.111993 0.031185 255 0 255
-0.483304 0.154418 0.067184 255 0 255
-0.434682 0.138482 0.064953 255 0 255
-0.435512 0.109319 0.016184 255 0 255
-0.455967 0.114077 0.052184 255 0 255
-0.526559 0.115614 -0.028815 255 0 255
-0.538187 0.118581 0.028185 255 0 255
-0.604772 0.114527 -0.028815 255 0 255
-0.480458 0.102019 -0.022815 255 0 255
-0.422258 0.135499 0.061184 255 0 255
-0.562067 0.109067 -0.034816 255 0 255
-0.519990 0.117270 0.001184 255 0 255
-0.560043 0.117500 0.028185 255 0 255
-0.590607 0.118700 0.019184 255 0 255
-0.529462 0.116371 -0.004815 255 0 255
-0.449402 0.115720 -0.007816 255 0 255
-0.565853 0.119003 0.013185 255 0 255
-0.464683 0.116325 0.034184 255 0 255
-0.525824 0.118673 0.013185 255 0 255
-0.540867 0.133122 0.059761 255 0 255
-0.517061 0.155174 0.066530 255 0 255
-0.464683 0.116324 0.001184 255 0 255
-0.477066 0.116149 0.037185 255 0 255
-0.611987 0.140941 0.067184 255 0 255
-0.605929 0.108634 0.046185 255 0 255
-0.585382 0.159235 0.061184 255 0 255
-0.445641 0.101005 0.052184 255 0 255
-0.600547 0.154405 0.034184 255 0 255
-0.597007 0.125004 0.040185 255 0 255
-0.598354 0.131498 0.004185 255 0 255
-0.610646 0.125192 0.002678 255 0 255
-0.472720 0.159955 0.060397 255 0 255
-0.523132 0.104182 -0.029210 255 0 255
-0.586024 0.137793 0.074020 255 0 255
-0.467468 0.112416 -0.034816 255 0 255
-0.582522 0.152378 0.070968 255 0 255
-0.440008 0.127419 0.070184 255 0 255
-0.607028 0.127409 0.060030 255 0 255
-0.603448 0.132720 -0.031815 255 0 255
-0.440774 0.109092 -0.004815 255 0 255
-0.611297 0.113008 0.049185 255 0 255
-0.600025 0.156581 0.062704 255 0 255
-0.610646 0.125192 -0.020152 255 0 255
-0.556622 0.106053 0.070362 255 0 255
-0.443330 0.102461 -0.022815 255 0 255
-0.446409 0.101189 0.013185 255 0 255
-0.502013 0.102198 0.027729 255 0 255
-0.440060 0.112006 0.052184 255 0 255
-0.612773 0.131874 -0.007816 255 0 255
-0.467476 0.152526 0.067184 255 0 255
-0.585838 0.119237 0.058184 255 0 255
-0.610765 0.111842 0.019184 255 0 255
-0.506093 0.149456 0.069347 255 0 255
-0.578441 0.105120 -0.029089 255 0 255
-0.464668 0.154937 0.059768 255 0 255
-0.520418 0.102639 0.043184 255 0 255
-0.468368 0.100972 -0.013815 255 0 255
-0.551253 0.160297 0.061184 255 0 255
-0.602225 0.150939 -0.007816 255 0 255
-0.608515 0.118511 0.040185 255 0 255
-0.465182 0.101392 0.025184 255 0 255
-0.590870 0.104755 0.034184 255 0 255
-0.566294 0.105289 0.061184 255 0 255
-0.608492 0.109249 0.067184 255 0 255
-0.504929 0.102897 0.046002 255 0 255
-0.575679 0.103777 0.025184 255 0 255
-0.455251 0.104208 0.061184 255 0 255
-0.594174 0.149005 0.040185 255 0 255
-0.486813 0.101250 0.067184 255 0 255
-0.495903 0.101942 -0.025816 255 0 255
-0.597980 0.126543 0.025184 255 0 255
-0.441916 0.134048 0.062746 255 0 255
-0.453700 0.149218 0.062853 255 0 255
-0.607576 0.115200 0.013185 255 0 255
-0.443297 0.102596 0.007184 255 0 255
-0.532611 0.103256 0.052184 255 0 255
-0.480443 0.102082 0.052184 255 0 255
-0.608519 0.109256 -0.013815 255 0 255
-0.605743 0.145613 -0.022589 255 0 255
-0.605906 0.114800 -0.001815 255 0 255
-0.608570 0.146690 0.064185 255 0 255
-0.436948 0.123600 0.061184 255 0 255
-0.486499 0.102561 0.046185 255 0 255
-0.459058 0.101201 -0.001815 255 0 255
-0.489897 0.152661 0.067184 255 0 255
-0.563341 0.103765 0.019184 255 0 255
-0.536433 0.125887 0.071146 255 0 255
-0.588241 0.141410 0.062939 255 0 255
-0.594609 0.121342 -0.034816 255 0 255
-0.594605 0.121342 0.013185 255 0 255
-0.526426 0.103314 0.022185 255 0 255
-0.597046 0.104736 0.004185 255 0 255
-0.597015 0.104863 -0.019815 255 0 255
-0.581968 0.128985 0.064185 255 0 255
-0.433760 0.155173 0.064185 255 0 255
-0.584814 0.104282 -0.019815 255 0 255
-0.599209 0.147129 0.071487 255 0 255
-0.519863 0.143506 0.071740 255 0 255
-0.440984 0.112228 0.060011 255 0 255
-0.537365 0.147708 0.070506 255 0 255
-0.608493 0.137017 0.013185 255 0 255
-0.585092 0.115972 0.072970 255 0 255
-0.492718 0.102354 0.022185 255 0 255
-0.541926 0.103007 0.055185 255 0 255
-0.480708 0.113832 -0.010815 255 0 255
-0.465253 0.139651 0.065999 255 0 255
-0.489594 0.102517 0.037185 255 0 255
-0.495992 0.114423 0.040185 255 0 255
-0.541775 0.103639 0.016184 255 0 255
-0.501916 0.102595 0.001184 255 0 255
-0.563619 0.154011 0.062914 255 0 255
-0.527913 0.148523 0.070430 255 0 255
-0.531415 0.133938 0.071508 255 0 255
-0.514065 0.102006 0.064185 255 0 255
-0.581856 0.116601 0.049185 255 0 255
-0.608497 0.133933 0.040185 255 0 255
-0.561871 0.122739 0.072593 255 0 255
-0.466654 0.133817 0.072232 255 0 255
-0.572567 0.103890 0.004185 255 0 255
-0.452897 0.101162 0.052184 255 0 255
-0.526493 0.103034 0.004185 255 0 255
-0.467470 0.143269 0.072050 255 0 255
-0.550898 0.104188 0.031185 255 0 255
-0.611115 0.128391 0.046185 255 0 255
-0.480451 0.102049 -0.001815 255 0 255
-0.462105 0.114213 0.072234 255 0 255
-0.550933 0.104041 0.007184 255 0 255
-0.541579 0.104449 0.070184 255 0 255
-0.473457 0.118335 0.061184 255 0 255
-0.497226 0.134986 0.071075 255 0 255
-0.541836 0.116233 0.040185 255 0 255
-0.483520 0.102118 0.010184 255 0 255
-0.520285 0.103191 0.019184 255 0 255
-0.496410 0.125534 0.071662 255 0 255
-0.517087 0.116509 -0.016816 255 0 255
-0.479839 0.143152 0.071001 255 0 255
-0.541102 0.119293 -0.022815 255 0 255
-0.556152 0.133707 0.071959 255 0 255
-0.495802 0.102360 0.049185 255 0 255
-0.601078 0.113640 0.071308 255 0 255
-0.477426 0.101800 0.031185 255 0 255
-0.469808 0.120678 0.052184 255 0 255
-0.508078 0.128335 0.071220 255 0 255
-0.608517 0.133938 0.022185 255 0 255
-0.439002 0.114837 -0.016816 255 0 255
-0.584789 0.104382 -0.004815 255 0 255
-0.563314 0.103877 0.001184 255 0 255
-0.597081 0.104590 0.067184 255 0 255
-0.523307 0.103454 0.055185 255 0 255
-0.483489 0.102247 -0.007816 255 0 255
-0.566435 0.103732 0.037185 255 0 255
-0.600174 0.104559 0.025184 255 0 255
-0.526429 0.103300 -0.007816 255 0 255
-0.527566 0.111418 0.071031 255 0 255
-0.563207 0.104320 -0.010815 255 0 255
-0.527097 0.139072 0.071068 255 0 255
-0.481124 0.124950 0.071709 255 0 255
-0.426855 0.152029 0.055185 255 0 255
-0.455686 0.128098 0.072175 255 0 255
-0.486141 0.116898 0.071707 255 0 255
-0.454089 0.115374 0.019184 255 0 255
-0.466451 0.115256 -0.010815 255 0 255
-0.517170 0.103319 0.001184 255 0 255
-0.477055 0.116195 -0.025816 255 0 255
-0.547285 0.119237 0.071063 255 0 255
-0.461765 0.115627 0.043184 255 0 255
-0.606296 0.136489 0.067184 255 0 255
-0.567121 0.139425 0.072346 255 0 255
-0.452853 0.101345 0.040185 255 0 255
-0.558701 0.155915 0.067184 255 0 255
-0.606609 0.142736 0.043184 255 0 255
-0.468184 0.101741 0.007184 255 0 255
-0.581765 0.104129 0.022185 255 0 255
-0.440261 0.153793 0.061184 255 0 255
-0.452048 0.156102 0.067184 255 0 255
-0.491860 0.105930 0.070776 255 0 255
-0.581779 0.104070 0.034184 255 0 255
-0.445650 0.144201 0.071084 255 0 255
-0.547975 0.103513 -0.007816 255 0 255
-0.605384 0.142440 0.031185 255 0 255
-0.475173 0.111180 0.071619 255 0 255
-0.536549 0.138256 0.071324 255 0 255
-0.553820 0.117720 -0.036401 255 0 255
-0.541849 0.116176 -0.028815 255 0 255
-0.599244 0.140967 0.010184 255 0 255
-0.474291 0.102004 0.040185 255 0 255
-0.455823 0.101824 0.022185 255 0 255
-0.577041 0.110955 0.071776 255 0 255
-0.458871 0.114829 0.013185 255 0 255
-0.572411 0.117386 0.025184 255 0 255
-0.448567 0.144900 0.062713 255 0 255
-0.468339 0.113946 0.025184 255 0 255
-0.560026 0.117571 0.019184 255 0 255
-0.526550 0.115648 0.052184 255 0 255
-0.510534 0.118106 0.013185 255 0 255
-0.495246 0.117530 -0.013815 255 0 255
-0.471672 0.125766 0.062822 255 0 255
-0.500843 0.132770 0.062752 255 0 255
-0.584786 0.117245 0.037185 255 0 255
-0.578223 0.118883 0.013185 255 0 255
-0.489424 0.116078 0.007184 255 0 255
-0.547517 0.143974 0.062942 255 0 255
-0.553235 0.133006 0.062821 255 0 255
-0.551055 0.103537 0.019184 255 0 255
-0.504699 0.116708 -0.001815 255 0 255
-0.562102 0.147476 0.062709 255 0 255
-0.474153 0.115434 -0.010815 255 0 255
-0.446491 0.114994 0.019184 255 0 255
-0.578224 0.118878 -0.016816 255 0 255
-0.525817 0.118704 0.025184 255 0 255
-0.535289 0.117803 -0.010815 255 0 255
-0.587687 0.118017 -0.013815 255 0 255
-0.489414 0.116119 -0.019815 255 0 255
-0.501818 0.115859 0.034184 255 0 255
-0.486518 0.115332 0.046185 255 0 255
-0.524296 0.150741 0.062802 255 0 255
-0.489436 0.116028 -0.028815 255 0 255
-0.514186 0.115745 0.031185 255 0 255
-0.600026 0.138070 0.019184 255 0 255
-0.482874 0.117657 -0.019815 255 0 255
-0.562944 0.118270 0.043184 255 0 255
-0.538065 0.144791 0.062790 255 0 255
-0.507378 0.131253 0.062771 255 0 255
-0.599260 0.140971 0.037185 255 0 255
-0.576572 0.138609 0.065806 255 0 255
-0.547655 0.117701 0.046185 255 0 255
-0.492340 0.116786 0.025184 255 0 255
-0.578624 0.104361 -0.016816 255 0 255
-0.492341 0.116780 -0.004815 255 0 255
-0.550564 0.118430 -0.016816 255 0 255
-0.477052 0.116205 0.001184 255 0 255
-0.587678 0.118051 -0.001815 255 0 255
-0.479961 0.116939 -0.031815 255 0 255
-0.522909 0.117965 -0.004815 255 0 255
-0.482877 0.117650 0.052184 255 0 255
-0.514177 0.115782 0.043184 255 0 255
-0.501809 0.115896 0.046185 255 0 255
-0.477050 0.116215 0.028185 255 0 255
-0.547659 0.117680 0.025184 255 0 255
-0.457202 0.134633 0.062790 255 0 255
-0.544753 0.116936 -0.004815 255 0 255
-0.449739 0.101465 -0.010815 255 0 255
-0.510531 0.118120 0.037185 255 0 255
-0.514028 0.142105 0.062881 255 0 255
-0.584779 0.117272 0.022185 255 0 255
-0.574240 0.122623 0.062844 255 0 255
-0.506561 0.121801 0.062784 255 0 255
-0.494424 0.146654 0.062821 255 0 255
-0.598277 0.125308 0.071941 255 0 255
-0.593518 0.119430 0.025184 255 0 255
-0.526550 0.115652 -0.016816 255 0 255
-0.558253 0.124956 0.062939 255 0 255
-0.595662 0.143192 0.049185 255 0 255
-0.581136 0.119597 0.028185 255 0 255
-0.538194 0.118550 0.016184 255 0 255
-0.575302 0.118200 0.046185 255 0 255
-0.448451 0.132532 0.062764 255 0 255
-0.520004 0.117213 -0.028815 255 0 255
-0.516830 0.130436 0.062779 255 0 255
-0.505462 0.113530 0.055185 255 0 255
-0.553704 0.105352 -0.029067 255 0 255
-0.529479 0.103449 -0.016816 255 0 255
-0.609249 0.143860 0.058184 255 0 255
-0.598252 0.156155 0.028185 255 0 255
-0.438068 0.111528 0.067735 255 0 255
-0.450585 0.162196 0.064185 255 0 255
-0.548333 0.153426 0.062959 255 0 255
-0.426938 0.161305 -0.028815 255 0 255
-0.522067 0.108617 -0.034816 255 0 255
-0.430356 0.128188 0.064185 255 0 255
-0.602371 0.150973 0.040185 255 0 255
-0.517704 0.102880 0.049185 255 0 255
-0.588356 0.153780 0.068267 255 0 255
-0.605552 0.142481 -0.016816 255 0 255
-0.439864 0.148982 0.055185 255 0 255
-0.606808 0.136613 0.055185 255 0 255
-0.538609 0.103974 0.001184 255 0 255
-0.607876 0.121442 0.067184 255 0 255
-0.461085 0.118459 0.058184 255 0 255
-0.618928 0.154948 0.053826 255 0 255
-0.601214 0.151628 -0.019815 255 0 255
-0.443294 0.102610 0.037185 255 0 255
-0.441239 0.109203 -0.031815 255 0 255
-0.498042 0.144437 0.070904 255 0 255
-0.444657 0.116195 -0.001815 255 0 255
-0.430596 0.168353 -0.036290 255 0 255
-0.455911 0.101458 0.034184 255 0 255
-0.606634 0.116201 0.025184 255 0 255
-0.541835 0.103387 0.040185 255 0 255
-0.447900 0.109125 -0.034816 255 0 255
-0.517414 0.115150 0.062813 255 0 255
-0.560389 0.103207 0.025184 255 0 255
-0.595592 0.149345 0.026665 255 0 255
-0.518931 0.173085 0.046185 255 0 255
-0.546166 0.111047 -0.034816 255 0 255
-0.501084 0.106064 0.070184 255 0 255
-0.612163 0.131727 -0.019577 255 0 255
-0.451253 0.120863 0.062779 255 0 255
-0.489924 0.101144 0.061184 255 0 255
-0.501775 0.154589 0.067862 255 0 255
-0.597775 0.122103 -0.013815 255 0 255
-0.460588 0.107678 -0.036185 255 0 255
-0.511464 0.101381 0.055841 255 0 255
-0.599112 0.128594 0.019184 255 0 255
-0.601471 0.153843 0.016184 255 0 255
-0.596569 0.152666 0.058184 255 0 255
-0.505627 0.103066 -0.016816 255 0 255
-0.610359 0.122039 0.025184 255 0 255
-0.534570 0.120797 0.061184 255 0 255
-0.499790 0.175710 0.050413 255 0 255
-0.566305 0.129973 0.065928 255 0 255
-0.601610 0.149976 -0.031815 255 0 255
-0.605159 0.160898 0.062788 255 0 255
-0.510653 0.104760 0.070184 255 0 255
-0.610646 0.125192 0.053567 255 0 255
-0.549502 0.122855 0.062808 255 0 255
-0.471242 0.114708 -0.019815 255 0 255
-0.471241 0.114711 0.046185 255 0 255
-0.557126 0.116800 0.004185 255 0 255
-0.608122 0.112246 0.007184 255 0 255
-0.611260 0.112999 0.001184 255 0 255
-0.577388 0.148060 0.071476 255 0 255
-0.578441 0.105120 0.069563 255 0 255
-0.532377 0.117082 0.046185 255 0 255
-0.504929 0.102897 0.016627 255 0 255
-0.596424 0.120174 0.007184 255 0 255
-0.598348 0.131497 -0.016816 255 0 255
-0.438916 0.133695 0.070184 255 0 255
-0.597227 0.129681 0.031185 255 0 255
-0.452306 0.116473 -0.019815 255 0 255
-0.581126 0.119641 -0.034816 255 0 255
-0.571686 0.120411 0.055185 255 0 255
-0.605889 0.114795 -0.016816 255 0 255
-0.594134 0.148996 0.013185 255 0 255
-0.594872 0.146087 -0.034816 255 0 255
-0.599116 0.128595 -0.028815 255 0 255
-0.546469 0.109785 0.071022 255 0 255
-0.461778 0.115572 -0.022815 255 0 255
-0.492439 0.167775 0.052761 255 0 255
-0.571670 0.159029 0.065641 255 0 255
-0.607925 0.155392 0.064185 255 0 255
-0.506909 0.158907 0.059711 255 0 255
-0.492342 0.116775 -0.034816 255 0 255
-0.538779 0.103265 -0.010815 255 0 255
-0.618252 0.148615 0.058184 255 0 255
-0.538496 0.155849 0.061184 255 0 255
-0.417181 0.143536 0.055185 255 0 255
-0.581572 0.143486 0.073185 255 0 255
-0.502013 0.102198 0.059032 255 0 255
-0.595592 0.149345 -0.012328 255 0 255
-0.434530 0.107593 -0.028815 255 0 255
-0.486360 0.101525 -0.028815 255 0 255
-0.580074 0.124024 0.074361 255 0 255
-0.605229 0.142403 0.013185 255 0 255
-0.446703 0.101260 0.065452 255 0 255
-0.443249 0.102796 0.019184 255 0 255
-0.591973 0.151563 0.062912 255 0 255
-0.545064 0.102789 0.064185 255 0 255
-0.609536 0.124926 0.019184 255 0 255
-0.560354 0.116204 0.071285 255 0 255
-0.468073 0.102205 0.055185 255 0 255
-0.566681 0.151660 0.070184 255 0 255
-0.560384 0.103870 0.049185 255 0 255
-0.588125 0.129042 0.075744 255 0 255
-0.515076 0.176294 0.050199 255 0 255
-0.535654 0.103430 0.058184 255 0 255
-0.571381 0.134527 0.073185 255 0 255
-0.594045 0.104382 -0.025816 255 0 255
-0.520318 0.103055 0.007184 255 0 255
-0.591012 0.104165 0.016184 255 0 255
-0.491507 0.145954 0.070411 255 0 255
-0.498881 0.102390 0.043184 255 0 255
-0.458877 0.101955 -0.022815 255 0 255
-0.444980 0.103931 0.028185 255 0 255
-0.578676 0.104145 0.040185 255 0 255
-0.523597 0.102246 0.061184 255 0 255
-0.448919 0.104877 0.070851 255 0 255
-0.480485 0.101906 0.025184 255 0 255
-0.468094 0.102117 0.019184 255 0 255
-0.505049 0.166654 0.055185 255 0 255
-0.601418 0.125074 -0.034816 255 0 255
-0.560275 0.103686 0.010184 255 0 255
-0.605598 0.107666 -0.004815 255 0 255
-0.532496 0.103732 -0.022815 255 0 255
-0.535550 0.110249 -0.034816 255 0 255
-0.464308 0.105037 0.070184 255 0 255
-0.495816 0.102307 0.013185 255 0 255
-0.568990 0.105936 0.070958 255 0 255
-0.514223 0.102741 0.025184 255 0 255
-0.462865 0.102055 -0.016816 255 0 255
-0.605672 0.133255 0.061184 255 0 255
-0.492718 0.102358 -0.016816 255 0 255
-0.462098 0.101391 0.046185 255 0 255
-0.529583 0.103015 -0.028815 255 0 255
-0.570552 0.118652 0.004185 255 0 255
-0.593986 0.104628 0.052184 255 0 255
-0.488924 0.102140 0.007184 255 0 255
-0.587767 0.104830 -0.010815 255 0 255
-0.556054 0.146024 0.070184 255 0 255
-0.475187 0.101927 0.019184 255 0 255
-0.587784 0.104759 0.022185 255 0 255
-0.608415 0.134486 0.004185 255 0 255
-0.605800 0.108603 -0.025816 255 0 255
-0.524064 0.126003 0.071637 255 0 255
-0.557150 0.103849 0.043184 255 0 255
-0.543199 0.149109 0.071215 255 0 255
-0.439297 0.144958 0.037185 255 0 255
-0.560470 0.128573 0.071885 255 0 255
-0.476261 0.106651 0.061184 255 0 255
-0.511106 0.102873 -0.007816 255 0 255
-0.557156 0.103824 0.031185 255 0 255
-0.604393 0.148373 0.019184 255 0 255
-0.439115 0.145717 0.069779 255 0 255
-0.471214 0.101970 0.001184 255 0 255
-0.587796 0.104709 0.046185 255 0 255
-0.546000 0.137440 0.071885 255 0 255
-0.507962 0.115967 0.071085 255 0 255
-0.501880 0.102748 -0.022815 255 0 255
-0.492117 0.102907 -0.001815 255 0 255
-0.511065 0.103044 -0.028815 255 0 255
-0.587888 0.104325 0.061184 255 0 255
-0.441458 0.110254 0.016184 255 0 255
-0.605189 0.142394 0.001184 255 0 255
-0.538644 0.103826 0.028185 255 0 255
-0.554116 0.103638 0.055185 255 0 255
-0.551003 0.103751 -0.016816 255 0 255
-0.517234 0.103048 -0.016816 255 0 255
-0.544853 0.103665 -0.019815 255 0 255
-0.544887 0.103524 0.031185 255 0 255
-0.480543 0.101663 -0.016816 255 0 255
-0.597096 0.104521 -0.013815 255 0 255
-0.592442 0.123907 0.074900 255 0 255
-0.468235 0.101528 0.040185 255 0 255
-0.608429 0.118490 0.055185 255 0 255
-0.474212 0.102338 0.049185 255 0 255
-0.533400 0.112818 0.071943 255 0 255
-0.455801 0.140467 0.070990 255 0 255
-0.472372 0.122849 0.071731 255 0 255
-0.603374 0.145044 -0.028815 255 0 255
-0.455874 0.101612 -0.010815 255 0 255
-0.593374 0.145728 0.071744 255 0 255
-0.584729 0.104631 0.001184 255 0 255
-0.481008 0.112580 -0.035943 255 0 255
-0.497810 0.119700 0.071341 255 0 255
-0.481008 0.112580 0.071061 255 0 255
-0.567004 0.127057 0.071981 255 0 255
-0.572513 0.104116 -0.016816 255 0 255
-0.526396 0.103443 0.043184 255 0 255
-0.566349 0.104085 -0.022815 255 0 255
-0.495941 0.153189 0.062790 255 0 255
-0.541816 0.103463 0.010184 255 0 255
-0.581980 0.103232 0.055185 255 0 255
-0.605278 0.145501 0.007184 255 0 255
-0.607714 0.111700 0.061184 255 0 255
-0.486633 0.102003 0.019184 255 0 255
-0.495763 0.102524 0.037185 255 0 255
-0.597086 0.104563 0.037185 255 0 255
-0.490459 0.111765 0.071570 255 0 255
-0.509479 0.122501 0.071420 255 0 255
-0.548049 0.103205 0.052184 255 0 255
-0.562936 0.118303 -0.010815 255 0 255
-0.508038 0.102800 0.004185 255 0 255
-0.459028 0.101329 0.004185 255 0 255
-0.489433 0.116040 0.031185 255 0 255
-0.500259 0.148055 0.062719 255 0 255
-0.526550 0.115647 0.019184 255 0 255
-0.477334 0.102181 0.010184 255 0 255
-0.542267 0.127288 0.071833 255 0 255
-0.458719 0.141168 0.062735 255 0 255
-0.597161 0.137381 0.058184 255 0 255
-0.446466 0.153652 0.068402 255 0 255
-0.601380 0.153820 0.010184 255 0 255
-0.538185 0.118591 0.055185 255 0 255
-0.465163 0.101475 0.031185 255 0 255
-0.596790 0.157200 0.019184 255 0 255
-0.600135 0.138095 -0.007816 255 0 255
-0.502243 0.126935 0.071497 255 0 255
-0.569475 0.103917 0.016184 255 0 255
-0.511927 0.150857 0.069392 255 0 255
-0.502128 0.114566 0.071130 255 0 255
-0.569475 0.103916 0.028185 255 0 255
-0.551835 0.138840 0.062754 255 0 255
-0.489440 0.116014 0.013185 255 0 255
-0.590588 0.118784 0.034184 255 0 255
-0.557106 0.116883 0.055185 255 0 255
-0.593520 0.119419 -0.001815 255 0 255
-0.557129 0.116791 0.043184 255 0 255
-0.487889 0.148171 0.062772 255 0 255
-0.512280 0.110833 0.071421 255 0 255
-0.538201 0.118522 0.034184 255 0 255
-0.461520 0.129499 0.071615 255 0 255
-0.488242 0.108147 -0.036198 255 0 255
-0.574240 0.122623 0.074406 255 0 255
-0.495240 0.156106 0.068370 255 0 255
-0.600107 0.104831 0.046185 255 0 255
-0.572394 0.117457 0.016184 255 0 255
-0.465137 0.127282 0.062803 255 0 255
-0.458602 0.128798 0.062812 255 0 255
-0.461772 0.115597 -0.004815 255 0 255
-0.596987 0.124999 -0.004815 255 0 255
-0.562223 0.121272 0.049185 255 0 255
-0.489602 0.102488 0.031185 255 0 255
-0.590877 0.104727 0.028185 255 0 255
-0.569504 0.116648 -0.010815 255 0 255
-0.553473 0.119167 0.016184 255 0 255
-0.541843 0.116204 -0.010815 255 0 255
-0.510532 0.118115 0.007184 255 0 255
-0.483608 0.114602 0.040185 255 0 255
-0.452935 0.101001 0.001184 255 0 255
-0.477506 0.127167 0.062722 255 0 255
-0.594158 0.149002 0.046185 255 0 255
-0.532369 0.117115 0.025184 255 0 255
-0.465181 0.101399 -0.004815 255 0 255
-0.486524 0.115305 -0.004815 255 0 255
-0.572564 0.103898 0.010184 255 0 255
-0.520006 0.117205 0.043184 255 0 255
-0.590592 0.118764 -0.019815 255 0 255
-0.581138 0.119592 -0.001815 255 0 255
-0.451368 0.133232 0.071371 255 0 255
-0.513096 0.120285 0.062750 255 0 255
-0.441022 0.109152 0.010184 255 0 255
-0.578778 0.155123 0.067184 255 0 255
-0.467002 0.145221 0.064185 255 0 255
-0.502128 0.114566 -0.036149 255 0 255
-0.431627 0.138352 0.055185 255 0 255
-0.443193 0.149781 0.031185 255 0 255
-0.602803 0.106457 0.007184 255 0 255
-0.565834 0.114435 -0.034816 255 0 255
-0.554868 0.151909 0.069469 255 0 255
-0.462336 0.138951 0.071071 255 0 255
-0.606340 0.127244 -0.025816 255 0 255
-0.608344 0.147630 0.052184 255 0 255
-0.596854 0.156936 -0.031815 255 0 255
-0.487399 0.117200 0.061184 255 0 255
-0.474120 0.154120 0.068098 255 0 255
-0.526120 0.155995 0.061184 255 0 255
-0.529525 0.103257 0.067184 255 0 255
-0.536665 0.150625 0.062875 255 0 255
-0.487088 0.163405 0.064185 255 0 255
-0.576688 0.150978 0.062862 255 0 255
-0.442855 0.117288 0.040185 255 0 255
-0.577973 0.132774 0.065833 255 0 255
-0.600779 0.135165 -0.025816 255 0 255
-0.547660 0.117677 0.061184 255 0 255
-0.439468 0.105694 -0.018150 255 0 255
-0.597015 0.125005 -0.022815 255 0 255
-0.451118 0.114661 -0.001815 255 0 255
-0.596426 0.120170 0.043184 255 0 255
-0.435851 0.107910 0.050688 255 0 255
-0.480307 0.115498 0.020641 255 0 255
-0.589641 0.135576 0.062838 255 0 255
-0.529467 0.116351 0.040185 255 0 255
-0.560039 0.117520 -0.016816 255 0 255
-0.439720 0.104640 -0.028815 255 0 255
-0.572407 0.117406 -0.019815 255 0 255
-0.593941 0.124268 0.061184 255 0 255
-0.498899 0.115165 0.007184 255 0 255
-0.453038 0.113424 -0.031815 255 0 255
-0.582522 0.152378 0.062840 255 0 255
-0.544888 0.154925 0.067184 255 0 255
-0.599093 0.134760 -0.036020 255 0 255
-0.512981 0.107916 -0.036140 255 0 255
-0.566188 0.117605 0.035732 255 0 255
-0.606212 0.117958 -0.033067 255 0 255
-0.562926 0.118346 0.061184 255 0 255
-0.581858 0.116590 0.055185 255 0 255
-0.575310 0.118164 -0.031815 255 0 255
-0.442823 0.103414 -0.013815 255 0 255
-0.527618 0.117600 0.058184 255 0 255
-0.605956 0.114811 0.049185 255 0 255
-0.597321 0.149761 -0.004815 255 0 255
-0.456350 0.119002 0.061184 255 0 255
-0.452653 0.115029 0.029725 255 0 255
-0.580189 0.136392 0.074097 255 0 255
-0.611243 0.112995 0.025184 255 0 255
-0.567821 0.136508 0.065834 255 0 255
-0.525318 0.172583 0.049185 255 0 255
-0.452653 0.115029 0.038689 255 0 255
-0.442154 0.120207 0.001184 255 0 255
-0.570550 0.118652 -0.028815 255 0 255
-0.458238 0.104615 0.070184 255 0 255
-0.467939 0.115613 0.014653 255 0 255
-0.483422 0.174866 0.046185 255 0 255
-0.535639 0.103490 0.040185 255 0 255
-0.585816 0.119231 0.007184 255 0 255
-0.517298 0.102782 0.068749 255 0 255
-0.581474 0.118189 -0.012271 255 0 255
-0.449736 0.114329 -0.036288 255 0 255
-0.608584 0.152465 0.055185 255 0 255
-0.582900 0.118532 0.016184 255 0 255
-0.460708 0.158583 0.061184 255 0 255
-0.574255 0.161108 0.061184 255 0 255
-0.446487 0.115008 0.010184 255 0 255
-0.532360 0.117152 0.001184 255 0 255
-0.606912 0.115041 0.035526 255 0 255
-0.611156 0.128401 -0.001815 255 0 255
-0.467914 0.161887 0.058184 255 0 255
-0.438181 0.105384 -0.010815 255 0 255
-0.546582 0.160718 0.064185 255 0 255
-0.607504 0.138276 0.049185 255 0 255
-0.467592 0.117059 -0.031815 255 0 255
-0.426278 0.173488 -0.030778 255 0 255
-0.596877 0.131143 0.050736 255 0 255
-0.428963 0.149450 0.050778 255 0 255
-0.444613 0.116184 0.028185 255 0 255
-0.565511 0.158979 0.061184 255 0 255
-0.612394 0.156465 0.053575 255 0 255
-0.592327 0.111539 -0.036118 255 0 255
-0.606912 0.115041 0.065504 255 0 255
-0.595708 0.155545 0.037185 255 0 255
-0.590263 0.158687 0.064185 255 0 255
-0.562941 0.118283 -0.031815 255 0 255
-0.442152 0.120217 0.061184 255 0 255
-0.592064 0.157755 -0.013815 255 0 255
-0.495971 0.114509 0.058184 255 0 255
-0.426846 0.164368 -0.034816 255 0 255
-0.512334 0.117017 -0.031815 255 0 255
-0.448433 0.151039 -0.007816 255 0 255
-0.583264 0.143301 0.064185 255 0 255
-0.438778 0.147118 0.049185 255 0 255
-0.440896 0.109121 0.004185 255 0 255
-0.509131 0.098250 0.067184 255 0 255
-0.573424 0.113172 -0.032935 255 0 255
-0.607500 0.115181 -0.010815 255 0 255
-0.432612 0.165752 -0.031815 255 0 255
-0.468164 0.101823 -0.028815 255 0 255
-0.495257 0.117481 0.052184 255 0 255
-0.608923 0.119517 0.010184 255 0 255
-0.527161 0.113107 -0.034816 255 0 255
-0.431108 0.146880 -0.034816 255 0 255
-0.436666 0.117361 0.062829 255 0 255
-0.502399 0.100587 0.064185 255 0 255
-0.599693 0.150330 0.046185 255 0 255
-0.598840 0.143955 0.004185 255 0 255
-0.551603 0.114103 -0.033065 255 0 255
-0.594907 0.146096 0.022185 255 0 255
-0.608700 0.133981 -0.013815 255 0 255
-0.446466 0.153652 0.042123 255 0 255
-0.542967 0.124371 0.059712 255 0 255
-0.529484 0.103430 0.010184 255 0 255
-0.476575 0.105346 -0.032985 255 0 255
-0.437564 0.142259 0.058184 255 0 255
-0.428963 0.149450 0.059395 255 0 255
-0.439906 0.111969 0.022185 255 0 255
-0.612478 0.117558 0.064185 255 0 255
-0.553381 0.119547 0.070184 255 0 255
-0.603298 0.155794 0.055185 255 0 255
-0.597466 0.154385 0.049185 255 0 255
-0.558138 0.112586 -0.032962 255 0 255
-0.449382 0.154353 0.062911 255 0 255
-0.565720 0.145259 0.065924 255 0 255
-0.442586 0.103356 0.043184 255 0 255
-0.480475 0.101950 -0.028815 255 0 255
-0.600759 0.135160 -0.019815 255 0 255
-0.452307 0.116471 0.049185 255 0 255
-0.529198 0.130321 0.062929 255 0 255
-0.600747 0.135157 0.007184 255 0 255
-0.594616 0.121344 0.037185 255 0 255
-0.464681 0.116334 0.028185 255 0 255
-0.554219 0.116059 0.037185 255 0 255
-0.553477 0.119153 -0.007816 255 0 255
-0.507618 0.117402 0.025184 255 0 255
-0.596829 0.157042 0.067184 255 0 255
-0.522901 0.117996 0.007184 255 0 255
-0.482536 0.157619 0.061184 255 0 255
-0.553470 0.119178 -0.025816 255 0 255
-0.498162 0.118238 0.037185 255 0 255
-0.596840 0.156999 0.007184 255 0 255
-0.445650 0.144201 0.056956 255 0 255
-0.458834 0.153536 0.063131 255 0 255
-0.442709 0.146579 -0.001815 255 0 255
-0.490459 0.111765 -0.033026 255 0 255
-0.510215 0.170840 0.049185 255 0 255
-0.442542 0.103346 -0.001815 255 0 255
-0.440984 0.112228 -0.020945 255 0 255
-0.535032 0.131721 0.062875 255 0 255
-0.575332 0.118069 0.058184 255 0 255
-0.581131 0.119623 -0.022815 255 0 255
-0.514180 0.115771 0.016184 255 0 255
-0.498895 0.115180 -0.001815 255 0 255
-0.590605 0.118711 0.046185 255 0 255
-0.513449 0.118818 -0.004815 255 0 255
-0.590604 0.118716 0.010184 255 0 255
-0.586959 0.121044 0.043184 255 0 255
-0.600530 0.154476 0.070184 255 0 255
-0.600592 0.154219 -0.028815 255 0 255
-0.442386 0.106393 -0.036103 255 0 255
-0.601226 0.151578 -0.001815 255 0 255
-0.427147 0.157016 -0.031815 255 0 255
-0.442858 0.117275 0.049185 255 0 255
-0.590595 0.118756 0.052184 255 0 255
-0.458856 0.114893 0.007184 255 0 255
-0.485791 0.118357 0.037185 255 0 255
-0.594787 0.133726 0.055185 255 0 255
-0.442859 0.117269 -0.013815 255 0 255
-0.510533 0.118110 -0.022815 255 0 255
-0.458853 0.114903 0.001184 255 0 255
-0.455482 0.146561 0.070184 255 0 255
-0.441800 0.121679 0.071036 255 0 255
-0.605627 0.133244 -0.025677 255 0 255
-0.507916 0.103312 0.040185 255 0 255
-0.498534 0.168090 0.049185 255 0 255
-0.442867 0.117238 0.007184 255 0 255
-0.421821 0.140649 0.055185 255 0 255
-0.448528 0.151062 0.037185 255 0 255
-0.519284 0.177304 0.043184 255 0 255
-0.457917 0.105951 -0.031815 255 0 255
-0.550087 0.107569 -0.032717 255 0 255
-0.597220 0.134311 0.073185 255 0 255
-0.601779 0.110723 -0.032859 255 0 255
-0.484625 0.110364 -0.032998 255 0 255
-0.612023 0.134780 0.010184 255 0 255
-0.494777 0.106631 -0.035907 255 0 255
-0.526050 0.104883 0.070702 255 0 255
-0.611462 0.134645 0.051298 255 0 255
-0.605043 0.148530 -0.004304 255 0 255
-0.596788 0.157209 -0.019815 255 0 255
-0.440284 0.115145 0.070550 255 0 255
-0.497924 0.106376 -0.031815 255 0 255
-0.609208 0.124847 -0.010815 255 0 255
-0.566073 0.105236 0.055558 255 0 255
-0.505392 0.152372 0.062744 255 0 255
-0.601154 0.151876 0.064185 255 0 255
-0.472039 0.144366 0.070184 255 0 255
-0.475400 0.101979 -0.001815 255 0 255
-0.470896 0.154703 0.064185 255 0 255
-0.573626 0.103964 0.049185 255 0 255
-0.589443 0.149252 0.070184 255 0 255
-0.479327 0.119585 0.055185 255 0 255
-0.445205 0.153349 0.034184 255 0 255
-0.452021 0.104811 -0.031815 255 0 255
-0.447050 0.138366 0.062799 255 0 255
-0.440984 0.112228 -0.027827 255 0 255
-0.593503 0.119490 -0.013815 255 0 255
-0.503771 0.159123 0.067184 255 0 255
-0.551049 0.103561 0.043184 255 0 255
-0.460936 0.144785 0.066044 255 0 255
-0.500836 0.171348 0.046185 255 0 255
-0.605527 0.107959 0.052184 255 0 255
-0.596542 0.152659 0.010184 255 0 255
-0.433128 0.144952 0.061184 255 0 255
-0.506669 0.172757 0.046185 255 0 255
-0.442606 0.112617 0.037185 255 0 255
-0.608428 0.108726 0.037185 255 0 255
-0.439699 0.130431 0.060183 255 0 255
-0.430225 0.137412 -0.034816 255 0 255
-0.446803 0.100841 -0.004815 255 0 255
-0.597977 0.126559 -0.016816 255 0 255
-0.598339 0.131494 0.010184 255 0 255
-0.590296 0.107146 -0.031815 255 0 255
-0.598018 0.146843 0.037185 255 0 255
-0.596550 0.152661 0.031185 255 0 255
-0.442545 0.103346 0.049185 255 0 255
-0.607579 0.118286 -0.019815 255 0 255
