ply
format ascii 1.0
element vertex 1200
property float x
property float y
property float z
property uchar red
property uchar green
property uchar blue
end_header
-2.991995 -1.426866 -0.245837 255 125 0
-2.872614 -1.480866 -0.247845 255 125 0
-2.832149 -1.396308 -0.268858 255 125 0
-2.926885 -1.510225 -0.260858 255 125 0
-2.855272 -1.408900 -0.243752 255 125 0
-2.948097 -1.364633 -0.239874 255 125 0
-3.006370 -1.350202 -0.240262 255 125 0
-2.903225 -1.384394 -0.239845 255 125 0
-2.888160 -1.371239 -0.243779 255 125 0
-2.965382 -1.301662 -0.243843 255 125 0
-2.903518 -1.376153 -0.239363 255 125 0
-2.901866 -1.320284 -0.240858 255 125 0
-3.041148 -1.436864 -0.249716 255 125 0
-2.855149 -1.398703 -0.239894 255 125 0
-2.915359 -1.479959 -0.252114 255 125 0
-3.007816 -1.405101 -0.240279 255 125 0
-2.833344 -1.368577 -0.270858 255 125 0
-2.920888 -1.515589 -0.261818 255 125 0
-2.858844 -1.444944 -0.275847 255 125 0
-2.963015 -1.459607 -0.264858 255 125 0
-2.899145 -1.490252 -0.258858 255 125 0
-2.855074 -1.359869 -0.243833 255 125 0
-2.879954 -1.486542 -0.254858 255 125 0
-3.000389 -1.482333 -0.276858 255 125 0
-2.941916 -1.470226 -0.253461 255 125 0
-2.963663 -1.463558 -0.270858 255 125 0
-2.942491 -1.472933 -0.278858 255 125 0
-2.919707 -1.384980 -0.239427 255 125 0
-2.985493 -1.473230 -0.285609 255 125 0
-2.848207 -1.439026 -0.268858 255 125 0
-2.940848 -1.494060 -0.242858 255 125 0
-2.836853 -1.400547 -0.246858 255 125 0
-2.988451 -1.458290 -0.238317 255 125 0
-2.936542 -1.473803 -0.278858 255 125 0
-2.943060 -1.369792 -0.239472 255 125 0
-2.931315 -1.474523 -0.258858 255 125 0
-2.940545 -1.454159 -0.245770 255 125 0
-3.014940 -1.366783 -0.242858 255 125 0
-3.030010 -1.528755 -0.250858 255 125 0
-2.856742 -1.453569 -0.252858 255 125 0
-3.037750 -1.531642 -0.254858 255 125 0
-2.901963 -1.522748 -0.260858 255 125 0
-2.981146 -1.452782 -0.272858 255 125 0
-2.957340 -1.350399 -0.241502 255 125 0
-2.866689 -1.347177 -0.271797 255 125 0
-2.921030 -1.477778 -0.248858 255 125 0
-2.994925 -1.344456 -0.239561 255 125 0
-2.929762 -1.470764 -0.245817 255 125 0
-2.983801 -1.397937 -0.240359 255 125 0
-2.911834 -1.415278 -0.239921 255 125 0
-2.872018 -1.353013 -0.238858 255 125 0
-2.848571 -1.406235 -0.239537 255 125 0
-2.841023 -1.416018 -0.244858 255 125 0
-2.877575 -1.436873 -0.243646 255 125 0
-2.918562 -1.446928 -0.240858 255 125 0
-2.917551 -1.480650 -0.244858 255 125 0
-2.903007 -1.431468 -0.245856 255 125 0
-2.933750 -1.508766 -0.252409 255 125 0
-2.880500 -1.469872 -0.240858 255 125 0
-2.993630 -1.367223 -0.239611 255 125 0
-2.866329 -1.480157 -0.249043 255 125 0
-2.914234 -1.484288 -0.280203 255 125 0
-2.943828 -1.508081 -0.244858 255 125 0
-2.978566 -1.354066 -0.243837 255 125 0
-3.029145 -1.515069 -0.257894 255 125 0
-2.832904 -1.389118 -0.246858 255 125 0
-3.006191 -1.484033 -0.276858 255 125 0
-2.999424 -1.327142 -0.240124 255 125 0
-2.975731 -1.379206 -0.240032 255 125 0
-2.870894 -1.338105 -0.238379 255 125 0
-2.961449 -1.427450 -0.240858 255 125 0
-2.942415 -1.445582 -0.240858 255 125 0
-2.877179 -1.338814 -0.243855 255 125 0
-2.950928 -1.498980 -0.248858 255 125 0
-2.934114 -1.514822 -0.268858 255 125 0
-2.863636 -1.419390 -0.239944 255 125 0
-3.002268 -1.465576 -0.284017 255 125 0
-2.917392 -1.473393 -0.276858 255 125 0
-2.895462 -1.502591 -0.234858 255 125 0
-2.907902 -1.512215 -0.250801 255 125 0
-2.924281 -1.406499 -0.239985 255 125 0
-2.979413 -1.463869 -0.236858 255 125 0
-3.002516 -1.443032 -0.264858 255 125 0
-3.019558 -1.450724 -0.286858 255 125 0
-2.878426 -1.344682 -0.271818 255 125 0
-2.927799 -1.480769 -0.238858 255 125 0
-3.001989 -1.483504 -0.248858 255 125 0
-3.011662 -1.529008 -0.256027 255 125 0
-2.913545 -1.394469 -0.239775 255 125 0
-3.013070 -1.442832 -0.266858 255 125 0
-2.853391 -1.448149 -0.267257 255 125 0
-2.881091 -1.337982 -0.268013 255 125 0
-2.832096 -1.362709 -0.270858 255 125 0
-2.956598 -1.465060 -0.258858 255 125 0
-3.008307 -1.445889 -0.259704 255 125 0
-2.979936 -1.370132 -0.243647 255 125 0
-2.918100 -1.512092 -0.269951 255 125 0
-2.858305 -1.432791 -0.240111 255 125 0
-2.992846 -1.334674 -0.243849 255 125 0
-2.904255 -1.437336 -0.240083 255 125 0
-2.965826 -1.371088 -0.239650 255 125 0
-2.889558 -1.493246 -0.252858 255 125 0
-2.924791 -1.351184 -0.239672 255 125 0
-2.970372 -1.325139 -0.238747 255 125 0
-2.932815 -1.398551 -0.240523 255 125 0
-2.959249 -1.378620 -0.239617 255 125 0
-2.895891 -1.426847 -0.245848 255 125 0
-3.016760 -1.470675 -0.238858 255 125 0
-2.962745 -1.375832 -0.243774 255 125 0
-2.941159 -1.505146 -0.277723 255 125 0
-2.931112 -1.467494 -0.282858 255 125 0
-2.872443 -1.499305 -0.241415 255 125 0
-2.933278 -1.371871 -0.239567 255 125 0
-2.910983 -1.507471 -0.236866 255 125 0
-2.877358 -1.483948 -0.240562 255 125 0
-2.996455 -1.486326 -0.270858 255 125 0
-2.863187 -1.474996 -0.248858 255 125 0
-2.901571 -1.492050 -0.244858 255 125 0
-3.007863 -1.376466 -0.239723 255 125 0
-2.843581 -1.368445 -0.242858 255 125 0
-3.003584 -1.448938 -0.248858 255 125 0
-2.882367 -1.411319 -0.240271 255 125 0
-2.941273 -1.351770 -0.240001 255 125 0
-3.000240 -1.478275 -0.282858 255 125 0
-3.005793 -1.530257 -0.255621 255 125 0
-2.972801 -1.461616 -0.245574 255 125 0
-2.998478 -1.476604 -0.237867 255 125 0
-3.003828 -1.367100 -0.240191 255 125 0
-2.902544 -1.458148 -0.240498 255 125 0
-2.821401 -1.364982 -0.267944 255 125 0
-2.895617 -1.338984 -0.238452 255 125 0
-2.863541 -1.476661 -0.240548 255 125 0
-3.026190 -1.443449 -0.266858 255 125 0
-2.850335 -1.438575 -0.260858 255 125 0
-2.970618 -1.345532 -0.243697 255 125 0
-2.954136 -1.344946 -0.239376 255 125 0
-2.863418 -1.466464 -0.241336 255 125 0
-2.859572 -1.342556 -0.238462 255 125 0
-2.950572 -1.466341 -0.282858 255 125 0
-2.918188 -1.502890 -0.244858 255 125 0
-2.923817 -1.481271 -0.252858 255 125 0
-2.842329 -1.413696 -0.254858 255 125 0
-2.963549 -1.312275 -0.243847 255 125 0
-2.885476 -1.474043 -0.241510 255 125 0
-2.893538 -1.329202 -0.238488 255 125 0
-2.909604 -1.327832 -0.238717 255 125 0
-2.844590 -1.421393 -0.256858 255 125 0
-2.878625 -1.393713 -0.243779 255 125 0
-3.011936 -1.438984 -0.254858 255 125 0
-3.019382 -1.469135 -0.246858 255 125 0
-2.874340 -1.498608 -0.250858 255 125 0
-2.899898 -1.368743 -0.239349 255 125 0
-2.832137 -1.377013 -0.239503 255 125 0
-2.855442 -1.390461 -0.243670 255 125 0
-2.899019 -1.393466 -0.243813 255 125 0
-2.936284 -1.328295 -0.239357 255 125 0
-2.870950 -1.473042 -0.245816 255 125 0
-2.932446 -1.367959 -0.243810 255 125 0
-2.840516 -1.409992 -0.260858 255 125 0
-2.984463 -1.420288 -0.245840 255 125 0
-2.870705 -1.452647 -0.245794 255 125 0
-2.874494 -1.441617 -0.245831 255 125 0
-2.911390 -1.345854 -0.243742 255 125 0
-2.952160 -1.441467 -0.245840 255 125 0
-2.921758 -1.327292 -0.238643 255 125 0
-3.027917 -1.413096 -0.241127 255 125 0
-2.944335 -1.443130 -0.245800 255 125 0
-2.887281 -1.395962 -0.239824 255 125 0
-2.845426 -1.396679 -0.254858 255 125 0
-2.886894 -1.461473 -0.245815 255 125 0
-3.011312 -1.402313 -0.245811 255 125 0
-2.923326 -1.392390 -0.243775 255 125 0
-2.887206 -1.357129 -0.243781 255 125 0
-2.833800 -1.384838 -0.239653 255 125 0
-2.887480 -1.444992 -0.245851 255 125 0
-2.956810 -1.501819 -0.258250 255 125 0
-2.940735 -1.339617 -0.243787 255 125 0
-2.892564 -1.411196 -0.240180 255 125 0
-2.927211 -1.324090 -0.243851 255 125 0
-2.835756 -1.370110 -0.254858 255 125 0
-2.855204 -1.423226 -0.254858 255 125 0
-2.845049 -1.394714 -0.248858 255 125 0
-2.868982 -1.459146 -0.250858 255 125 0
-2.844489 -1.425505 -0.240371 255 125 0
-2.921744 -1.471518 -0.264858 255 125 0
-3.003487 -1.403976 -0.245852 255 125 0
-3.005614 -1.385122 -0.240239 255 125 0
-2.955415 -1.466399 -0.274858 255 125 0
-2.940627 -1.468454 -0.244858 255 125 0
-3.004905 -1.391407 -0.245849 255 125 0
-2.993337 -1.375463 -0.243801 255 125 0
-2.910736 -1.519792 -0.244858 255 125 0
-2.972971 -1.443178 -0.245839 255 125 0
-2.875496 -1.427092 -0.240083 255 125 0
-2.860555 -1.424134 -0.243579 255 125 0
-2.877623 -1.408237 -0.243790 255 125 0
-3.027038 -1.437819 -0.250206 255 125 0
-2.946046 -1.422319 -0.240598 255 125 0
-2.987521 -1.492393 -0.262858 255 125 0
-3.036141 -1.519121 -0.252858 255 125 0
-2.962726 -1.471936 -0.282332 255 125 0
-2.997373 -1.384829 -0.240424 255 125 0
-2.954345 -1.413269 -0.240858 255 125 0
-2.929861 -1.476877 -0.246858 255 125 0
-2.982306 -1.487094 -0.280858 255 125 0
-2.841380 -1.362780 -0.243833 255 125 0
-3.009588 -1.476287 -0.280858 255 125 0
-2.899170 -1.471133 -0.240567 255 125 0
-3.003011 -1.463374 -0.236858 255 125 0
-2.926851 -1.457069 -0.241000 255 125 0
-3.000482 -1.447554 -0.241382 255 125 0
-2.974076 -1.534954 -0.259816 255 125 0
-2.994339 -1.360938 -0.243804 255 125 0
-2.945753 -1.430561 -0.245796 255 125 0
-2.899501 -1.491930 -0.280858 255 125 0
-3.039044 -1.475064 -0.266858 255 125 0
-2.745819 -1.423036 -0.302858 0 0 255
-2.747769 -1.489923 -0.300858 0 0 255
-2.780148 -1.392153 -0.297654 0 0 255
-2.780385 -1.441362 -0.298858 0 0 255
-2.726424 -1.456841 -0.298858 0 0 255
-2.743044 -1.390738 -0.302858 0 0 255
-2.717892 -1.427876 -0.298858 0 0 255
-2.779269 -1.416875 -0.297739 0 0 255
-2.727239 -1.407487 -0.302858 0 0 255
-2.744063 -1.443633 -0.300858 0 0 255
-2.755149 -1.405644 -0.300858 0 0 255
-2.733732 -1.471983 -0.302858 0 0 255
-2.763404 -1.391623 -0.296858 0 0 255
-2.728045 -1.440032 -0.302858 0 0 255
-2.770490 -1.404428 -0.295379 0 0 255
-2.731338 -1.422245 -0.298858 0 0 255
-2.740729 -1.408710 -0.298381 0 0 255
-2.739854 -1.457969 -0.302858 0 0 255
-2.731950 -1.396264 -0.299968 0 0 255
-2.777496 -1.429521 -0.296858 0 0 255
-2.737478 -1.431892 -0.303810 0 0 255
-2.755776 -1.417779 -0.300858 0 0 255
-2.748890 -1.433557 -0.300858 0 0 255
-2.743754 -1.480659 -0.304858 0 0 255
-2.734010 -1.448987 -0.302858 0 0 255
-2.752174 -1.395217 -0.300858 0 0 255
-2.722242 -1.417930 -0.300858 0 0 255
-2.780271 -1.402349 -0.295523 0 0 255
-2.741022 -1.400469 -0.303837 0 0 255
-2.727281 -1.432015 -0.297879 0 0 255
-2.722590 -1.447326 -0.300858 0 0 255
-2.771907 -1.391860 -0.301831 0 0 255
-2.733564 -1.463395 -0.298858 0 0 255
-2.747846 -1.413332 -0.301717 0 0 255
-2.738480 -1.417367 -0.301510 0 0 255
-2.720263 -1.437476 -0.298858 0 0 255
-2.735879 -1.440412 -0.298858 0 0 255
-2.747011 -1.403286 -0.298858 0 0 255
-2.726034 -1.426147 -0.303770 0 0 255
-2.733613 -1.404088 -0.298235 0 0 255
-2.729823 -1.415118 -0.303763 0 0 255
-2.731146 -1.459820 -0.305676 0 0 255
-2.740559 -1.427149 -0.298119 0 0 255
-2.776744 -1.409234 -0.296858 0 0 255
-2.739680 -1.451871 -0.298032 0 0 255
-2.723588 -1.433879 -0.304858 0 0 255
-2.752297 -1.424654 -0.298943 0 0 255
-2.742223 -1.434974 -0.298124 0 0 255
-2.773155 -1.397728 -0.297803 0 0 255
-2.765330 -1.399392 -0.295004 0 0 255
-2.734861 -1.409957 -0.303851 0 0 255
-2.729113 -1.445939 -0.298858 0 0 255
-2.735815 -1.424067 -0.303843 0 0 255
-2.725079 -1.412036 -0.298092 0 0 255
-2.742147 -1.396141 -0.298620 0 0 255
-2.757627 -1.411252 -0.303784 0 0 255
-2.728236 -1.446126 -0.305844 0 0 255
-2.733994 -1.428544 -0.298858 0 0 255
-2.728869 -1.401008 -0.303826 0 0 255
-2.778561 -1.423161 -0.295549 0 0 255
-2.744765 -1.418076 -0.298389 0 0 255
-2.734643 -1.457032 -0.298599 0 0 255
-2.738017 -1.444046 -0.303823 0 0 255
-2.737600 -1.393986 -0.302858 0 0 255
-2.746476 -1.397265 -0.303848 0 0 255
-2.732025 -1.435097 -0.303797 0 0 255
-2.742931 -1.428689 -0.303821 0 0 255
-2.733579 -1.413548 -0.298858 0 0 255
-2.727650 -1.462607 -0.300969 0 0 255
-2.729712 -1.453074 -0.304858 0 0 255
-2.746844 -1.427856 -0.299021 0 0 255
-2.723661 -1.424605 -0.298208 0 0 255
-2.778774 -1.435382 -0.298858 0 0 255
-2.751423 -1.401300 -0.302858 0 0 255
-2.734587 -1.466388 -0.304858 0 0 255
-2.738726 -1.437762 -0.303849 0 0 255
-2.751465 -1.420741 -0.303799 0 0 255
-2.744595 -1.436513 -0.303786 0 0 255
-2.721176 -1.441772 -0.302858 0 0 255
-2.739482 -1.402842 -0.298678 0 0 255
-2.738433 -1.446002 -0.298298 0 0 255
-2.779440 -1.398438 -0.299827 0 0 255
-2.720381 -1.423259 -0.302858 0 0 255
-2.742686 -1.408295 -0.303855 0 0 255
-2.749582 -1.406828 -0.302858 0 0 255
-2.739680 -1.451871 -0.303789 0 0 255
-2.735810 -1.434291 -0.298858 0 0 255
-2.730532 -1.408833 -0.298139 0 0 255
-2.726742 -1.419862 -0.303799 0 0 255
-2.731589 -1.452282 -0.298858 0 0 255
-2.791781 -1.720919 -0.264858 255 255 0
-2.700705 -1.961110 -0.260858 255 255 0
-2.598359 -1.686378 -0.264858 255 255 0
-2.870219 -1.888268 -0.264858 255 255 0
-2.675486 -1.813607 -0.242858 255 255 0
-2.868880 -1.626832 -0.248148 255 255 0
-2.705353 -1.646296 -0.264858 255 255 0
-2.763781 -1.873080 -0.262858 255 255 0
-2.870300 -1.771703 -0.258858 255 255 0
-2.675944 -1.729183 -0.265819 255 255 0
-2.755113 -1.792098 -0.242858 255 255 0
-2.670793 -1.887719 -0.265848 255 255 0
-2.781726 -1.645358 -0.262858 255 255 0
-2.824263 -1.830561 -0.257017 255 255 0
-2.866792 -1.698841 -0.260858 255 255 0
-2.802919 -1.932157 -0.264858 255 255 0
-2.627263 -1.774290 -0.264858 255 255 0
-2.731722 -1.703013 -0.260414 255 255 0
-2.655065 -1.674325 -0.264858 255 255 0
-2.812691 -1.773725 -0.260858 255 255 0
-2.746578 -1.926816 -0.265766 255 255 0
-2.712874 -1.850148 -0.262858 255 255 0
-2.708056 -1.774444 -0.264858 255 255 0
-2.819008 -1.882794 -0.257626 255 255 0
-2.831111 -1.661442 -0.256858 255 255 0
-2.750550 -1.748085 -0.264858 255 255 0
-2.628038 -1.725052 -0.260065 255 255 0
-2.776773 -1.828388 -0.261725 255 255 0
-2.715201 -1.894637 -0.257212 255 255 0
-2.655993 -1.846952 -0.264858 255 255 0
-2.718131 -1.812227 -0.245999 255 255 0
-2.743593 -1.662669 -0.264858 255 255 0
-2.692350 -1.690936 -0.260194 255 255 0
-2.667901 -1.777920 -0.260597 255 255 0
-2.840344 -1.915840 -0.262858 255 255 0
-2.857958 -1.849979 -0.262858 255 255 0
-2.688475 -1.922809 -0.265745 255 255 0
-2.775053 -1.685625 -0.259996 255 255 0
-2.643962 -1.809589 -0.265733 255 255 0
-2.859032 -1.735250 -0.250858 255 255 0
-2.714484 -1.737349 -0.260195 255 255 0
-2.868124 -1.661753 -0.259830 255 255 0
-2.750231 -1.626564 -0.262858 255 255 0
-2.819095 -1.627192 -0.258858 255 255 0
-2.778880 -1.905637 -0.257090 255 255 0
-2.777283 -1.773073 -0.265773 255 255 0
-2.837793 -1.798024 -0.264858 255 255 0
-2.795375 -1.858185 -0.262858 255 255 0
-2.742481 -1.830587 -0.262858 255 255 0
-2.800419 -1.804959 -0.256983 255 255 0
-2.649510 -1.749115 -0.265804 255 255 0
-2.695072 -1.819172 -0.267814 255 255 0
-2.816711 -1.742200 -0.264858 255 255 0
-2.732166 -1.955210 -0.262858 255 255 0
-2.629427 -1.693107 -0.264858 255 255 0
-2.760896 -1.715215 -0.260715 255 255 0
-2.853428 -1.679190 -0.238407 255 255 0
-2.683409 -1.860501 -0.257558 255 255 0
-2.739282 -1.777061 -0.265840 255 255 0
-2.658415 -1.704434 -0.260858 255 255 0
-2.840741 -1.638742 -0.238858 255 255 0
-2.717526 -1.924813 -0.257420 255 255 0
-2.773796 -1.939433 -0.262097 255 255 0
-2.734519 -1.870084 -0.257335 255 255 0
-2.746625 -1.898180 -0.257780 255 255 0
-2.718075 -1.677289 -0.265832 255 255 0
-2.682452 -1.663609 -0.260858 255 255 0
-2.685678 -1.755740 -0.260523 255 255 0
-2.770951 -1.800999 -0.265652 255 255 0
-2.845980 -1.875017 -0.258458 255 255 0
-2.791629 -1.780247 -0.242858 255 255 0
-2.779703 -1.745976 -0.259605 255 255 0
-2.840478 -1.690121 -0.260858 255 255 0
-2.801649 -1.695312 -0.264858 255 255 0
-2.736863 -1.804156 -0.263776 255 255 0
-2.689666 -1.793741 -0.260863 255 255 0
-2.807516 -1.905684 -0.265795 255 255 0
-2.825756 -1.856824 -0.261722 255 255 0
-2.667268 -1.823038 -0.267761 255 255 0
-2.848276 -1.823412 -0.264858 255 255 0
-2.707122 -1.712333 -0.263695 255 255 0
-2.792744 -1.884287 -0.263829 255 255 0
-2.760536 -1.848196 -0.257269 255 255 0
-2.620039 -1.749245 -0.262858 255 255 0
-2.750746 -1.686703 -0.265821 255 255 0
-2.608230 -1.708817 -0.260129 255 255 0
-2.852388 -1.640562 -0.260858 255 255 0
-2.736918 -1.727462 -0.264858 255 255 0
-2.695177 -1.882535 -0.264858 255 255 0
-2.730985 -1.641830 -0.262122 255 255 0
-2.713264 -1.798948 -0.267838 255 255 0
-2.800579 -1.834573 -0.262858 255 255 0
-2.790617 -1.668004 -0.262858 255 255 0
-2.858369 -1.654337 -0.238858 255 255 0
-2.724927 -1.757621 -0.265759 255 255 0
-2.849377 -1.714809 -0.256858 255 255 0
-2.766567 -1.664937 -0.265827 255 255 0
-2.717130 -1.826752 -0.263850 255 255 0
-2.664650 -1.801103 -0.260224 255 255 0
-2.647213 -1.786407 -0.265776 255 255 0
-2.632686 -1.669961 -0.262858 255 255 0
-2.684704 -1.837734 -0.257625 255 255 0
-2.650805 -1.726347 -0.260099 255 255 0
-2.796724 -1.758717 -0.265825 255 255 0
-2.694514 -1.903122 -0.257694 255 255 0
-2.850554 -1.896537 -0.260529 255 255 0
-2.704371 -1.939877 -0.265771 255 255 0
-2.757796 -1.816063 -0.257586 255 255 0
-2.679611 -1.707957 -0.263610 255 255 0
-2.754120 -1.947705 -0.264858 255 255 0
-2.662524 -1.868054 -0.264858 255 255 0
-2.711601 -1.791122 -0.248045 255 255 0
-2.712584 -1.872702 -0.257428 255 255 0
-2.758496 -1.646205 -0.259841 255 255 0
-2.869570 -1.716651 -0.249710 255 255 0
-2.671124 -1.687269 -0.260101 255 255 0
-2.771824 -1.627016 -0.264858 255 255 0
-2.816778 -1.795348 -0.265827 255 255 0
-2.734273 -1.849689 -0.261711 255 255 0
-2.757598 -1.767034 -0.260101 255 255 0
-2.849808 -1.671780 -0.259478 255 255 0
-2.730682 -1.909748 -0.263835 255 255 0
-2.828619 -1.899154 -0.265769 255 255 0
-2.760149 -1.913708 -0.257472 255 255 0
-2.864901 -1.752404 -0.261807 255 255 0
-2.779212 -1.705188 -0.265824 255 255 0
-2.788851 -1.789016 -0.261700 255 255 0
-2.821219 -1.922056 -0.262858 255 255 0
-2.864147 -1.869111 -0.264858 255 255 0
-2.784579 -1.922828 -0.265778 255 255 0
-2.831684 -1.778900 -0.264858 255 255 0
-2.696532 -1.729847 -0.264858 255 255 0
-2.754347 -1.790215 -0.263648 255 255 0
-2.868757 -1.680021 -0.250858 255 255 0
-2.839083 -1.659798 -0.238858 255 255 0
-2.720202 -1.658434 -0.260279 255 255 0
-2.865410 -1.908712 -0.264858 255 255 0
-2.785402 -1.763167 -0.250353 255 255 0
-2.839135 -1.842811 -0.264858 255 255 0
-2.698805 -1.673207 -0.265823 255 255 0
-2.706073 -1.755494 -0.260424 255 255 0
-2.764856 -1.733842 -0.264858 255 255 0
-2.832958 -1.640602 -0.261830 255 255 0
-2.639237 -1.710404 -0.265848 255 255 0
-2.647384 -1.767969 -0.260246 255 255 0
-2.665699 -1.757942 -0.260334 255 255 0
-2.764792 -1.892274 -0.262858 255 255 0
-2.826805 -1.813663 -0.265743 255 255 0
-2.777141 -1.858979 -0.257200 255 255 0
-2.676690 -1.905843 -0.264858 255 255 0
-2.649154 -1.828933 -0.266858 255 255 0
-2.811801 -1.723835 -0.264858 255 255 0
-2.796693 -1.739336 -0.264858 255 255 0
-2.730218 -1.936428 -0.265758 255 255 0
-2.616311 -1.679501 -0.264858 255 255 0
-2.687464 -1.773762 -0.265756 255 255 0
-2.713577 -1.694602 -0.260076 255 255 0
-2.680839 -1.809929 -0.260587 255 255 0
-2.824274 -1.758995 -0.264858 255 255 0
-2.731029 -1.887183 -0.262858 255 255 0
-2.702727 -1.835948 -0.257326 255 255 0
-2.665106 -1.658957 -0.262858 255 255 0
-2.870250 -1.642899 -0.259644 255 255 0
-2.647233 -1.690302 -0.260117 255 255 0
-2.722507 -1.784716 -0.260891 255 255 0
-2.734973 -1.679832 -0.260170 255 255 0
-2.747481 -1.777155 -0.248858 255 255 0
-2.783228 -1.810658 -0.257086 255 255 0
-2.705250 -1.915154 -0.265812 255 255 0
-2.809614 -1.819362 -0.261665 255 255 0
-2.785968 -1.842790 -0.257198 255 255 0
-2.611417 -1.728586 -0.264858 255 255 0
-2.748922 -1.860888 -0.261716 255 255 0
-2.811769 -1.867977 -0.263852 255 255 0
-2.809983 -1.849954 -0.257461 255 255 0
-2.748203 -1.881487 -0.262858 255 255 0
-2.700110 -1.862113 -0.262858 255 255 0
-2.763438 -1.698318 -0.265844 255 255 0
-2.721354 -1.721576 -0.260255 255 255 0
-2.663913 -1.739919 -0.260140 255 255 0
-2.715107 -1.951908 -0.260316 255 255 0
-2.635277 -1.739872 -0.265800 255 255 0
-2.842654 -1.859366 -0.265831 255 255 0
-2.760161 -1.831918 -0.262858 255 255 0
-2.840917 -1.626643 -0.256858 255 255 0
-2.672673 -1.848470 -0.265758 255 255 0
-2.744921 -1.712477 -0.264858 255 255 0
-2.734169 -1.743388 -0.260601 255 255 0
-2.635107 -1.758309 -0.265793 255 255 0
-2.778928 -1.877002 -0.257512 255 255 0
-2.729576 -1.817973 -0.257532 255 255 0
-2.848438 -1.655714 -0.256055 255 255 0
-2.804917 -1.787646 -0.257449 255 255 0
-2.739868 -1.760579 -0.259954 255 255 0
-2.686122 -1.825163 -0.247377 255 255 0
-2.763060 -1.927402 -0.265765 255 255 0
-2.833118 -1.881841 -0.265717 255 255 0
-2.770044 -1.758254 -0.265811 255 255 0
-2.793765 -1.773659 -0.260193 255 255 0
-2.705552 -1.810760 -0.258858 255 255 0
-2.776254 -1.720129 -0.260216 255 255 0
-2.794115 -1.900354 -0.257541 255 255 0
-2.791034 -1.683854 -0.260858 255 255 0
-2.624296 -1.707446 -0.260034 255 255 0
-2.769970 -1.786761 -0.258858 255 255 0
-2.680035 -1.873486 -0.265793 255 255 0
-2.855091 -1.687015 -0.255926 255 255 0
-2.683571 -1.678490 -0.265834 255 255 0
-2.689845 -1.938875 -0.260016 255 255 0
-2.663667 -1.719524 -0.265830 255 255 0
-2.613560 -1.695415 -0.265848 255 255 0
-2.869815 -1.737047 -0.261850 255 255 0
-2.674724 -1.790782 -0.265786 255 255 0
-2.797441 -1.916005 -0.260423 255 255 0
-2.802810 -1.710396 -0.262032 255 255 0
-2.733592 -1.923441 -0.257724 255 255 0
-2.669763 -1.834775 -0.257769 255 255 0
-2.806561 -1.891574 -0.257573 255 255 0
-2.792007 -1.823104 -0.257758 255 255 0
-2.697851 -1.659097 -0.260312 255 255 0
-2.727450 -1.836827 -0.257497 255 255 0
-2.750529 -1.733777 -0.259988 255 255 0
-2.684723 -1.741630 -0.265775 255 255 0
-2.722242 -1.860425 -0.257089 255 255 0
-2.858683 -1.626956 -0.259732 255 255 0
-2.704197 -1.788607 -0.260858 255 255 0
-2.761587 -1.802989 -0.250858 255 255 0
-2.860821 -1.723588 -0.260858 255 255 0
-2.695024 -1.847807 -0.261733 255 255 0
-2.694348 -1.704823 -0.264858 255 255 0
-2.855884 -1.883136 -0.265839 255 255 0
-2.783077 -1.732992 -0.265810 255 255 0
-2.684194 -1.893049 -0.260596 255 255 0
-2.745207 -1.910749 -0.265841 255 255 0
-2.745095 -1.640876 -0.265845 255 255 0
-2.761236 -1.678339 -0.260137 255 255 0
-2.779882 -1.891111 -0.263830 255 255 0
-2.828666 -1.870519 -0.257753 255 255 0
-2.682209 -1.825995 -0.265787 255 255 0
-2.836415 -1.676672 -0.256858 255 255 0
-2.810418 -1.755805 -0.262274 255 255 0
-2.735908 -1.790046 -0.260357 255 255 0
-2.670170 -1.673159 -0.265757 255 255 0
-2.849761 -1.700416 -0.256334 255 255 0
-2.635985 -1.794928 -0.262858 255 255 0
-2.859487 -1.669217 -0.248858 255 255 0
-2.686434 -1.720819 -0.260146 255 255 0
-2.657363 -1.814919 -0.261332 255 255 0
-2.787688 -1.937456 -0.264858 255 255 0
-2.771443 -1.841789 -0.263857 255 255 0
-2.796118 -1.871303 -0.257314 255 255 0
-2.722753 -1.805110 -0.259226 255 255 0
-2.743204 -1.939802 -0.260375 255 255 0
-2.747135 -1.842865 -0.257513 255 255 0
-2.721553 -1.770606 -0.260007 255 255 0
-2.743686 -1.817018 -0.257088 255 255 0
-2.853163 -1.836687 -0.264858 255 255 0
-2.716572 -1.910703 -0.257646 255 255 0
-2.772718 -1.915125 -0.265733 255 255 0
-2.868663 -1.673907 -0.238116 255 255 0
-2.701205 -1.742216 -0.260030 255 255 0
-2.779638 -1.659098 -0.264858 255 255 0
-2.703832 -1.927723 -0.257417 255 255 0
-2.817316 -1.807502 -0.257500 255 255 0
-2.726855 -1.689735 -0.265807 255 255 0
-2.730106 -1.666553 -0.265812 255 255 0
-2.675603 -1.766059 -0.265796 255 255 0
-2.692161 -1.805479 -0.267790 255 255 0
-2.747372 -1.699687 -0.260206 255 255 0
-2.838950 -1.649551 -0.248113 255 255 0
-2.749016 -1.803617 -0.257344 255 255 0
-2.763637 -1.747348 -0.260678 255 255 0
-2.675152 -1.802412 -0.250858 255 255 0
-2.822845 -1.843131 -0.261741 255 255 0
-2.777459 -1.672845 -0.264858 255 255 0
-2.694296 -1.950197 -0.265777 255 255 0
-2.833628 -1.826526 -0.265794 255 255 0
-2.705213 -1.684113 -0.260791 255 255 0
-2.659802 -1.691720 -0.265775 255 255 0
-2.691773 -1.870991 -0.257226 255 255 0
-2.709711 -1.666799 -0.260385 255 255 0
-2.702216 -1.891263 -0.257351 255 255 0
-2.697954 -1.765398 -0.265819 255 255 0
-2.637328 -1.682185 -0.265812 255 255 0
-2.790949 -1.702693 -0.259853 255 255 0
-2.720816 -1.709422 -0.265825 255 255 0
-2.762049 -1.778355 -0.265650 255 255 0
-2.660199 -1.789781 -0.265749 255 255 0
-2.799666 -1.770360 -0.246858 255 255 0
-2.842666 -1.811328 -0.264858 255 255 0
-2.764003 -1.859726 -0.262858 255 255 0
-2.851093 -1.908689 -0.265842 255 255 0
-2.820501 -1.909059 -0.260533 255 255 0
-2.649708 -1.798145 -0.260224 255 255 0
-2.718481 -1.938922 -0.260222 255 255 0
-2.783596 -1.759462 -0.266858 255 255 0
-2.805052 -1.879628 -0.262858 255 255 0
-2.769525 -1.649996 -0.265847 255 255 0
-2.748251 -1.674964 -0.260590 255 255 0
-2.723613 -1.876491 -0.263825 255 255 0
-2.645950 -1.665029 -0.264858 255 255 0
-2.771906 -1.815109 -0.261717 255 255 0
-2.709033 -1.726239 -0.264858 255 255 0
-2.718238 -1.644539 -0.264858 255 255 0
-2.853683 -1.863157 -0.259990 255 255 0
-2.733896 -1.655525 -0.260047 255 255 0
-2.622292 -1.736497 -0.263596 255 255 0
-2.680831 -1.694458 -0.264858 255 255 0
-2.755538 -1.661148 -0.260227 255 255 0
-2.674233 -1.749994 -0.265836 255 255 0
-2.828100 -1.790896 -0.260264 255 255 0
-2.869106 -1.743331 -0.250652 255 255 0
-2.808470 -1.919795 -0.265805 255 255 0
-2.639265 -1.777873 -0.260100 255 255 0
-2.661522 -1.834483 -0.267780 255 255 0
-2.655332 -1.776503 -0.265780 255 255 0
-2.817174 -1.893408 -0.265793 255 255 0
-2.732260 -1.715168 -0.265807 255 255 0
-2.868738 -1.712739 -0.261844 255 255 0
-2.726221 -1.734854 -0.265811 255 255 0
-2.618134 -1.716935 -0.265854 255 255 0
-2.764354 -1.904635 -0.265836 255 255 0
-2.859760 -1.651263 -0.259770 255 255 0
-2.760896 -1.633428 -0.264858 255 255 0
-2.839648 -1.902944 -0.260107 255 255 0
-2.780282 -1.796970 -0.256858 255 255 0
-2.704144 -1.823378 -0.257365 255 255 0
-2.668685 -1.810469 -0.267802 255 255 0
-2.721058 -1.799335 -0.246858 255 255 0
-2.802838 -1.777864 -0.267794 255 255 0
-2.710750 -1.883315 -0.263848 255 255 0
-2.664139 -1.856418 -0.260479 255 255 0
-2.787953 -1.909842 -0.265788 255 255 0
-2.811400 -1.837385 -0.257233 255 255 0
-2.706667 -1.902585 -0.261692 255 255 0
-2.721291 -1.961766 -0.264858 255 255 0
-2.673628 -1.862580 -0.265799 255 255 0
-2.867245 -1.686476 -0.261844 255 255 0
-2.669706 -1.699839 -0.265843 255 255 0
-2.732515 -1.899135 -0.257727 255 255 0
-2.870524 -1.730762 -0.250466 255 255 0
-2.784958 -1.693743 -0.265857 255 255 0
-2.825927 -1.650276 -0.256858 255 255 0
-2.652223 -1.713778 -0.265836 255 255 0
-2.752362 -1.723163 -0.265834 255 255 0
-2.794479 -1.789864 -0.250858 255 255 0
-2.758900 -1.781070 -0.246858 255 255 0
-2.716034 -1.749287 -0.264858 255 255 0
-2.638651 -1.726887 -0.265799 255 255 0
-2.715296 -1.837365 -0.257810 255 255 0
-2.692822 -1.827829 -0.257607 255 255 0
-2.839109 -1.890790 -0.259878 255 255 0
-2.687936 -1.910655 -0.265787 255 255 0
-2.754526 -1.935349 -0.260282 255 255 0
-2.739424 -1.691154 -0.265801 255 255 0
-2.648971 -1.736960 -0.265755 255 255 0
-2.786074 -1.867303 -0.262858 255 255 0
-2.797958 -1.846375 -0.262858 255 255 0
-2.864264 -1.685065 -0.240858 255 255 0
-2.750517 -1.776717 -0.260858 255 255 0
-2.822345 -1.638769 -0.256551 255 255 0
-2.738918 -1.631053 -0.262858 255 255 0
-2.726958 -1.796038 -0.265811 255 255 0
-2.747476 -1.652077 -0.260858 255 255 0
-2.771358 -1.639382 -0.260630 255 255 0
-2.647551 -1.701417 -0.264858 255 255 0
-2.863072 -1.897709 -0.260858 255 255 0
-2.748827 -1.918159 -0.257216 255 255 0
-2.816655 -1.785151 -0.259789 255 255 0
-2.830463 -1.628865 -0.261845 255 255 0
-2.859443 -1.707489 -0.256858 255 255 0
-2.800683 -1.729249 -0.260305 255 255 0
-2.724935 -1.921193 -0.265789 255 255 0
-2.837409 -1.651924 -0.259579 255 255 0
-2.709899 -1.802356 -0.244858 255 255 0
-2.703379 -1.694726 -0.265838 255 255 0
-2.790732 -1.749767 -0.260531 255 255 0
-2.856291 -1.721519 -0.250238 255 255 0
-2.805966 -1.744483 -0.259952 255 255 0
-2.759780 -1.883116 -0.257637 255 255 0
-2.723660 -1.847856 -0.257125 255 255 0
-2.693456 -1.782712 -0.260851 255 255 0
-2.869712 -1.630744 -0.259703 255 255 0
-2.695800 -1.716784 -0.265774 255 255 0
-2.775213 -1.926864 -0.260170 255 255 0
-2.713798 -1.762980 -0.264858 255 255 0
-2.656749 -1.763933 -0.265845 255 255 0
-2.753373 -1.872210 -0.257746 255 255 0
-2.680914 -1.848763 -0.257586 255 255 0
-2.627131 -1.682308 -0.260264 255 255 0
-2.869419 -1.638986 -0.248746 255 255 0
-2.716591 -1.814599 -0.261709 255 255 0
-2.694807 -1.894882 -0.265826 255 255 0
-2.837078 -1.852374 -0.258476 255 255 0
-2.700585 -1.799599 -0.260858 255 255 0
-2.731334 -1.768527 -0.265816 255 255 0
-2.670670 -1.877521 -0.260340 255 255 0
-2.688570 -1.653913 -0.264858 255 255 0
-2.694628 -1.749748 -0.265832 255 255 0
-2.841860 -1.663246 -0.261822 255 255 0
-2.673865 -1.719401 -0.260075 255 255 0
-2.659878 -1.730553 -0.265837 255 255 0
-2.750065 -1.760456 -0.265812 255 255 0
-2.681302 -1.783251 -0.260081 255 255 0
-2.696423 -1.931343 -0.265707 255 255 0
-2.675509 -1.823330 -0.256843 255 255 0
-2.806628 -1.766835 -0.267742 255 255 0
-2.710089 -1.860964 -0.257316 255 255 0
-2.843117 -1.832687 -0.260515 255 255 0
-2.754904 -1.706265 -0.265796 255 255 0
-2.639313 -1.749237 -0.260250 255 255 0
-2.702589 -1.873775 -0.262858 255 255 0
-2.603363 -1.695538 -0.260222 255 255 0
-2.826956 -1.891329 -0.257620 255 255 0
-2.793651 -1.927033 -0.260312 255 255 0
-2.848857 -1.657686 -0.244858 255 255 0
-2.742325 -1.950212 -0.264858 255 255 0
-2.828638 -1.803050 -0.260397 255 255 0
-2.769430 -1.707267 -0.260460 255 255 0
-2.685611 -1.880478 -0.258104 255 255 0
-2.637158 -1.700623 -0.260393 255 255 0
-2.757654 -1.901970 -0.257103 255 255 0
-2.829574 -1.913264 -0.265847 255 255 0
-2.751634 -1.825552 -0.257518 255 255 0
-2.625041 -1.762494 -0.262858 255 255 0
-2.847739 -1.642806 -0.250858 255 255 0
-2.860971 -1.671452 -0.260858 255 255 0
-2.685976 -1.812927 -0.246858 255 255 0
-2.759629 -1.805450 -0.261648 255 255 0
-2.821768 -1.818824 -0.257198 255 255 0
-2.712726 -1.786795 -0.267840 255 255 0
-2.789390 -1.801169 -0.261736 255 255 0
-2.720777 -1.901629 -0.263814 255 255 0
-2.736564 -1.860466 -0.262858 255 255 0
-2.793841 -1.812490 -0.261744 255 255 0
-2.710533 -1.930388 -0.265789 255 255 0
-2.724472 -1.947872 -0.265778 255 255 0
-2.707632 -1.657018 -0.265842 255 255 0
-2.764544 -1.790092 -0.267835 255 255 0
-2.674091 -1.835900 -0.267802 255 255 0
-2.825688 -1.769933 -0.266858 255 255 0
-2.806193 -1.860982 -0.257504 255 255 0
-2.686074 -1.853800 -0.265845 255 255 0
-2.798736 -1.893238 -0.265846 255 255 0
-2.857446 -1.661978 -0.256858 255 255 0
-2.839988 -1.866067 -0.257163 255 255 0
-2.721363 -1.885148 -0.257694 255 255 0
-2.772146 -1.883574 -0.262858 255 255 0
-2.731655 -1.827754 -0.261727 255 255 0
-2.851189 -1.678276 -0.250858 255 255 0
-2.767700 -1.824182 -0.257575 255 255 0
-2.806996 -1.797427 -0.261705 255 255 0
-2.737401 -1.816308 -0.265849 255 255 0
-2.654257 -1.805357 -0.266858 255 255 0
-2.859084 -1.739327 -0.260858 255 255 0
-2.780664 -1.782577 -0.258858 255 255 0
-2.686831 -1.818880 -0.259121 255 255 0
-2.667873 -1.710452 -0.260410 255 255 0
-2.740633 -1.889231 -0.257548 255 255 0
-2.772888 -1.896688 -0.257257 255 255 0
-2.765272 -1.687704 -0.265843 255 255 0
-2.773220 -1.696238 -0.260136 255 255 0
-2.704494 -1.950074 -0.260427 255 255 0
-2.680716 -1.799733 -0.265766 255 255 0
-2.768211 -1.768867 -0.261800 255 255 0
-2.787802 -1.832177 -0.261724 255 255 0
-2.763032 -1.941720 -0.264858 255 255 0
-2.659858 -1.826658 -0.260637 255 255 0
-2.753407 -1.891612 -0.262858 255 255 0
-2.816022 -1.830267 -0.263853 255 255 0
-2.643906 -1.674653 -0.260630 255 255 0
-2.786091 -1.852988 -0.261647 255 255 0
-2.743717 -1.870173 -0.262858 255 255 0
-2.688569 -1.865538 -0.265845 255 255 0
-2.743535 -1.739352 -0.265808 255 255 0
-2.808216 -1.735827 -0.265840 255 255 0
-2.788123 -1.891405 -0.257067 255 255 0
-2.755112 -1.918868 -0.265801 255 255 0
-2.630287 -1.716395 -0.265835 255 255 0
-2.785203 -1.714138 -0.259981 255 255 0
-2.766666 -1.723121 -0.264858 255 255 0
-2.833833 -1.648594 -0.238858 255 255 0
-2.699523 -1.830494 -0.265824 255 255 0
-2.632486 -1.784458 -0.264858 255 255 0
-2.660654 -1.748790 -0.264858 255 255 0
-2.774420 -1.730742 -0.260208 255 255 0
-2.738923 -1.910040 -0.257254 255 255 0
-2.870477 -1.759398 -0.256266 255 255 0
-2.772936 -1.868052 -0.261703 255 255 0
-2.695468 -1.917233 -0.260265 255 255 0
-2.661636 -1.681107 -0.260296 255 255 0
-2.848323 -1.845893 -0.260858 255 255 0
-2.676067 -1.739380 -0.260308 255 255 0
-2.710901 -1.960980 -0.265787 255 255 0
-2.655937 -1.663917 -0.261965 255 255 0
-2.835878 -1.817869 -0.260336 255 255 0
-2.647032 -1.819160 -0.262858 255 255 0
-2.819178 -1.864357 -0.257458 255 255 0
-2.704097 -1.852014 -0.257547 255 255 0
-2.684601 -1.731431 -0.260467 255 255 0
-2.842324 -1.636567 -0.259620 255 255 0
-2.771150 -1.850029 -0.257529 255 255 0
-2.690148 -1.670958 -0.260561 255 255 0
-2.860762 -1.636736 -0.256113 255 255 0
-2.847975 -1.682393 -0.261843 255 255 0
-2.843731 -1.883674 -0.265782 255 255 0
-2.739745 -1.750381 -0.265784 255 255 0
-2.869526 -1.706826 -0.252858 255 255 0
-2.761463 -1.794837 -0.257781 255 255 0
-2.726779 -1.650903 -0.265812 255 255 0
-2.771604 -1.741565 -0.264858 255 255 0
-2.833655 -1.836268 -0.258858 255 255 0
-2.722649 -1.698809 -0.263606 255 255 0
-2.711327 -1.703259 -0.265854 255 255 0
-2.608584 -1.686250 -0.264858 255 255 0
-2.746842 -1.851107 -0.263829 255 255 0
-2.635230 -1.768507 -0.260689 255 255 0
-2.694184 -1.680323 -0.260103 255 255 0
-2.723972 -1.743511 -0.260219 255 255 0
-2.720324 -1.668633 -0.260156 255 255 0
-2.647261 -1.757771 -0.260288 255 255 0
-2.769514 -1.909673 -0.257649 255 255 0
-2.783917 -1.900476 -0.265724 255 255 0
-2.759431 -1.756420 -0.265799 255 255 0
-2.745274 -1.786011 -0.260287 255 255 0
-2.797318 -1.905807 -0.265807 255 255 0
-2.729501 -1.779140 -0.267828 255 255 0
-2.739594 -1.672716 -0.265817 255 255 0
-2.695365 -1.810932 -0.259836 255 255 0
-2.797122 -1.779830 -0.252858 255 255 0
-2.752504 -1.637257 -0.259924 255 255 0
-2.786649 -1.769037 -0.265702 255 255 0
-2.865250 -1.879099 -0.265801 255 255 0
-2.754795 -1.907761 -0.264858 255 255 0
-2.782463 -1.682005 -0.265845 255 255 0
-2.789021 -1.770577 -0.243985 255 255 0
-2.665557 -1.843848 -0.260323 255 255 0
-2.853389 -1.871397 -0.265776 255 255 0
-2.756322 -1.693696 -0.260453 255 255 0
-2.854435 -1.650350 -0.248858 255 255 0
-2.687757 -1.765521 -0.259873 255 255 0
-2.738554 -1.879448 -0.257918 255 255 0
-2.665822 -1.768138 -0.260285 255 255 0
-2.643273 -1.719769 -0.259890 255 255 0
-2.728329 -1.812104 -0.265613 255 255 0
-2.718302 -1.793787 -0.260655 255 255 0
-2.774155 -1.806452 -0.257222 255 255 0
-2.738063 -1.838660 -0.257338 255 255 0
-2.629531 -1.751317 -0.260226 255 255 0
-2.620553 -1.689839 -0.260130 255 255 0
-2.736796 -1.928895 -0.265740 255 255 0
-2.720730 -1.930265 -0.265776 255 255 0
-2.738517 -1.648407 -0.265807 255 255 0
-2.774136 -1.902556 -0.265783 255 255 0
-2.743488 -1.767988 -0.265792 255 255 0
-2.738630 -1.918282 -0.265847 255 255 0
-2.697717 -1.908576 -0.265816 255 255 0
-2.615639 -1.705196 -0.265821 255 255 0
-2.780978 -1.819314 -0.261727 255 255 0
-2.820841 -1.872181 -0.263834 255 255 0
-2.734254 -1.945793 -0.260266 255 255 0
-2.802621 -1.824938 -0.257228 255 255 0
-2.816622 -1.765759 -0.266858 255 255 0
-2.667287 -1.726933 -0.260228 255 255 0
-2.676834 -1.656415 -0.264858 255 255 0
-2.780959 -1.915419 -0.260156 255 255 0
-2.679223 -1.773468 -0.260186 255 255 0
-2.823752 -1.885876 -0.265811 255 255 0
-2.680158 -1.883683 -0.265777 255 255 0
-2.764903 -1.657113 -0.259926 255 255 0
-2.692775 -1.856464 -0.257396 255 255 0
-2.675896 -1.757819 -0.259982 255 255 0
-2.743440 -1.796624 -0.261618 255 255 0
-2.797924 -1.793221 -0.261713 255 255 0
-2.769477 -1.678632 -0.265847 255 255 0
-2.703086 -1.702967 -0.260352 255 255 0
-2.709994 -1.918235 -0.257682 255 255 0
-2.717205 -1.865584 -0.263855 255 255 0
-2.727402 -1.865462 -0.263852 255 255 0
-2.767823 -1.834379 -0.257123 255 255 0
-2.739963 -1.703307 -0.265831 255 255 0
-2.675185 -1.817266 -0.264858 255 255 0
-2.697661 -1.773639 -0.260442 255 255 0
-2.836199 -1.877097 -0.257668 255 255 0
-2.692133 -1.738009 -0.260434 255 255 0
-2.639408 -1.691966 -0.265816 255 255 0
-2.787112 -1.742358 -0.265855 255 255 0
-2.610309 -1.718597 -0.260173 255 255 0
-2.744121 -1.722869 -0.260040 255 255 0
-2.680066 -1.916418 -0.264858 255 255 0
-2.800343 -1.766126 -0.260276 255 255 0
-2.756600 -1.671145 -0.264858 255 255 0
-2.674412 -1.895128 -0.260618 255 255 0
-2.719739 -1.685114 -0.260274 255 255 0
-2.726060 -1.916864 -0.257143 255 255 0
-2.802885 -1.749228 -0.267852 255 255 0
-2.807535 -1.809581 -0.261688 255 255 0
-2.813814 -1.858358 -0.262858 255 255 0
-2.801898 -1.720813 -0.264858 255 255 0
-2.693955 -1.837811 -0.262858 255 255 0
-2.708413 -1.675253 -0.264858 255 255 0
-2.717524 -1.818989 -0.252858 255 255 0
-2.842776 -1.869564 -0.265733 255 255 0
-2.657486 -1.825117 -0.269852 255 255 0
-2.712748 -1.786789 -0.256858 255 255 0
-2.756501 -1.838830 -0.257275 255 255 0
-2.732336 -1.754001 -0.260827 255 255 0
-2.801156 -1.866143 -0.263846 255 255 0
-2.648539 -1.681846 -0.264858 255 255 0
-2.685857 -1.900874 -0.265798 255 255 0
-2.791077 -1.761961 -0.258858 255 255 0
-2.870373 -1.653096 -0.256523 255 255 0
-2.677465 -1.822915 -0.244071 255 255 0
-2.680409 -1.830468 -0.252858 255 255 0
-2.696291 -1.757573 -0.260653 255 255 0
-2.790902 -1.731328 -0.260660 255 255 0
-2.716931 -1.777721 -0.265725 255 255 0
-2.849317 -1.630991 -0.256146 255 255 0
-2.680618 -1.842691 -0.264858 255 255 0
-2.705827 -1.735098 -0.265808 255 255 0
-2.758061 -1.740354 -0.265827 255 255 0
-2.672419 -1.664503 -0.260571 255 255 0
-2.777133 -1.762881 -0.260858 255 255 0
-2.653696 -1.836145 -0.262743 255 255 0
-2.859811 -1.670743 -0.238858 255 255 0
-2.685338 -1.931654 -0.264858 255 255 0
-2.704853 -1.817093 -0.265803 255 255 0
-2.792824 -1.711511 -0.264858 255 255 0
-2.820813 -1.804714 -0.265792 255 255 0
-2.845451 -1.651278 -0.238858 255 255 0
-2.701281 -1.781049 -0.265804 255 255 0
-2.688268 -1.710206 -0.260108 255 255 0
-2.821692 -1.779991 -0.265823 255 255 0
-2.779647 -1.635577 -0.262858 255 255 0
-2.663469 -1.670494 -0.259757 255 255 0
-2.797801 -1.783023 -0.261624 255 255 0
-2.702462 -1.911656 -0.257548 255 255 0
-2.856840 -1.685622 -0.246858 255 255 0
-2.756331 -1.857269 -0.257360 255 255 0
-2.845810 -1.648094 -0.260858 255 255 0
-2.850054 -1.692174 -0.261826 255 255 0
-2.706346 -1.843357 -0.261659 255 255 0
-2.859127 -1.696381 -0.256196 255 255 0
-2.742616 -1.682297 -0.264858 255 255 0
-2.680905 -1.685190 -0.259968 255 255 0
-2.833850 -1.861238 -0.262858 255 255 0
-2.706195 -1.765691 -0.260280 255 255 0
-2.785128 -1.675304 -0.260006 255 255 0
-2.748704 -1.907961 -0.257727 255 255 0
-2.779819 -1.837963 -0.262858 255 255 0
-2.707906 -1.744881 -0.265818 255 255 0
-2.673509 -1.804304 -0.260858 255 255 0
-2.813352 -1.885046 -0.264858 255 255 0
-2.789541 -1.878835 -0.257092 255 255 0
-2.862585 -1.885800 -0.260027 255 255 0
-2.720456 -1.842402 -0.263836 255 255 0
-2.640315 -1.734712 -0.260057 255 255 0
-2.803931 -1.900312 -0.258858 255 255 0
-2.629333 -1.702286 -0.265771 255 255 0
-2.749186 -1.785179 -0.244178 255 255 0
-2.759063 -1.725828 -0.260127 255 255 0
-2.774808 -1.665231 -0.260012 255 255 0
-2.726745 -1.929708 -0.258858 255 255 0
-2.802926 -1.775801 -0.258858 255 255 0
-2.739428 -1.902802 -0.262858 255 255 0
-2.717149 -1.730648 -0.265854 255 255 0
-2.700960 -1.721821 -0.260116 255 255 0
-2.708917 -1.893928 -0.263843 255 255 0
-2.811135 -1.913094 -0.260155 255 255 0
-2.728273 -1.677166 -0.265817 255 255 0
-2.811060 -1.874260 -0.257230 255 255 0
-2.714654 -1.718910 -0.265834 255 255 0
-2.623331 -1.674048 -0.262858 255 255 0
-2.713443 -1.944083 -0.265786 255 255 0
-2.788022 -1.778969 -0.264858 255 255 0
-2.676870 -1.675825 -0.260205 255 255 0
-2.686188 -1.700425 -0.260559 255 255 0
-2.728887 -1.728153 -0.260267 255 255 0
-2.799029 -1.884996 -0.257305 255 255 0
-2.750680 -1.811441 -0.261645 255 255 0
-2.782954 -1.722795 -0.265851 255 255 0
-2.819580 -1.750813 -0.264858 255 255 0
-2.774118 -1.792148 -0.264858 255 255 0
-2.765725 -1.920702 -0.260277 255 255 0
-2.858550 -1.876435 -0.260293 255 255 0
-2.668024 -1.788117 -0.260310 255 255 0
-2.675648 -1.856016 -0.258858 255 255 0
-2.860229 -1.677743 -0.252858 255 255 0
-2.690441 -1.662716 -0.265808 255 255 0
-2.831502 -1.845380 -0.257105 255 255 0
-2.712555 -1.805233 -0.260365 255 255 0
-2.741389 -1.854311 -0.257364 255 255 0
-2.620409 -1.727637 -0.264858 255 255 0
-2.861304 -1.860535 -0.264858 255 255 0
-2.712555 -1.651319 -0.260858 255 255 0
-2.700137 -1.881481 -0.257398 255 255 0
-2.654547 -1.743955 -0.260323 255 255 0
-2.724907 -1.853724 -0.263851 255 255 0
-2.749772 -1.768697 -0.255962 255 255 0
-2.697491 -1.792078 -0.265769 255 255 0
-2.697114 -1.651074 -0.264858 255 255 0
-2.793199 -1.694036 -0.262042 255 255 0
-2.804529 -1.853158 -0.263849 255 255 0
-2.666020 -1.817169 -0.260515 255 255 0
-2.691187 -1.887473 -0.257293 255 255 0
-2.675323 -1.841773 -0.256858 255 255 0
-2.723027 -1.892972 -0.261748 255 255 0
-2.815218 -1.893824 -0.256997 255 255 0
-2.851434 -1.722552 -0.260858 255 255 0
-2.772246 -1.778233 -0.260336 255 255 0
-2.723414 -1.827461 -0.257520 255 255 0
-2.770120 -1.797087 -0.257608 255 255 0
-2.768220 -1.932440 -0.260344 255 255 0
-2.657042 -1.755692 -0.260204 255 255 0
-2.737298 -1.710008 -0.260307 255 255 0
-2.856130 -1.903530 -0.260371 255 255 0
-2.780789 -1.933856 -0.260309 255 255 0
-2.777038 -1.752677 -0.265837 255 255 0
-2.807393 -1.895488 -0.265797 255 255 0
-2.703000 -1.923810 -0.265756 255 255 0
-2.688692 -1.875735 -0.265739 255 255 0
-2.668950 -1.734758 -0.265852 255 255 0
-2.804407 -1.842960 -0.257374 255 255 0
-2.731825 -1.809316 -0.257489 255 255 0
-2.709720 -1.830371 -0.257785 255 255 0
-2.829205 -1.882673 -0.257526 255 255 0
-2.818639 -1.852202 -0.257370 255 255 0
-2.849647 -1.853791 -0.265856 255 255 0
-2.833798 -1.808088 -0.265771 255 255 0
-2.784088 -1.882039 -0.263841 255 255 0
-2.760366 -1.866633 -0.257718 255 255 0
-2.756473 -1.771362 -0.267812 255 255 0
-2.863415 -1.687696 -0.252858 255 255 0
-2.655039 -1.784744 -0.260558 255 255 0
-2.674602 -1.780585 -0.265772 255 255 0
-2.814925 -1.902065 -0.260235 255 255 0
-2.860789 -1.713820 -0.250858 255 255 0
-2.724321 -1.870206 -0.257079 255 255 0
-2.711913 -1.686778 -0.265845 255 255 0
-2.761340 -1.784639 -0.259564 255 255 0
-2.651494 -1.816166 -0.269789 255 255 0
-2.716279 -1.918943 -0.263813 255 255 0
-2.868861 -1.722937 -0.255759 255 255 0
-2.642104 -1.800848 -0.264858 255 255 0
-2.687832 -1.804354 -0.260299 255 255 0
-2.687539 -1.812594 -0.265845 255 255 0
-2.855998 -1.729760 -0.256883 255 255 0
-2.842313 -1.896244 -0.265824 255 255 0
-2.626998 -1.743676 -0.264858 255 255 0
-2.761245 -1.841910 -0.263850 255 255 0
-2.754570 -1.798347 -0.248858 255 255 0
-2.736391 -1.667262 -0.259917 255 255 0
-2.800143 -1.923609 -0.264858 255 255 0
-2.768730 -1.877125 -0.257079 255 255 0
-2.778559 -1.846410 -0.261731 255 255 0
-2.793378 -1.839170 -0.261729 255 255 0
-2.708709 -1.796758 -0.260858 255 255 0
-2.630117 -1.734835 -0.260440 255 255 0
-2.754045 -1.846515 -0.262858 255 255 0
-2.756577 -1.877663 -0.263855 255 255 0
-2.752239 -1.712965 -0.260376 255 255 0
-2.708408 -1.867455 -0.262858 255 255 0
-2.672498 -1.795345 -0.258858 255 255 0
-2.825556 -1.822108 -0.264858 255 255 0
-2.834481 -1.787496 -0.264858 255 255 0
-2.802498 -1.814741 -0.257070 255 255 0
-2.767814 -1.670806 -0.259730 255 255 0
-2.736419 -1.734731 -0.260381 255 255 0
-2.857964 -1.892917 -0.265742 255 255 0
-2.762105 -1.913291 -0.265770 255 255 0
-2.768937 -1.714565 -0.264858 255 255 0
-2.863209 -1.677111 -0.243838 255 255 0
-2.724709 -1.804694 -0.267785 255 255 0
-2.807573 -1.828998 -0.262858 255 255 0
-2.679318 -1.716197 -0.265788 255 255 0
-2.869522 -1.745287 -0.259700 255 255 0
-2.605026 -1.703363 -0.265837 255 255 0
-2.645522 -1.711112 -0.260148 255 255 0
-2.735464 -1.720621 -0.260007 255 255 0
-2.815436 -1.846750 -0.263837 255 255 0
-2.739065 -1.824135 -0.257643 255 255 0
-2.722705 -1.833745 -0.263845 255 255 0
-2.696961 -1.943497 -0.260559 255 255 0
-2.841152 -1.669530 -0.256144 255 255 0
-2.644719 -1.774669 -0.265776 255 255 0
-2.787754 -1.860813 -0.257637 255 255 0
-2.672475 -1.799439 -0.267814 255 255 0
-2.729897 -1.877200 -0.256952 255 255 0
-2.749385 -1.834208 -0.257667 255 255 0
-2.783502 -1.898520 -0.257388 255 255 0
-2.712905 -1.931929 -0.257702 255 255 0
-2.684506 -1.788703 -0.265744 255 255 0
-2.666503 -1.694386 -0.259995 255 255 0
-2.642224 -1.762930 -0.265776 255 255 0
-2.830868 -1.890498 -0.265779 255 255 0
-2.752211 -1.645498 -0.265824 255 255 0
-2.825463 -1.865066 -0.263847 255 255 0
-2.834195 -1.906147 -0.265801 255 255 0
-2.622217 -1.697665 -0.265809 255 255 0
-2.703011 -1.664134 -0.265834 255 255 0
-2.689147 -1.685483 -0.265836 255 255 0
-2.658507 -1.714487 -0.260197 255 255 0
-2.697803 -1.687733 -0.265820 255 255 0
-2.839658 -1.643268 -0.255189 255 255 0
-2.730625 -1.774811 -0.260192 255 255 0
-2.681880 -1.869004 -0.258858 255 255 0
-2.850431 -1.886339 -0.260220 255 255 0
-2.753089 -1.798662 -0.262858 255 255 0
-2.776225 -1.652660 -0.260564 255 255 0
-2.832911 -1.669238 -0.259595 255 255 0
-2.654349 -1.694923 -0.260172 255 255 0
-2.855384 -1.678773 -0.259700 255 255 0
-2.733140 -1.690444 -0.260206 255 255 0
-2.718840 -1.805942 -0.251610 255 255 0
-2.675991 -1.700548 -0.260266 255 255 0
-2.687927 -1.747083 -0.260202 255 255 0
-2.764591 -1.761457 -0.260056 255 255 0
-2.746862 -1.755002 -0.260248 255 255 0
-2.725521 -1.904711 -0.257575 255 255 0
-2.799154 -1.752066 -0.260858 255 255 0
-2.695072 -1.819172 -0.257466 255 255 0
-2.714749 -1.661639 -0.265821 255 255 0
-2.718642 -1.756912 -0.260224 255 255 0
-2.821522 -1.798429 -0.259614 255 255 0
-2.814406 -1.793808 -0.257922 255 255 0
-2.849052 -1.706701 -0.261855 255 255 0
-2.797451 -1.704421 -0.264858 255 255 0
-2.764790 -1.810488 -0.257382 255 255 0
-2.725976 -1.714458 -0.260317 255 255 0
-2.754403 -1.925153 -0.260319 255 255 0
-2.814774 -1.824399 -0.257443 255 255 0
-2.778651 -1.885322 -0.256858 255 255 0
-2.770753 -1.751968 -0.260368 255 255 0
-2.735596 -1.894391 -0.263857 255 255 0
-2.680810 -1.819412 -0.250858 255 255 0
-2.741833 -1.923735 -0.258953 255 255 0
-2.749488 -1.940510 -0.265805 255 255 0
-2.781782 -1.755759 -0.259617 255 255 0
-2.760883 -1.792916 -0.248858 255 255 0
-2.632953 -1.709696 -0.260442 255 255 0
-2.745369 -1.728739 -0.265796 255 255 0
-2.660115 -1.799006 -0.266858 255 255 0
-2.738715 -1.697439 -0.260088 255 255 0
-2.732431 -1.696730 -0.265796 255 255 0
-2.641760 -1.789610 -0.260151 255 255 0
-2.677172 -1.831156 -0.261672 255 255 0
-2.731703 -1.799119 -0.259664 255 255 0
-2.760773 -1.705018 -0.260066 255 255 0
-2.802894 -1.912801 -0.265791 255 255 0
-2.723379 -1.813156 -0.254858 255 255 0
-2.808913 -1.715231 -0.264858 255 255 0
-2.794474 -1.767374 -0.267846 255 255 0
-2.870240 -1.902575 -0.262108 255 255 0
-2.731608 -1.856390 -0.257636 255 255 0
-2.741512 -1.864508 -0.257249 255 255 0
-2.728130 -1.763073 -0.260438 255 255 0
-2.783049 -1.665524 -0.260538 255 255 0
-2.687579 -1.832022 -0.262858 255 255 0
-2.737619 -1.769235 -0.260113 255 255 0
-2.715363 -1.712626 -0.260510 255 255 0
-2.695970 -1.698346 -0.259793 255 255 0
-2.783710 -1.687875 -0.260174 255 255 0
-2.654642 -1.686683 -0.260498 255 255 0
-2.795627 -1.830513 -0.257446 255 255 0
-2.813815 -1.925700 -0.262858 255 255 0
-2.741607 -1.807237 -0.257646 255 255 0
-2.839497 -1.825278 -0.260023 255 255 0
-2.829754 -1.635149 -0.256269 255 255 0
-2.765895 -1.902264 -0.257365 255 255 0
-2.787121 -1.905930 -0.257635 255 255 0
-2.658214 -1.722728 -0.260409 255 255 0
-2.790032 -1.919625 -0.260094 255 255 0
-2.697558 -1.667337 -0.260116 255 255 0
-2.667533 -1.747328 -0.260298 255 255 0
-2.776546 -1.711889 -0.260052 255 255 0
-2.754640 -1.781975 -0.265803 255 255 0
-2.643934 -1.742121 -0.260224 255 255 0
-2.669877 -1.681400 -0.265845 255 255 0
-2.827910 -1.905438 -0.260424 255 255 0
-2.670963 -1.869279 -0.260294 255 255 0
-2.791327 -1.896858 -0.265789 255 255 0
-2.811126 -1.749522 -0.267843 255 255 0
-2.726486 -1.659143 -0.265840 255 255 0
-2.677579 -1.669539 -0.265819 255 255 0
-2.688324 -1.845142 -0.257658 255 255 0
-2.694807 -1.894882 -0.257605 255 255 0
-2.779712 -1.909550 -0.265775 255 255 0
-2.821210 -1.902773 -0.265781 255 255 0
-2.821399 -1.788231 -0.265747 255 255 0
-2.679686 -1.746789 -0.260595 255 255 0
-2.683013 -1.762440 -0.265826 255 255 0
-2.811689 -1.781024 -0.264858 255 255 0
-2.725220 -1.749380 -0.265811 255 255 0
-2.654425 -1.733757 -0.260535 255 255 0
