ply
format ascii 1.0
element vertex 1261
property float x
property float y
property float z
property uchar red
property uchar green
property uchar blue
end_header
-1.674105 0.008149 -0.593679 255 255 0
-1.698262 0.009933 -0.553679 255 255 0
-1.663983 0.017293 -0.614622 255 255 0
-1.683669 0.011254 -0.546123 255 255 0
-1.686395 -0.001573 -0.641679 255 255 0
-1.688219 0.009086 -0.605679 255 255 0
-1.668131 0.012040 -0.635679 255 255 0
-1.696742 0.017085 -0.579679 255 255 0
-1.657817 0.013937 -0.609679 255 255 0
-1.673706 0.003002 -0.549679 255 255 0
-1.699991 0.008589 -0.631679 255 255 0
-1.688456 0.000003 -0.565679 255 255 0
-1.700540 0.028072 -0.591679 255 255 0
-1.691311 0.004158 -0.553679 255 255 0
-1.665306 0.015529 -0.663679 255 255 0
-1.665699 0.038104 -0.549679 255 255 0
-1.662639 0.006784 -0.589679 255 255 0
-1.662400 0.034357 -0.593679 255 255 0
-1.700536 0.028091 -0.573679 255 255 0
-1.680808 0.037226 -0.545679 255 255 0
-1.701861 0.031478 -0.642716 255 255 0
-1.660457 0.033882 -0.635679 255 255 0
-1.661941 0.012769 -0.551679 255 255 0
-1.698437 0.006214 -0.587679 255 255 0
-1.682339 0.007889 -0.635679 255 255 0
-1.699202 0.020689 -0.563679 255 255 0
-1.691705 0.011925 -0.627679 255 255 0
-1.691715 0.011875 -0.575679 255 255 0
-1.665320 0.015532 -0.623679 255 255 0
-1.701030 0.035391 -0.564652 255 255 0
-1.703366 0.017485 -0.611679 255 255 0
-1.661680 0.022937 -0.573679 255 255 0
-1.671916 -0.000790 -0.567679 255 255 0
-1.677922 -0.000191 -0.666219 255 255 0
-1.671955 0.012853 -0.551679 255 255 0
-1.699225 0.008426 -0.605679 255 255 0
-1.690662 0.016829 -0.545791 255 255 0
-1.690116 0.000157 -0.655679 255 255 0
-1.681610 0.006727 -0.665679 255 255 0
-1.693450 0.013333 -0.644681 255 255 0
-1.702080 0.030451 -0.615679 255 255 0
-1.697117 0.034559 -0.550622 255 255 0
-1.659860 0.034819 -0.651679 255 255 0
-1.672969 -0.001244 -0.637679 255 255 0
-1.697345 0.004627 -0.641679 255 255 0
-1.657280 0.022002 -0.605679 255 255 0
-1.684377 0.017538 -0.550532 255 255 0
-1.691232 0.031263 -0.545679 255 255 0
-1.707719 0.010232 -0.651679 255 255 0
-1.657611 0.026162 -0.561679 255 255 0
-1.657874 0.013950 -0.577679 255 255 0
-1.703402 0.015448 -0.575679 255 255 0
-1.679966 -0.000185 -0.553679 255 255 0
-1.671727 0.009717 -0.573679 255 255 0
-1.668114 0.012037 -0.601679 255 255 0
-1.664724 0.004186 -0.597679 255 255 0
-1.667773 0.028322 -0.550523 255 255 0
-1.670949 0.008550 -0.661679 255 255 0
-1.694435 0.013542 -0.591679 255 255 0
-1.687333 0.046792 -0.549679 255 255 0
-1.660363 0.024702 -0.551995 255 255 0
-1.702275 0.023387 -0.549679 255 255 0
-1.673887 0.009174 -0.558647 255 255 0
-1.661653 0.022931 -0.647679 255 255 0
-1.702887 0.017383 -0.635679 255 255 0
-1.697032 0.006098 -0.579679 255 255 0
-1.666986 0.012785 -0.609679 255 255 0
-1.702095 0.030377 -0.631679 255 255 0
-1.676375 -0.002531 -0.653679 255 255 0
-1.680390 -0.002179 -0.575679 255 255 0
-1.694312 0.003292 -0.593679 255 255 0
-1.682544 -0.002696 -0.589679 255 255 0
-1.666194 0.006888 -0.667679 255 255 0
-1.666355 0.015752 -0.546063 255 255 0
-1.678802 0.024532 -0.550632 255 255 0
-1.698280 0.019467 -0.599679 255 255 0
-1.686269 0.008639 -0.643679 255 255 0
-1.684297 0.008299 -0.581679 255 255 0
-1.678434 0.007024 -0.567679 255 255 0
-1.671813 0.038172 -0.545679 255 255 0
-1.703365 0.024404 -0.643679 255 255 0
-1.678484 -0.002834 -0.643679 255 255 0
-1.696531 0.018077 -0.670665 255 255 0
-1.702432 0.031599 -0.557679 255 255 0
-1.697070 0.005923 -0.666256 255 255 0
-1.704322 0.019733 -0.583679 255 255 0
-1.660817 0.026843 -0.635679 255 255 0
-1.666690 0.003555 -0.555679 255 255 0
-1.662127 0.020988 -0.627679 255 255 0
-1.662515 0.006757 -0.635679 255 255 0
-1.702525 0.018736 -0.661679 255 255 0
-1.699766 0.010586 -0.659679 255 255 0
-1.661366 0.035139 -0.557679 255 255 0
-1.694822 0.003401 -0.611679 255 255 0
-1.690205 -0.000259 -0.629679 255 255 0
-1.703250 0.015324 -0.593679 255 255 0
-1.663567 0.019249 -0.592663 255 255 0
-1.657034 0.019905 -0.613679 255 255 0
-1.685625 0.011669 -0.556655 255 255 0
-1.664207 0.016238 -0.579679 255 255 0
-1.695975 0.015914 -0.621679 255 255 0
-1.685672 0.040305 -0.550607 255 255 0
-1.702107 0.011083 -0.559117 255 255 0
-1.677431 0.040598 -0.550670 255 255 0
-1.657916 0.026597 -0.621679 255 255 0
-1.677489 -0.002328 -0.629679 255 255 0
-1.662285 0.015663 -0.653679 255 255 0
-1.667289 0.001736 -0.641679 255 255 0
-1.697280 0.004934 -0.649679 255 255 0
-1.699081 0.020664 -0.607679 255 255 0
-1.669682 0.000102 -0.609086 255 255 0
-1.657282 0.015868 -0.599679 255 255 0
-1.673887 0.009174 -0.546492 255 255 0
-1.665735 0.013576 -0.641679 255 255 0
-1.664785 0.003898 -0.577679 255 255 0
-1.675266 0.007423 -0.613679 255 255 0
-1.696746 0.017065 -0.649679 255 255 0
-1.657445 0.019193 -0.585679 255 255 0
-1.667237 0.001627 -0.563679 255 255 0
-1.658240 0.028340 -0.593679 255 255 0
-1.671199 0.031441 -0.545679 255 255 0
-1.679807 0.029422 -0.545679 255 255 0
-1.664210 0.016222 -0.631679 255 255 0
-1.704162 0.021744 -0.603679 255 255 0
-1.657920 0.016959 -0.667679 255 255 0
-1.701611 0.013418 -0.645679 255 255 0
-1.678284 -0.001893 -0.559679 255 255 0
-1.698333 0.012326 -0.547679 255 255 0
-1.695542 0.003490 -0.567679 255 255 0
-1.659281 0.010159 -0.663679 255 255 0
-1.657469 0.019079 -0.637679 255 255 0
-1.691660 0.002516 -0.665679 255 255 0
-1.703799 0.025756 -0.619679 255 255 0
-1.656789 0.023942 -0.569679 255 255 0
-1.702508 0.015258 -0.617679 255 255 0
-1.685607 0.002135 -0.551679 255 255 0
-1.686347 -0.001346 -0.571679 255 255 0
-1.658558 0.012050 -0.561679 255 255 0
-1.703102 0.027652 -0.653679 255 255 0
-1.693683 0.012237 -0.663679 255 255 0
-1.702850 0.025554 -0.559679 255 255 0
-1.656772 0.017805 -0.571679 255 255 0
-1.674109 -0.001489 -0.615679 255 255 0
-1.657409 0.015895 -0.629679 255 255 0
-1.657899 0.011910 -0.645679 255 255 0
-1.692867 0.016075 -0.551679 255 255 0
-1.686872 0.005801 -0.545948 255 255 0
-1.686335 -0.001290 -0.599679 255 255 0
-1.682340 0.007883 -0.591679 255 255 0
-1.661687 0.022939 -0.617679 255 255 0
-1.684302 0.008275 -0.655679 255 255 0
-1.682367 -0.001861 -0.611679 255 255 0
-1.666081 0.021828 -0.557679 255 255 0
-1.684294 0.008313 -0.617679 255 255 0
-1.692162 0.000152 -0.559679 255 255 0
-1.668141 0.012043 -0.587679 255 255 0
-1.688220 0.009078 -0.563679 255 255 0
-1.695210 0.014673 -0.637679 255 255 0
-1.667238 0.001627 -0.657679 255 255 0
-1.700478 0.033229 -0.657679 255 255 0
-1.672162 0.007672 -0.599679 255 255 0
-1.669576 0.000599 -0.627679 255 255 0
-1.690191 0.009426 -0.611679 255 255 0
-1.702429 0.021375 -0.577679 255 255 0
-1.702361 0.015227 -0.629679 255 255 0
-1.695910 0.020999 -0.557679 255 255 0
-1.661848 0.008096 -0.573679 255 255 0
-1.844179 0.102622 -0.650602 255 0 0
-1.800555 -0.080448 -0.647679 255 0 0
-1.727925 0.033912 -0.641679 255 0 0
-1.872295 -0.000790 -0.641679 255 0 0
-1.795253 -0.003877 -0.628814 255 0 0
-1.902908 0.061944 -0.651679 255 0 0
-1.777464 0.084352 -0.637679 255 0 0
-1.831931 0.044812 -0.634806 255 0 0
-1.835552 -0.040294 -0.637679 255 0 0
-1.750258 -0.013441 -0.644950 255 0 0
-1.775270 0.036858 -0.639679 255 0 0
-1.803720 0.124693 -0.651679 255 0 0
-1.784715 -0.040877 -0.644024 255 0 0
-1.708931 -0.001785 -0.647679 255 0 0
-1.830867 0.005737 -0.645679 255 0 0
-1.872012 0.039019 -0.637718 255 0 0
-1.816205 0.080319 -0.637127 255 0 0
-1.866899 0.072692 -0.652536 255 0 0
-1.806100 0.027054 -0.645679 255 0 0
-1.767422 0.010654 -0.623679 255 0 0
-1.812961 -0.053275 -0.653679 255 0 0
-1.795117 0.059479 -0.643679 255 0 0
-1.752014 0.055256 -0.639679 255 0 0
-1.849150 -0.016957 -0.650528 255 0 0
-1.810235 -0.026267 -0.641679 255 0 0
-1.897604 0.034052 -0.651679 255 0 0
-1.747334 0.014563 -0.643679 255 0 0
-1.840840 0.070238 -0.643679 255 0 0
-1.851447 0.020335 -0.635061 255 0 0
-1.799478 0.101299 -0.638783 255 0 0
-1.774858 -0.004123 -0.644662 255 0 0
-1.750476 0.033633 -0.626815 255 0 0
-1.820733 0.107116 -0.649679 255 0 0
-1.786766 0.016810 -0.636473 255 0 0
-1.830712 -0.016787 -0.636188 255 0 0
-1.730642 -0.003298 -0.655679 255 0 0
-1.718882 0.018738 -0.656508 255 0 0
-1.853035 0.051343 -0.640540 255 0 0
-1.884411 0.019163 -0.640867 255 0 0
-1.865224 0.094827 -0.651679 255 0 0
-1.882250 0.055508 -0.649679 255 0 0
-1.769235 -0.025765 -0.642886 255 0 0
-1.814911 0.057552 -0.634787 255 0 0
-1.790338 -0.019235 -0.642606 255 0 0
-1.827647 0.026489 -0.645679 255 0 0
-1.811196 0.007690 -0.638592 255 0 0
-1.786289 0.009436 -0.615679 255 0 0
-1.851692 -0.000060 -0.639460 255 0 0
-1.796227 0.078117 -0.634762 255 0 0
-1.816139 -0.044421 -0.636076 255 0 0
-1.914435 0.045992 -0.653679 255 0 0
-1.777347 0.065925 -0.647679 255 0 0
-1.830608 0.089514 -0.646581 255 0 0
-1.813248 -0.011583 -0.629679 255 0 0
-1.728786 0.010620 -0.642412 255 0 0
-1.767912 0.018937 -0.640613 255 0 0
-1.793151 0.040659 -0.645679 255 0 0
-1.849982 0.084941 -0.649679 255 0 0
-1.863553 -0.007762 -0.656663 255 0 0
-1.825566 -0.031057 -0.625679 255 0 0
-1.737606 0.046080 -0.629679 255 0 0
-1.816281 0.041486 -0.642567 255 0 0
-1.799487 -0.062273 -0.646494 255 0 0
-1.759468 0.000946 -0.637679 255 0 0
-1.868760 0.015837 -0.634642 255 0 0
-1.801197 -0.041463 -0.648652 255 0 0
-1.845144 0.035353 -0.639679 255 0 0
-1.888204 0.071086 -0.647679 255 0 0
-1.844663 -0.026090 -0.637679 255 0 0
-1.768740 0.053521 -0.641679 255 0 0
-1.827746 -0.050933 -0.647679 255 0 0
-1.757885 0.037252 -0.640653 255 0 0
-1.830561 0.060879 -0.635658 255 0 0
-1.867102 0.058422 -0.645679 255 0 0
-1.743066 0.030013 -0.640619 255 0 0
-1.897596 0.048547 -0.657679 255 0 0
-1.784980 0.098218 -0.643679 255 0 0
-1.811258 -0.069557 -0.653679 255 0 0
-1.741478 -0.000995 -0.642766 255 0 0
-1.765833 0.028718 -0.628927 255 0 0
-1.814760 0.135218 -0.649980 255 0 0
-1.885734 0.041936 -0.643679 255 0 0
-1.796180 -0.032306 -0.637679 255 0 0
-1.836634 0.017187 -0.637679 255 0 0
-1.814835 0.096385 -0.640841 255 0 0
-1.787721 0.002700 -0.640639 255 0 0
-1.803201 -0.012411 -0.640609 255 0 0
-1.742112 0.044123 -0.644483 255 0 0
-1.825382 -0.030188 -0.640644 255 0 0
-1.860850 0.004954 -0.649679 255 0 0
-1.806547 0.068042 -0.640658 255 0 0
-1.823554 -0.003996 -0.637679 255 0 0
-1.855577 0.068241 -0.644536 255 0 0
-1.803122 0.048912 -0.637679 255 0 0
-1.861937 0.028699 -0.640618 255 0 0
-1.783610 0.050899 -0.641545 255 0 0
-1.785243 -0.004881 -0.617679 255 0 0
-1.786152 0.067797 -0.635740 255 0 0
-1.764094 -0.012545 -0.639679 255 0 0
-1.810024 -0.025274 -0.626923 255 0 0
-1.833859 0.112697 -0.648372 255 0 0
-1.817093 -0.058531 -0.641037 255 0 0
-1.807596 0.111204 -0.646641 255 0 0
-1.838609 -0.005843 -0.643679 255 0 0
-1.845285 0.010847 -0.646643 255 0 0
-1.754927 0.022311 -0.634746 255 0 0
-1.817358 0.017179 -0.646608 255 0 0
-1.777353 -0.015861 -0.637632 255 0 0
-1.778109 0.019059 -0.625837 255 0 0
-1.774735 0.006074 -0.634387 255 0 0
-1.860032 -0.010555 -0.643679 255 0 0
-1.719836 0.004629 -0.652663 255 0 0
-1.708965 0.012541 -0.649679 255 0 0
-1.837535 -0.029650 -0.648610 255 0 0
-1.829191 0.076945 -0.638719 255 0 0
-1.800876 0.017765 -0.637448 255 0 0
-1.804345 0.088021 -0.640530 255 0 0
-1.792512 0.028255 -0.640385 255 0 0
-1.873505 0.012756 -0.646636 255 0 0
-1.731404 -0.011315 -0.645206 255 0 0
-1.901356 0.045256 -0.645612 255 0 0
-1.857486 0.040021 -0.635823 255 0 0
-1.856882 0.105322 -0.651679 255 0 0
-1.721719 0.021386 -0.643679 255 0 0
-1.868716 0.083380 -0.645679 255 0 0
-1.805233 -0.050828 -0.640913 255 0 0
-1.843130 0.059461 -0.637185 255 0 0
-1.791359 0.091395 -0.635028 255 0 0
-1.816819 0.029332 -0.639153 255 0 0
-1.737208 0.019094 -0.637679 255 0 0
-1.782220 -0.029139 -0.640374 255 0 0
-1.751891 -0.001887 -0.649679 255 0 0
-1.890157 0.030608 -0.641032 255 0 0
-1.876387 0.066530 -0.646786 255 0 0
-1.821072 0.067041 -0.640607 255 0 0
-1.874506 0.027281 -0.640573 255 0 0
-1.799458 0.005195 -0.635975 255 0 0
-1.818558 -0.017326 -0.640647 255 0 0
-1.835258 0.029162 -0.635471 255 0 0
-1.738392 0.008573 -0.649679 255 0 0
-1.750149 0.044787 -0.631679 255 0 0
-1.832442 0.100127 -0.652550 255 0 0
-1.852746 -0.005017 -0.651679 255 0 0
-1.800698 -0.017033 -0.629679 255 0 0
-1.805078 0.041149 -0.647679 255 0 0
-1.858478 0.009562 -0.635679 255 0 0
-1.778818 0.025344 -0.640660 255 0 0
-1.823340 -0.039823 -0.647679 255 0 0
-1.799616 -0.058156 -0.657679 255 0 0
-1.820997 -0.020897 -0.629679 255 0 0
-1.814838 0.120922 -0.651679 255 0 0
-1.781143 -0.004832 -0.634528 255 0 0
-1.792663 -0.049411 -0.645180 255 0 0
-1.776234 0.002303 -0.615679 255 0 0
-1.864064 0.047553 -0.642616 255 0 0
-1.738009 0.034567 -0.627679 255 0 0
-1.893408 0.053790 -0.645208 255 0 0
-1.841713 0.046892 -0.640650 255 0 0
-1.824399 0.051390 -0.640596 255 0 0
-1.840440 0.081736 -0.643679 255 0 0
-1.827310 0.037696 -0.642564 255 0 0
-1.808191 -0.035887 -0.635846 255 0 0
-1.835248 -0.028507 -0.631679 255 0 0
-1.833840 0.016593 -0.648653 255 0 0
-1.818862 -0.062244 -0.657679 255 0 0
-1.788401 0.076454 -0.642673 255 0 0
-1.809218 -0.002954 -0.635679 255 0 0
-1.759378 0.010989 -0.642602 255 0 0
-1.796469 0.110883 -0.643679 255 0 0
-1.876217 0.048092 -0.642593 255 0 0
-1.840909 -0.016664 -0.642572 255 0 0
-1.790802 0.007445 -0.625576 255 0 0
-1.760056 0.047937 -0.637679 255 0 0
-1.792172 -0.008622 -0.640596 255 0 0
-1.811810 -0.043296 -0.646661 255 0 0
-1.891745 0.061616 -0.652672 255 0 0
-1.721500 -0.003197 -0.645222 255 0 0
-1.841506 0.091831 -0.647679 255 0 0
-1.854084 0.094504 -0.646457 255 0 0
-1.844330 0.024957 -0.642673 255 0 0
-1.765613 0.029752 -0.639679 255 0 0
-1.862233 -0.001554 -0.637679 255 0 0
-1.731968 0.019475 -0.647679 255 0 0
-1.796765 0.065963 -0.635258 255 0 0
-1.860491 0.083598 -0.652587 255 0 0
-1.817264 -0.030474 -0.633679 255 0 0
-1.826778 -0.046376 -0.637679 255 0 0
-1.725460 0.026271 -0.652626 255 0 0
-1.762705 -0.004662 -0.646650 255 0 0
-1.815810 0.029118 -0.649679 255 0 0
-1.824617 0.098464 -0.645021 255 0 0
-1.907934 0.052789 -0.648958 255 0 0
-1.742310 -0.004907 -0.652614 255 0 0
-1.736265 0.038791 -0.637679 255 0 0
-1.826271 0.014984 -0.641679 255 0 0
-1.806670 0.057845 -0.642664 255 0 0
-1.760087 0.017273 -0.627378 255 0 0
-1.849859 -0.010673 -0.642220 255 0 0
-1.805478 -0.071223 -0.645371 255 0 0
-1.728786 0.010620 -0.652639 255 0 0
-1.806424 0.078240 -0.634980 255 0 0
-1.821809 0.005857 -0.640770 255 0 0
-1.730865 0.000839 -0.645386 255 0 0
-1.768867 0.004827 -0.642628 255 0 0
-1.768574 -0.003414 -0.636307 255 0 0
-1.775227 -0.034715 -0.645185 255 0 0
-1.760162 -0.021559 -0.644635 255 0 0
-1.750646 0.007088 -0.637679 255 0 0
-1.807960 0.035628 -0.639679 255 0 0
-1.779574 0.060265 -0.639590 255 0 0
-1.800734 -0.068142 -0.654613 255 0 0
-1.853280 0.030948 -0.634511 255 0 0
-1.878249 0.009675 -0.638293 255 0 0
-1.739399 0.008787 -0.639657 255 0 0
-1.718237 0.012154 -0.645679 255 0 0
-1.778620 0.074374 -0.636346 255 0 0
-1.787154 0.082322 -0.634490 255 0 0
-1.765663 0.010280 -0.634527 255 0 0
-1.776985 0.014731 -0.640642 255 0 0
-1.799411 -0.023440 -0.642666 255 0 0
-1.814202 0.051267 -0.642674 255 0 0
-1.860104 0.018086 -0.640629 255 0 0
-1.891789 0.042167 -0.651679 255 0 0
-1.820827 0.087435 -0.642372 255 0 0
-1.787522 0.051731 -0.650660 255 0 0
-1.847241 0.011262 -0.636982 255 0 0
-1.797125 0.049682 -0.645679 255 0 0
-1.816016 -0.034224 -0.642670 255 0 0
-1.854362 -0.012619 -0.657679 255 0 0
-1.845408 0.000649 -0.648476 255 0 0
-1.803446 -0.032806 -0.644640 255 0 0
-1.882747 0.026988 -0.646494 255 0 0
-1.843021 0.112599 -0.651679 255 0 0
-1.808777 -0.019405 -0.634582 255 0 0
-1.778046 0.009737 -0.621679 255 0 0
-1.808742 -0.062351 -0.659679 255 0 0
-1.826775 -0.036745 -0.633679 255 0 0
-1.768791 0.043660 -0.637432 255 0 0
-1.729660 0.025119 -0.637679 255 0 0
-1.809286 -0.079517 -0.651679 255 0 0
-1.834180 0.053469 -0.640587 255 0 0
-1.881084 0.034813 -0.639289 255 0 0
-1.803074 -0.050294 -0.651679 255 0 0
-1.801197 -0.041463 -0.639101 255 0 0
-1.799506 0.033831 -0.643857 255 0 0
-1.868883 0.005639 -0.635573 255 0 0
-1.867608 -0.002811 -0.649679 255 0 0
-1.898119 0.070106 -0.651679 255 0 0
-1.849102 0.075043 -0.645679 255 0 0
-1.782806 -0.012657 -0.644658 255 0 0
-1.840248 0.005687 -0.640532 255 0 0
-1.808244 0.103163 -0.641679 255 0 0
-1.904487 0.040146 -0.653679 255 0 0
-1.855482 0.010969 -0.644670 255 0 0
-1.779206 0.090856 -0.644438 255 0 0
-1.773365 0.022140 -0.633326 255 0 0
-1.834331 -0.024197 -0.640650 255 0 0
-1.788524 0.066256 -0.644678 255 0 0
-1.818341 -0.064400 -0.648236 255 0 0
-1.833330 -0.038722 -0.646626 255 0 0
-1.752507 -0.004785 -0.640812 255 0 0
-1.790630 0.104448 -0.639679 255 0 0
-1.735534 0.036591 -0.646666 255 0 0
-1.758373 0.034956 -0.631679 255 0 0
-1.786379 -0.013942 -0.635679 255 0 0
-1.748667 0.037338 -0.639679 255 0 0
-1.809117 0.017472 -0.642379 255 0 0
-1.905977 0.052373 -0.658675 255 0 0
-1.851831 0.061310 -0.639679 255 0 0
-1.821869 0.044056 -0.635679 255 0 0
-1.747058 0.006325 -0.647679 255 0 0
-1.836513 0.037608 -0.641679 255 0 0
-1.858242 0.074941 -0.650671 255 0 0
-1.813956 0.071662 -0.635276 255 0 0
-1.793569 0.003943 -0.617679 255 0 0
-1.802369 -0.008499 -0.632250 255 0 0
-1.788231 0.058015 -0.637999 255 0 0
-1.744900 0.040626 -0.625635 255 0 0
-1.809684 -0.062150 -0.644613 255 0 0
-1.846901 -0.025614 -0.646353 255 0 0
-1.710767 0.004745 -0.653679 255 0 0
-1.829245 -0.009888 -0.641679 255 0 0
-1.865679 0.011092 -0.642678 255 0 0
-1.785764 0.002284 -0.631767 255 0 0
-1.883088 0.063865 -0.652644 255 0 0
-1.769221 0.019215 -0.625679 255 0 0
-1.801335 -0.003635 -0.639679 255 0 0
-1.751893 0.046202 -0.640668 255 0 0
-1.746270 0.024560 -0.634442 255 0 0
-1.805838 0.061758 -0.634485 255 0 0
-1.849605 -0.019096 -0.639679 255 0 0
-1.792342 0.009817 -0.638394 255 0 0
-1.812982 -0.010332 -0.638580 255 0 0
-1.848829 0.042270 -0.635748 255 0 0
-1.840323 -0.033146 -0.640544 255 0 0
-1.799866 0.118710 -0.645679 255 0 0
-1.757360 0.026917 -0.627679 255 0 0
-1.887369 0.034105 -0.648605 255 0 0
-1.866521 -0.012105 -0.649679 255 0 0
-1.750183 0.025392 -0.642662 255 0 0
-1.819908 -0.047709 -0.649679 255 0 0
-1.792936 -0.012218 -0.629679 255 0 0
-1.837876 0.007227 -0.650587 255 0 0
-1.786837 -0.005666 -0.627679 255 0 0
-1.820908 -0.012737 -0.633679 255 0 0
-1.833226 0.067579 -0.640507 255 0 0
-1.860028 0.056919 -0.640946 255 0 0
-1.829238 0.105580 -0.646495 255 0 0
-1.785226 0.014438 -0.622583 255 0 0
-1.793023 0.083570 -0.640610 255 0 0
-1.792956 -0.041170 -0.641429 255 0 0
-1.875754 0.021412 -0.646677 255 0 0
-1.804155 -0.026521 -0.635642 255 0 0
-1.826601 0.031411 -0.636844 255 0 0
-1.789630 -0.025519 -0.636891 255 0 0
-1.795651 0.053458 -0.637679 255 0 0
-1.811121 0.046523 -0.636005 255 0 0
-1.864186 0.037356 -0.640628 255 0 0
-1.863392 0.065812 -0.647679 255 0 0
-1.799430 0.072664 -0.640614 255 0 0
-1.812094 0.128517 -0.654451 255 0 0
-1.836089 0.025250 -0.644669 255 0 0
-1.822395 0.022339 -0.639989 255 0 0
-1.873212 0.004515 -0.648618 255 0 0
-1.715924 0.003797 -0.645199 255 0 0
-1.848215 0.093257 -0.652591 255 0 0
-1.822546 -0.055327 -0.652625 255 0 0
-1.877818 0.019806 -0.635679 255 0 0
-1.736782 0.030722 -0.635116 255 0 0
-1.783099 -0.004416 -0.642665 255 0 0
-1.733285 0.027934 -0.644677 255 0 0
-1.783903 0.059140 -0.646637 255 0 0
-1.837021 0.099056 -0.645679 255 0 0
-1.717587 -0.004028 -0.652522 255 0 0
-1.807747 0.033538 -0.650614 255 0 0
-1.812586 0.087728 -0.638092 255 0 0
-1.750305 0.015194 -0.635961 255 0 0
-1.824591 -0.022177 -0.637679 255 0 0
-1.758090 0.002536 -0.645679 255 0 0
-1.737170 0.048131 -0.637679 255 0 0
-1.869053 0.024077 -0.635102 255 0 0
-1.758546 0.014901 -0.635167 255 0 0
-1.763168 0.022018 -0.634415 255 0 0
-1.845871 0.027329 -0.634856 255 0 0
-1.823152 0.057259 -0.634595 255 0 0
-1.847950 0.017547 -0.642592 255 0 0
-1.782145 0.009694 -0.634424 255 0 0
-1.869857 0.087633 -0.652652 255 0 0
-1.755758 0.018398 -0.642664 255 0 0
-1.774565 -0.012364 -0.644602 255 0 0
-1.779480 0.002993 -0.640593 255 0 0
-1.813663 0.063421 -0.640594 255 0 0
-1.822395 0.022339 -0.650605 255 0 0
-1.788893 0.035664 -0.640711 255 0 0
-1.794251 -0.018403 -0.635420 255 0 0
-1.799799 0.042072 -0.640811 255 0 0
-1.882747 0.026988 -0.637399 255 0 0
-1.806896 -0.058654 -0.652584 255 0 0
-1.832272 0.081689 -0.644628 255 0 0
-1.740817 0.021356 -0.644651 255 0 0
-1.758008 0.027055 -0.640602 255 0 0
-1.831714 -0.002261 -0.640502 255 0 0
-1.799185 0.093058 -0.636132 255 0 0
-1.744607 0.032385 -0.632216 255 0 0
-1.858856 0.023955 -0.634868 255 0 0
-1.815421 0.112867 -0.647816 255 0 0
-1.783466 0.091762 -0.637679 255 0 0
-1.867875 0.032006 -0.635679 255 0 0
-1.841004 0.040607 -0.635079 255 0 0
-1.886414 0.048215 -0.648628 255 0 0
-1.742943 0.040210 -0.633396 255 0 0
-1.793420 -0.000177 -0.635679 255 0 0
-1.822490 0.079610 -0.642679 255 0 0
-1.874683 0.055311 -0.645679 255 0 0
-1.864946 0.076366 -0.645679 255 0 0
-1.773072 0.013899 -0.633784 255 0 0
-1.799629 0.023634 -0.642624 255 0 0
-1.820874 0.034284 -0.645679 255 0 0
-1.816050 0.000543 -0.639679 255 0 0
-1.897321 0.054622 -0.652620 255 0 0
-1.790726 0.046277 -0.640681 255 0 0
-1.824488 0.112750 -0.645679 255 0 0
-1.785675 0.002703 -0.619679 255 0 0
-1.821876 -0.052173 -0.639679 255 0 0
-1.804638 0.096262 -0.642644 255 0 0
-1.808361 -0.017449 -0.627001 255 0 0
-1.888104 0.059505 -0.645679 255 0 0
-1.818265 -0.025567 -0.640658 255 0 0
-1.760427 0.054150 -0.642306 255 0 0
-1.825107 -0.038517 -0.623679 255 0 0
-1.857703 0.087095 -0.646279 255 0 0
-1.830636 0.022046 -0.638133 255 0 0
-1.779745 0.078703 -0.642653 255 0 0
-1.810554 0.126145 -0.647261 255 0 0
-1.744765 0.046732 -0.637679 255 0 0
-1.853233 0.002313 -0.646639 255 0 0
-1.722889 0.028746 -0.645679 255 0 0
-1.771392 -0.010994 -0.637679 255 0 0
-1.813474 -0.051121 -0.638740 255 0 0
-1.894424 0.037649 -0.645679 255 0 0
-1.821781 0.073325 -0.636296 255 0 0
-1.901233 0.055454 -0.646096 255 0 0
-1.837063 0.107244 -0.652654 255 0 0
-1.857581 0.097292 -0.652638 255 0 0
-1.826922 -0.027816 -0.632449 255 0 0
-1.781408 0.070878 -0.642520 255 0 0
-1.819485 0.036033 -0.636701 255 0 0
-1.814690 0.102488 -0.645679 255 0 0
-1.736245 -0.000062 -0.651679 255 0 0
-1.823166 -0.058243 -0.645679 255 0 0
-1.892735 0.028099 -0.647679 255 0 0
-1.852156 0.026620 -0.640596 255 0 0
-1.859275 -0.012761 -0.651679 255 0 0
-1.725167 0.018030 -0.650595 255 0 0
-1.792219 0.020014 -0.640523 255 0 0
-1.860349 -0.002309 -0.652614 255 0 0
-1.914776 0.054243 -0.651679 255 0 0
-1.872257 0.018624 -0.640661 255 0 0
-1.837167 0.000942 -0.646579 255 0 0
-1.849217 0.107782 -0.652616 255 0 0
-1.785688 0.026805 -0.637679 255 0 0
-1.831115 -0.045327 -0.643679 255 0 0
-1.848452 0.068771 -0.641679 255 0 0
-1.804496 0.010355 -0.640528 255 0 0
-1.794374 -0.028600 -0.644567 255 0 0
-1.808103 0.118436 -0.649679 255 0 0
-1.850991 0.102026 -0.647679 255 0 0
-1.833594 0.036987 -0.634868 255 0 0
-1.854405 0.035277 -0.640626 255 0 0
-1.723749 0.005460 -0.646416 255 0 0
-1.775614 0.030797 -0.635429 255 0 0
-1.840465 0.052760 -0.635488 255 0 0
-1.716076 0.018142 -0.649679 255 0 0
-1.753264 0.030136 -0.634015 255 0 0
-1.843622 0.018672 -0.635779 255 0 0
-1.790924 -0.002753 -0.622253 255 0 0
-1.877512 0.070858 -0.652668 255 0 0
-1.806792 0.047648 -0.644619 255 0 0
-1.782800 -0.020837 -0.637679 255 0 0
-1.800085 0.064624 -0.641679 255 0 0
-1.750183 0.025392 -0.627980 255 0 0
-1.780066 0.019475 -0.634692 255 0 0
-1.832678 0.031680 -0.643679 255 0 0
-1.818804 -0.037720 -0.634737 255 0 0
-1.835749 -0.011627 -0.638776 255 0 0
-1.831374 -0.035049 -0.627679 255 0 0
-1.828406 0.109493 -0.652620 255 0 0
-1.816488 0.011651 -0.641679 255 0 0
-1.818454 0.050499 -0.635679 255 0 0
-1.799780 -0.054032 -0.644530 255 0 0
-1.789337 -0.033760 -0.639685 255 0 0
-1.801264 0.083277 -0.635863 255 0 0
-1.768338 0.036170 -0.637679 255 0 0
-1.807898 -0.044128 -0.638415 255 0 0
-1.729225 0.018174 -0.639679 255 0 0
-1.839709 0.017840 -0.644606 255 0 0
-1.830268 0.052638 -0.634559 255 0 0
-1.794440 0.096139 -0.640635 255 0 0
-1.835891 0.074280 -0.639188 255 0 0
-1.823132 -0.038845 -0.640523 255 0 0
-1.855038 0.080394 -0.647180 255 0 0
-1.791189 0.072957 -0.635186 255 0 0
-1.840200 -0.022949 -0.646666 255 0 0
-1.889251 0.054109 -0.651679 255 0 0
-1.745098 -0.008404 -0.644726 255 0 0
-1.896073 0.060491 -0.646276 255 0 0
-1.869687 0.069195 -0.646608 255 0 0
-1.887908 0.021951 -0.646581 255 0 0
-1.726537 0.001963 -0.652670 255 0 0
-1.869564 0.079392 -0.652667 255 0 0
-1.810752 0.077115 -0.640637 255 0 0
-1.819239 0.056427 -0.640641 255 0 0
-1.835088 0.010724 -0.640482 255 0 0
-1.798399 0.043819 -0.649679 255 0 0
-1.854915 0.090592 -0.652637 255 0 0
-1.831666 -0.030897 -0.644645 255 0 0
-1.826941 0.068288 -0.636649 255 0 0
-1.858037 0.047048 -0.637679 255 0 0
-1.836846 0.060170 -0.640584 255 0 0
-1.720129 0.012870 -0.652570 255 0 0
-1.769528 -0.017524 -0.639957 255 0 0
-1.846334 0.054008 -0.640538 255 0 0
-1.881243 0.061428 -0.645679 255 0 0
-1.800911 -0.000630 -0.631679 255 0 0
-1.759138 -0.007122 -0.639679 255 0 0
-1.776542 0.055291 -0.643679 255 0 0
-1.771559 0.025846 -0.639679 255 0 0
-1.815671 -0.017939 -0.633679 255 0 0
-1.807501 0.053932 -0.635237 255 0 0
-1.839784 -0.020993 -0.636943 255 0 0
-1.865093 -0.005390 -0.643575 255 0 0
-1.803759 0.071539 -0.635122 255 0 0
-1.802158 -0.074843 -0.651679 255 0 0
-1.875678 0.060245 -0.650644 255 0 0
-1.877880 0.040266 -0.642445 255 0 0
-1.790405 0.105505 -0.646655 255 0 0
-1.812263 0.024274 -0.643679 255 0 0
-1.786814 0.045446 -0.646473 255 0 0
-1.847698 -0.010124 -0.649679 255 0 0
-1.751600 0.037961 -0.632519 255 0 0
-1.777060 -0.024102 -0.640013 255 0 0
-1.742817 0.002326 -0.651679 255 0 0
-1.790976 -0.006831 -0.633679 255 0 0
-1.881531 0.013474 -0.643679 255 0 0
-1.802329 0.107124 -0.643679 255 0 0
-1.813200 0.036742 -0.646608 255 0 0
-1.907641 0.044548 -0.649328 255 0 0
-1.846239 -0.003263 -0.642330 255 0 0
-1.817576 0.064253 -0.634932 255 0 0
-1.787740 0.098804 -0.636977 255 0 0
-1.786322 0.086235 -0.640642 255 0 0
-1.898064 0.041505 -0.655679 255 0 0
-1.904115 0.045843 -0.657679 255 0 0
-1.736025 -0.004199 -0.646208 255 0 0
-1.806159 0.002530 -0.638447 255 0 0
-1.783685 0.012066 -0.640649 255 0 0
-1.797609 -0.024581 -0.635679 255 0 0
-1.738152 0.014656 -0.646595 255 0 0
-1.756543 -0.014150 -0.642416 255 0 0
-1.766003 0.047156 -0.642563 255 0 0
-1.869101 0.052713 -0.642562 255 0 0
-1.797956 -0.016593 -0.641679 255 0 0
-1.752848 0.032092 -0.640660 255 0 0
-1.817888 -0.043031 -0.643679 255 0 0
-1.843716 0.075943 -0.641428 255 0 0
-1.813270 -0.050164 -0.647679 255 0 0
-1.768372 -0.002467 -0.643679 255 0 0
-1.782652 0.001623 -0.613679 255 0 0
-1.856852 -0.005097 -0.639711 255 0 0
-1.813937 -0.024442 -0.634236 255 0 0
-1.857078 -0.006158 -0.657679 255 0 0
-1.773119 0.042535 -0.642622 255 0 0
-1.825180 0.061780 -0.639679 255 0 0
-1.827419 0.085280 -0.641679 255 0 0
-1.728540 0.031015 -0.648518 255 0 0
-1.896612 0.048337 -0.650369 255 0 0
-1.857145 0.003144 -0.637238 255 0 0
-1.744429 0.004363 -0.639679 255 0 0
-1.810317 -0.017033 -0.640647 255 0 0
-1.830835 -0.026984 -0.626295 255 0 0
-1.734117 0.040379 -0.629679 255 0 0
-1.826894 0.039652 -0.635578 255 0 0
-1.840976 0.108075 -0.647223 255 0 0
-1.826015 0.014929 -0.648344 255 0 0
-1.875215 0.033566 -0.642662 255 0 0
-1.800161 0.058506 -0.635679 255 0 0
-1.815970 -0.005149 -0.635679 255 0 0
-1.773072 0.013899 -0.626732 255 0 0
-1.823690 0.045105 -0.642636 255 0 0
-1.753925 0.007785 -0.644637 255 0 0
-1.835645 0.094674 -0.650515 255 0 0
-1.808607 -0.037843 -0.644626 255 0 0
-1.793977 0.069460 -0.642660 255 0 0
-1.842299 0.063374 -0.642600 255 0 0
-1.793174 0.005904 -0.633033 255 0 0
-1.807878 0.092861 -0.637679 255 0 0
-1.769575 0.011112 -0.640620 255 0 0
-1.847786 0.091121 -0.645679 255 0 0
-1.766372 0.016565 -0.631025 255 0 0
-1.825013 0.000404 -0.642647 255 0 0
-1.834454 -0.034394 -0.634954 255 0 0
-1.810069 -0.055935 -0.641679 255 0 0
-1.743605 0.017859 -0.636713 255 0 0
-1.863987 0.088430 -0.647679 255 0 0
-1.843354 -0.010011 -0.641679 255 0 0
-1.772779 0.005658 -0.620130 255 0 0
-1.723716 0.015234 -0.641679 255 0 0
-1.855439 -0.017686 -0.653679 255 0 0
-1.772118 0.028009 -0.630688 255 0 0
-1.802574 0.052885 -0.643679 255 0 0
-1.868808 0.044472 -0.639172 255 0 0
-1.734269 0.013684 -0.639679 255 0 0
-1.836888 0.086760 -0.645679 255 0 0
-1.797750 -0.046285 -0.641679 255 0 0
-1.822018 -0.034993 -0.629679 255 0 0
-1.892751 0.066501 -0.647679 255 0 0
-1.846532 0.004978 -0.639268 255 0 0
-1.727832 0.024730 -0.646625 255 0 0
-1.791095 0.001373 -0.627679 255 0 0
-1.821735 0.093762 -0.641679 255 0 0
-1.816309 -0.025983 -0.628073 255 0 0
-1.814174 0.118736 -0.645509 255 0 0
-1.757838 0.008617 -0.636308 255 0 0
-1.759788 0.027433 -0.633679 255 0 0
-1.838461 0.023709 -0.636605 255 0 0
-1.797795 0.013020 -0.640484 255 0 0
-1.784862 0.075701 -0.635679 255 0 0
-1.781511 -0.035424 -0.642977 255 0 0
-1.764954 0.003995 -0.635572 255 0 0
-1.801906 -0.035178 -0.637519 255 0 0
-1.830814 -0.022900 -0.633679 255 0 0
-1.739991 0.025244 -0.635679 255 0 0
-1.733946 0.005583 -0.642451 255 0 0
-1.774027 -0.000210 -0.635558 255 0 0
-1.742337 0.038037 -0.639679 255 0 0
-1.881840 0.069734 -0.646095 255 0 0
-1.861328 0.032659 -0.635679 255 0 0
-1.828901 0.020588 -0.647679 255 0 0
-1.812514 0.039967 -0.637679 255 0 0
-1.841514 0.095922 -0.652601 255 0 0
-1.854651 0.014882 -0.635594 255 0 0
-1.792265 0.010178 -0.617679 255 0 0
-1.854354 -0.012583 -0.647679 255 0 0
-1.840295 0.034322 -0.634622 255 0 0
-1.805280 -0.022193 -0.640615 255 0 0
-1.804052 0.079780 -0.640654 255 0 0
-1.845925 0.080502 -0.647679 255 0 0
-1.784470 -0.020482 -0.644631 255 0 0
-1.862060 0.018502 -0.634605 255 0 0
-1.744191 0.034341 -0.625452 255 0 0
-1.811291 0.064961 -0.634765 255 0 0
-1.845625 0.047723 -0.635596 255 0 0
-1.798060 0.088730 -0.640677 255 0 0
-1.723872 -0.004737 -0.652621 255 0 0
-1.862830 0.005259 -0.643679 255 0 0
-1.852326 0.045058 -0.640632 255 0 0
-1.839716 0.032154 -0.641679 255 0 0
-1.714676 0.009666 -0.652632 255 0 0
-1.776276 0.008446 -0.640658 255 0 0
-1.761627 0.019646 -0.640624 255 0 0
-1.865557 0.021290 -0.640622 255 0 0
-1.883797 0.070150 -0.652676 255 0 0
-1.904188 0.056082 -0.653679 255 0 0
-1.854235 0.016838 -0.642629 255 0 0
-1.731990 0.005167 -0.652631 255 0 0
-1.858781 0.062788 -0.644530 255 0 0
-1.833472 0.047185 -0.640651 255 0 0
-1.827707 -0.035828 -0.643679 255 0 0
-1.868222 0.027990 -0.640562 255 0 0
-1.807290 -0.007453 -0.639679 255 0 0
-1.814646 -0.018157 -0.627447 255 0 0
-1.850797 -0.020697 -0.645679 255 0 0
-1.826737 0.103004 -0.651679 255 0 0
-1.777911 0.068090 -0.638075 255 0 0
-1.788987 0.092936 -0.640655 255 0 0
-1.813596 -0.061319 -0.654357 255 0 0
-1.764622 0.034417 -0.631679 255 0 0
-1.810535 0.030041 -0.640902 255 0 0
-1.831317 0.095799 -0.646139 255 0 0
-1.840956 0.011971 -0.638705 255 0 0
-1.818067 0.023463 -0.646250 255 0 0
-1.762582 0.005536 -0.642587 255 0 0
-1.870961 0.063201 -0.647679 255 0 0
-1.749456 0.000701 -0.639679 255 0 0
-1.835040 -0.017912 -0.640500 255 0 0
-1.862922 0.043221 -0.637679 255 0 0
-1.755193 0.021056 -0.627679 255 0 0
-1.822118 0.028414 -0.647679 255 0 0
-1.817453 0.074450 -0.640571 255 0 0
-1.888909 0.036477 -0.642529 255 0 0
-1.743450 0.047445 -0.631679 255 0 0
-1.780935 -0.011010 -0.635679 255 0 0
-1.867129 0.004274 -0.649679 255 0 0
-1.790603 0.056475 -0.646639 255 0 0
-1.844916 0.041439 -0.640624 255 0 0
-1.807113 -0.011580 -0.629121 255 0 0
-1.810964 0.042400 -0.645679 255 0 0
-1.774831 0.020407 -0.639679 255 0 0
-1.805668 0.043319 -0.637816 255 0 0
-1.715215 -0.002488 -0.647072 255 0 0
-1.796595 0.047525 -0.638944 255 0 0
-1.799487 -0.062273 -0.652632 255 0 0
-1.845427 0.096753 -0.646255 255 0 0
-1.780604 0.007322 -0.614789 255 0 0
-1.744852 0.011990 -0.637938 255 0 0
-1.875337 0.004133 -0.639679 255 0 0
-1.732912 0.044212 -0.635679 255 0 0
-1.796274 0.106752 -0.639122 255 0 0
-1.781705 0.031001 -0.639679 255 0 0
-1.898312 0.040339 -0.649679 255 0 0
-1.843593 0.086140 -0.648480 255 0 0
-1.799928 -0.068313 -0.645679 255 0 0
-1.783752 0.021371 -0.639679 255 0 0
-1.789922 0.052241 -0.639679 255 0 0
-1.812954 0.057136 -0.640550 255 0 0
-1.806789 -0.067772 -0.657679 255 0 0
-1.824815 0.049434 -0.634834 255 0 0
-1.880871 0.051126 -0.645679 255 0 0
-1.792682 0.046693 -0.648564 255 0 0
-1.862863 0.082058 -0.646666 255 0 0
-1.838804 0.012476 -0.647679 255 0 0
-1.850076 0.036401 -0.634845 255 0 0
-1.835523 0.104872 -0.646517 255 0 0
-1.736478 0.041771 -0.643679 255 0 0
-1.835531 0.056736 -0.635679 255 0 0
-1.839511 0.066870 -0.638530 255 0 0
-1.794100 0.059263 -0.637068 255 0 0
-1.863014 0.004392 -0.636229 255 0 0
-1.910306 0.051248 -0.654633 255 0 0
-1.892038 0.069857 -0.652626 255 0 0
-1.822008 -0.043173 -0.635583 255 0 0
-1.797474 0.072248 -0.634307 255 0 0
-1.775274 -0.006079 -0.635921 255 0 0
-1.707805 0.004116 -0.647679 255 0 0
-1.827808 -0.051223 -0.641679 255 0 0
-1.802908 -0.020652 -0.634874 255 0 0
-1.782655 0.065009 -0.644567 255 0 0
-1.794979 0.083986 -0.634675 255 0 0
-1.882039 0.020704 -0.646480 255 0 0
-1.790924 -0.002753 -0.640662 255 0 0
-1.789091 -0.013366 -0.642660 255 0 0
-1.837800 0.046060 -0.634771 255 0 0
-1.812416 0.069290 -0.640659 255 0 0
-1.779895 0.001037 -0.634560 255 0 0
-1.863695 0.078145 -0.652629 255 0 0
-1.805299 0.073911 -0.640616 255 0 0
-1.809505 0.082984 -0.640661 255 0 0
-1.798183 0.078533 -0.640674 255 0 0
-1.842279 -0.032731 -0.646611 255 0 0
-1.788382 -0.019651 -0.635893 255 0 0
-1.812340 0.108123 -0.644738 255 0 0
-1.907636 0.058859 -0.649679 255 0 0
-1.826511 -0.045122 -0.647679 255 0 0
-1.839614 -0.029812 -0.635679 255 0 0
-1.843867 -0.016036 -0.647679 255 0 0
-1.821706 0.112158 -0.652629 255 0 0
-1.805963 0.022690 -0.641679 255 0 0
-1.733212 0.013606 -0.649679 255 0 0
-1.795007 0.016517 -0.636619 255 0 0
-1.721281 0.023338 -0.649679 255 0 0
-1.873920 0.010799 -0.634454 255 0 0
-1.850984 -0.006344 -0.646214 255 0 0
-1.805018 -0.022249 -0.627679 255 0 0
-1.810194 -0.006836 -0.631341 255 0 0
-1.806357 -0.046500 -0.648615 255 0 0
-1.812472 -0.065647 -0.648423 255 0 0
-1.855213 0.074297 -0.645679 255 0 0
-1.762752 0.023974 -0.627361 255 0 0
-1.762441 0.035058 -0.637679 255 0 0
-1.862306 -0.008027 -0.649679 255 0 0
-1.809007 -0.030109 -0.635679 255 0 0
-1.736366 0.032678 -0.640597 255 0 0
-1.885014 0.031559 -0.643679 255 0 0
-1.854622 0.082351 -0.652637 255 0 0
-1.863307 0.012633 -0.634683 255 0 0
-1.833131 0.010308 -0.648457 255 0 0
-1.876465 0.008448 -0.643679 255 0 0
-1.892822 0.037308 -0.654665 255 0 0
-1.773825 0.000737 -0.641679 255 0 0
-1.822934 0.010185 -0.644444 255 0 0
-1.793221 0.034540 -0.644382 255 0 0
-1.781994 0.087360 -0.634234 255 0 0
-1.727784 -0.003905 -0.646564 255 0 0
-1.897423 0.063758 -0.651679 255 0 0
-1.818539 0.098199 -0.645679 255 0 0
-1.829833 -0.041510 -0.634703 255 0 0
-1.769739 0.029549 -0.635679 255 0 0
-1.880961 0.045011 -0.644315 255 0 0
-1.754974 0.050946 -0.637420 255 0 0
-1.681100 -0.017918 -0.655679 0 0 255
-1.797383 -0.100473 -0.657679 0 0 255
-1.772409 -0.011841 -0.645679 0 0 255
-1.717807 -0.072398 -0.657679 0 0 255
-1.797407 -0.052492 -0.652641 0 0 255
-1.726045 -0.005342 -0.645679 0 0 255
-1.761608 -0.076459 -0.649724 0 0 255
-1.710522 -0.038124 -0.649679 0 0 255
-1.754282 -0.041211 -0.647679 0 0 255
-1.684348 -0.045853 -0.655679 0 0 255
-1.732463 -0.049939 -0.659679 0 0 255
-1.746981 -0.017264 -0.655679 0 0 255
-1.792951 -0.026858 -0.645679 0 0 255
-1.797408 -0.077028 -0.647679 0 0 255
-1.773516 -0.055525 -0.647174 0 0 255
-1.739673 -0.079076 -0.656647 0 0 255
-1.780308 -0.082707 -0.661679 0 0 255
-1.750965 -0.060319 -0.659679 0 0 255
-1.774294 -0.034913 -0.651679 0 0 255
-1.700345 -0.024051 -0.659679 0 0 255
-1.731241 -0.023618 -0.647679 0 0 255
-1.760930 -0.025173 -0.645679 0 0 255
-1.783789 -0.094235 -0.649383 0 0 255
-1.756836 -0.005909 -0.648653 0 0 255
-1.787202 -0.064884 -0.649679 0 0 255
-1.785432 -0.044249 -0.645679 0 0 255
-1.717496 -0.057209 -0.653679 0 0 255
-1.739111 -0.060794 -0.649679 0 0 255
-1.741626 -0.007097 -0.645679 0 0 255
-1.721159 -0.040073 -0.660622 0 0 255
-1.745344 -0.028799 -0.646738 0 0 255
-1.711664 -0.005020 -0.647679 0 0 255
-1.699866 -0.045710 -0.655679 0 0 255
-1.763782 -0.028969 -0.658675 0 0 255
-1.691252 -0.024424 -0.649679 0 0 255
-1.798825 -0.039922 -0.648648 0 0 255
-1.749909 -0.070767 -0.651679 0 0 255
-1.781218 -0.043665 -0.658643 0 0 255
-1.794695 -0.087828 -0.654672 0 0 255
-1.780772 -0.022324 -0.647679 0 0 255
-1.763235 -0.064872 -0.655679 0 0 255
-1.724363 -0.045526 -0.649372 0 0 255
-1.769643 -0.075781 -0.659679 0 0 255
-1.674974 -0.006952 -0.657679 0 0 255
-1.767109 -0.044619 -0.646638 0 0 255
-1.798941 -0.064434 -0.655679 0 0 255
-1.710931 -0.025890 -0.653679 0 0 255
-1.699411 -0.033949 -0.651679 0 0 255
-1.733776 -0.012855 -0.652631 0 0 255
-1.710050 -0.045527 -0.661679 0 0 255
-1.743070 -0.051773 -0.655679 0 0 255
-1.753046 -0.016938 -0.645373 0 0 255
-1.783298 -0.053446 -0.652592 0 0 255
-1.691663 -0.016737 -0.659679 0 0 255
-1.785008 -0.032636 -0.650668 0 0 255
-1.709714 -0.034327 -0.660579 0 0 255
-1.770572 -0.022437 -0.651679 0 0 255
-1.762827 -0.014859 -0.650611 0 0 255
-1.730355 -0.054476 -0.649952 0 0 255
-1.723531 -0.015033 -0.649679 0 0 255
-1.754000 -0.031048 -0.652553 0 0 255
-1.798362 -0.066602 -0.645344 0 0 255
-1.785495 -0.092643 -0.659679 0 0 255
-1.740892 -0.017477 -0.646365 0 0 255
-1.782344 -0.084319 -0.651679 0 0 255
-1.763652 -0.037979 -0.653679 0 0 255
-1.756032 -0.069465 -0.660496 0 0 255
-1.792861 -0.098441 -0.649427 0 0 255
-1.789998 -0.056111 -0.646397 0 0 255
-1.717749 -0.033650 -0.653679 0 0 255
-1.773809 -0.047284 -0.652558 0 0 255
-1.776134 -0.077460 -0.652753 0 0 255
-1.766570 -0.032466 -0.646614 0 0 255
-1.719959 -0.005569 -0.652608 0 0 255
-1.683916 -0.009148 -0.655679 0 0 255
-1.790584 -0.039629 -0.652669 0 0 255
-1.748595 -0.005616 -0.652651 0 0 255
-1.731991 -0.042933 -0.653679 0 0 255
-1.748084 -0.060931 -0.650998 0 0 255
-1.742215 -0.062179 -0.658056 0 0 255
-1.722973 -0.048605 -0.657679 0 0 255
-1.691569 -0.025916 -0.658359 0 0 255
-1.779091 -0.062519 -0.647679 0 0 255
-1.766034 -0.005999 -0.645679 0 0 255
-1.714166 -0.045649 -0.651687 0 0 255
-1.755250 -0.022604 -0.651679 0 0 255
-1.701766 -0.025793 -0.651049 0 0 255
-1.728862 -0.005721 -0.653679 0 0 255
-1.768602 -0.070883 -0.652829 0 0 255
-1.742140 -0.023346 -0.652403 0 0 255
-1.756325 -0.061224 -0.652712 0 0 255
-1.735099 -0.057557 -0.656243 0 0 255
-1.798655 -0.058361 -0.646608 0 0 255
-1.697085 -0.018610 -0.653679 0 0 255
-1.757980 -0.069008 -0.649679 0 0 255
-1.776890 -0.042540 -0.646530 0 0 255
-1.688156 -0.016418 -0.651679 0 0 255
-1.790291 -0.047870 -0.652614 0 0 255
-1.754171 -0.012610 -0.652647 0 0 255
-1.747714 -0.078426 -0.655679 0 0 255
-1.758745 -0.034129 -0.645389 0 0 255
-1.724870 -0.038291 -0.653679 0 0 255
-1.761337 -0.075184 -0.657679 0 0 255
-1.779364 -0.050193 -0.645679 0 0 255
-1.741601 -0.011192 -0.652675 0 0 255
-1.794303 -0.069509 -0.651679 0 0 255
-1.799334 -0.032695 -0.645679 0 0 255
-1.753241 -0.027475 -0.645679 0 0 255
-1.736075 -0.049171 -0.651679 0 0 255
-1.793006 -0.094321 -0.659679 0 0 255
-1.692363 -0.044149 -0.655679 0 0 255
-1.792786 -0.059608 -0.652591 0 0 255
-1.729532 -0.012126 -0.645679 0 0 255
-1.748895 -0.035886 -0.647679 0 0 255
-1.782343 -0.039336 -0.652644 0 0 255
-1.780276 -0.015240 -0.645679 0 0 255
-1.762534 -0.023100 -0.652642 0 0 255
-1.798123 -0.094336 -0.653679 0 0 255
-1.768482 -0.079087 -0.649679 0 0 255
-1.705419 -0.029106 -0.657679 0 0 255
-1.712918 -0.039780 -0.656423 0 0 255
-1.685127 -0.024466 -0.653679 0 0 255
-1.676505 -0.012761 -0.653296 0 0 255
-1.748009 -0.022098 -0.646208 0 0 255
-1.717410 -0.010200 -0.647679 0 0 255
-1.728073 -0.043742 -0.659679 0 0 255
-1.747886 -0.011901 -0.645440 0 0 255
-1.748840 -0.026011 -0.652527 0 0 255
-1.748852 -0.066902 -0.657679 0 0 255
-1.704493 -0.038621 -0.653679 0 0 255
-1.776911 -0.028223 -0.651679 0 0 255
-1.760609 -0.043956 -0.649679 0 0 255
-1.734485 -0.006571 -0.646027 0 0 255
-1.798451 -0.057399 -0.657679 0 0 255
-1.788826 -0.089075 -0.650987 0 0 255
-1.781851 -0.046639 -0.651679 0 0 255
-1.707881 -0.044940 -0.654549 0 0 255
-1.743047 -0.066091 -0.652388 0 0 255
-1.788645 -0.097841 -0.655679 0 0 255
-1.735191 -0.019511 -0.651679 0 0 255
-1.706927 -0.030830 -0.651135 0 0 255
-1.770067 -0.029678 -0.652581 0 0 255
-1.738207 -0.026226 -0.647679 0 0 255
-1.793665 -0.034885 -0.648627 0 0 255
-1.780073 -0.092981 -0.655679 0 0 255
-1.785031 -0.085793 -0.657679 0 0 255
-1.791648 -0.049627 -0.645679 0 0 255
-1.723761 -0.051788 -0.651679 0 0 255
-1.762241 -0.031341 -0.652657 0 0 255
-1.717422 -0.044957 -0.657679 0 0 255
-1.787053 -0.023017 -0.645679 0 0 255
-1.719203 -0.040489 -0.651038 0 0 255
-1.798116 -0.046207 -0.650612 0 0 255
-1.763294 -0.039296 -0.645679 0 0 255
-1.754921 -0.073857 -0.655679 0 0 255
-1.694722 -0.029335 -0.653679 0 0 255
-1.771730 -0.037503 -0.646194 0 0 255
-1.768649 -0.042247 -0.652553 0 0 255
-1.792272 -0.063807 -0.645679 0 0 255
-1.745108 -0.056550 -0.659679 0 0 255
-1.766413 -0.050968 -0.647679 0 0 255
-1.737532 -0.005923 -0.651679 0 0 255
-1.734494 -0.016232 -0.645679 0 0 255
-1.728398 -0.054892 -0.656065 0 0 255
-1.783713 -0.055403 -0.645464 0 0 255
-1.773662 -0.017734 -0.647679 0 0 255
-1.735808 -0.089753 -0.651679 0 255 255
-1.778495 -0.127045 -0.661679 0 255 255
-1.779849 -0.080760 -0.659679 0 255 255
-1.745185 -0.124246 -0.651679 0 255 255
-1.763101 -0.102722 -0.652925 0 255 255
-1.760110 -0.136746 -0.659679 0 255 255
-1.737669 -0.108128 -0.662573 0 255 255
-1.760150 -0.079220 -0.653679 0 255 255
-1.764887 -0.120745 -0.650611 0 255 255
-1.750825 -0.093063 -0.656618 0 255 255
-1.747867 -0.108005 -0.651273 0 255 255
-1.728440 -0.103187 -0.651679 0 255 255
-1.754084 -0.123041 -0.663679 0 255 255
-1.771687 -0.114258 -0.661679 0 255 255
-1.779045 -0.091154 -0.649819 0 255 255
-1.744823 -0.080026 -0.655679 0 255 255
-1.722758 -0.090850 -0.655679 0 255 255
-1.772637 -0.080248 -0.649361 0 255 255
-1.765957 -0.125777 -0.661679 0 255 255
-1.737688 -0.114258 -0.651679 0 255 255
-1.756383 -0.128834 -0.651679 0 255 255
-1.729306 -0.097637 -0.662581 0 255 255
-1.757355 -0.114167 -0.656622 0 255 255
-1.743852 -0.117975 -0.661679 0 255 255
-1.741875 -0.099055 -0.650981 0 255 255
-1.761996 -0.092734 -0.655679 0 255 255
-1.774669 -0.118665 -0.652908 0 255 255
-1.769770 -0.080858 -0.659679 0 255 255
-1.752194 -0.131621 -0.659679 0 255 255
-1.769380 -0.109566 -0.653679 0 255 255
-1.754444 -0.100473 -0.650654 0 255 255
-1.745665 -0.088026 -0.650896 0 255 255
-1.768775 -0.134231 -0.661679 0 255 255
-1.779502 -0.117638 -0.663679 0 255 255
-1.752318 -0.119327 -0.651025 0 255 255
-1.752075 -0.084619 -0.655679 0 255 255
-1.776403 -0.088348 -0.657679 0 255 255
-1.736956 -0.100101 -0.659679 0 255 255
-1.748576 -0.101720 -0.656545 0 255 255
-1.737254 -0.106171 -0.650880 0 255 255
-1.764056 -0.116832 -0.660653 0 255 255
-1.742584 -0.092770 -0.656596 0 255 255
-1.749114 -0.113874 -0.656601 0 255 255
-1.756108 -0.108298 -0.651074 0 255 255
-1.732477 -0.083698 -0.655679 0 255 255
-1.728811 -0.095309 -0.651679 0 255 255
-1.759663 -0.130034 -0.663679 0 255 255
-1.772004 -0.125366 -0.656757 0 255 255
-1.769769 -0.085993 -0.653679 0 255 255
-1.731758 -0.107340 -0.657679 0 255 255
-1.762638 -0.129401 -0.655920 0 255 255
-1.763224 -0.112919 -0.650847 0 255 255
-1.747281 -0.124487 -0.660223 0 255 255
-1.773352 -0.122090 -0.663679 0 255 255
-1.779338 -0.082913 -0.651019 0 255 255
-1.742929 -0.109054 -0.657679 0 255 255
-1.745617 -0.116662 -0.650857 0 255 255
-1.739944 -0.085153 -0.655679 0 255 255
-1.757232 -0.103970 -0.656586 0 255 255
-1.762392 -0.109007 -0.656600 0 255 255
-1.749544 -0.130140 -0.651679 0 255 255
-1.734759 -0.094434 -0.656587 0 255 255
-1.738484 -0.114089 -0.659679 0 255 255
-1.741607 -0.119559 -0.655679 0 255 255
-1.755071 -0.093799 -0.651679 0 255 255
-1.750873 -0.117589 -0.661679 0 255 255
-1.729599 -0.089396 -0.656643 0 255 255
-1.746742 -0.112333 -0.662670 0 255 255
-1.760010 -0.121781 -0.661679 0 255 255
-1.765047 -0.079817 -0.649679 0 255 255
-1.747328 -0.095851 -0.650612 0 255 255
-1.758603 -0.120036 -0.651176 0 255 255
-1.757941 -0.097685 -0.656620 0 255 255
-1.735590 -0.098346 -0.650976 0 255 255
-1.756278 -0.089860 -0.656562 0 255 255
-1.904503 0.222841 -0.465679 255 125 0
-1.627205 -0.444564 -0.585679 255 125 0
-1.799632 -0.097002 -0.653679 255 125 0
-1.812387 0.136758 -0.652668 255 125 0
-1.988185 0.208885 -0.637679 255 125 0
-1.915968 0.048362 -0.651679 255 125 0
-1.792327 0.255175 -0.615679 255 125 0
-1.899387 0.160332 -0.569679 255 125 0
-1.987845 0.200634 -0.529679 255 125 0
-1.886821 0.209831 -0.656636 255 125 0
-1.912805 0.251118 -0.567679 255 125 0
-1.940180 0.208904 -0.384754 255 125 0
-1.932676 0.148014 -0.493023 255 125 0
-1.936788 0.147909 -0.643679 255 125 0
-1.971854 0.195190 -0.451679 255 125 0
-1.968831 0.160688 -0.583679 255 125 0
-1.880486 0.206440 -0.525679 255 125 0
-1.943240 0.256582 -0.495679 255 125 0
-1.922280 0.196921 -0.610654 255 125 0
-1.913576 0.170535 -0.443443 255 125 0
-1.872025 0.216909 -0.581679 255 125 0
-1.949177 0.243532 -0.442930 255 125 0
-1.937455 0.192869 -0.547679 255 125 0
-1.942656 0.201252 -0.495679 255 125 0
-1.987254 0.208687 -0.578641 255 125 0
-1.979427 0.168553 -0.493679 255 125 0
-1.889209 0.171489 -0.493679 255 125 0
-1.905684 0.246143 -0.521679 255 125 0
-1.981378 0.229929 -0.493679 255 125 0
-1.937004 0.146889 -0.547111 255 125 0
-1.896504 0.162817 -0.627679 255 125 0
-1.973988 0.167018 -0.627679 255 125 0
-1.920305 0.210814 -0.425679 255 125 0
-1.932320 0.156117 -0.601679 255 125 0
-1.879327 0.200059 -0.617679 255 125 0
-1.881689 0.147400 -0.535887 255 125 0
-1.970099 0.164339 -0.531679 255 125 0
-1.908511 0.232843 -0.602667 255 125 0
-1.947872 0.167601 -0.463679 255 125 0
-1.907925 0.216361 -0.550588 255 125 0
-1.957558 0.208509 -0.417679 255 125 0
-1.913507 0.161240 -0.521679 255 125 0
-1.883079 0.227437 -0.495556 255 125 0
-1.959384 0.195512 -0.609679 255 125 0
-1.879616 0.189897 -0.557679 255 125 0
-1.872156 0.235339 -0.551679 255 125 0
-1.906923 0.201835 -0.496573 255 125 0
-1.915192 0.249508 -0.445679 255 125 0
-1.893806 0.199047 -0.443679 255 125 0
-1.981902 0.180969 -0.559679 255 125 0
-1.985273 0.227628 -0.549679 255 125 0
-1.917994 0.178608 -0.475679 255 125 0
-1.985884 0.224753 -0.608688 255 125 0
-1.921080 0.231426 -0.493226 255 125 0
-1.939178 0.194379 -0.446564 255 125 0
-1.990122 0.199073 -0.493679 255 125 0
-1.980506 0.182716 -0.654526 255 125 0
-1.902547 0.174324 -0.598727 255 125 0
-1.907584 0.179485 -0.546261 255 125 0
-1.973497 0.225313 -0.445679 255 125 0
-1.886637 0.175032 -0.523679 255 125 0
-1.950037 0.172151 -0.498496 255 125 0
-1.908955 0.163418 -0.654646 255 125 0
-1.948939 0.148457 -0.517679 255 125 0
-1.961465 0.160267 -0.653679 255 125 0
-1.940590 0.158879 -0.573679 255 125 0
-1.964547 0.190464 -0.479679 255 125 0
-1.880782 0.190145 -0.588298 255 125 0
-1.893617 0.194918 -0.471679 255 125 0
-1.964407 0.200737 -0.549679 255 125 0
-1.939744 0.230195 -0.417679 255 125 0
-1.986830 0.192239 -0.605679 255 125 0
-1.895776 0.230136 -0.575679 255 125 0
-1.930985 0.223307 -0.448501 255 125 0
-1.879771 0.198109 -0.497679 255 125 0
-1.952362 0.151593 -0.619679 255 125 0
-1.961078 0.156095 -0.555679 255 125 0
-1.973853 0.214017 -0.470614 255 125 0
-1.898607 0.240961 -0.546765 255 125 0
-1.893656 0.211283 -0.597679 255 125 0
-1.911237 0.152683 -0.547679 255 125 0
-1.937617 0.192104 -0.419679 255 125 0
-1.880106 0.190001 -0.641679 255 125 0
-1.911981 0.254996 -0.495679 255 125 0
-1.940548 0.178313 -0.610602 255 125 0
-1.908618 0.155168 -0.491679 255 125 0
-1.977610 0.182101 -0.515679 255 125 0
-1.966631 0.209515 -0.495679 255 125 0
-1.923046 0.235933 -0.547679 255 125 0
-1.957030 0.177727 -0.442727 255 125 0
-1.978343 0.183273 -0.583679 255 125 0
-1.930058 0.169949 -0.550539 255 125 0
-1.964357 0.172115 -0.605679 255 125 0
-1.881116 0.212708 -0.549679 255 125 0
-1.887353 0.216951 -0.633679 255 125 0
-1.888407 0.230615 -0.527679 255 125 0
-1.901517 0.227267 -0.442363 255 125 0
-1.955106 0.177161 -0.545679 255 125 0
-1.925730 0.171073 -0.496539 255 125 0
-1.917993 0.240993 -0.471679 255 125 0
-1.953458 0.213771 -0.443107 255 125 0
-1.927850 0.214462 -0.403679 255 125 0
-1.917719 0.204130 -0.447679 255 125 0
-1.985656 0.187344 -0.629679 255 125 0
