ply
format ascii 1.0
element vertex 1207
property float x
property float y
property float z
property uchar red
property uchar green
property uchar blue
end_header
0.705248 0.168000 0.107965 64 62 52
0.691936 0.183857 0.107227 65 60 56
0.510265 0.253018 0.192927 247 246 244
0.500660 0.257894 0.173291 122 108 100
0.511230 0.247489 0.205884 251 250 249
0.779961 0.150324 0.110274 141 114 99
0.800812 0.172706 0.109756 142 113 97
0.494293 0.245107 0.203352 251 251 248
0.487274 0.249667 0.186320 228 213 204
0.842784 0.229389 0.167161 97 84 80
0.800442 0.271772 0.116050 156 130 104
0.811105 0.283841 0.107952 154 132 111
0.804797 0.276629 0.105129 161 130 109
0.801987 0.277759 0.132298 98 83 73
0.812365 0.284549 0.135128 45 46 34
0.692586 0.279513 0.117580 103 100 83
0.704359 0.288458 0.134773 145 141 122
0.718580 0.299307 0.140121 145 136 120
0.512273 0.300907 0.206270 192 175 158
0.525127 0.299717 0.214749 180 150 138
0.505721 0.303975 0.218982 176 142 124
0.516588 0.304124 0.223102 182 150 123
0.511776 0.298936 0.227672 181 143 125
0.528430 0.298294 0.228554 175 143 120
0.501353 0.310727 0.160645 171 139 129
0.507183 0.306771 0.144082 152 139 122
0.513202 0.291451 0.145603 147 136 118
0.499859 0.310138 0.142614 116 102 92
0.844047 0.114318 0.110181 108 101 81
0.851924 0.136097 0.111022 82 76 50
0.748137 0.282810 0.236984 209 171 150
0.777472 0.281764 0.241993 200 174 141
0.766541 0.280307 0.246657 207 164 144
0.619853 0.145367 0.100721 52 49 44
0.644804 0.133376 0.099483 48 50 42
0.630333 0.137394 0.099226 52 51 29
0.642656 0.243803 0.240409 239 232 230
0.639246 0.236777 0.226965 212 189 173
0.783470 0.077073 0.104303 57 53 54
0.775384 0.062795 0.108573 37 49 32
0.796118 0.067114 0.103774 53 46 51
0.640571 0.353119 0.094348 177 161 131
0.636865 0.345631 0.102023 145 129 108
0.603735 0.120025 0.100268 60 55 37
0.637549 0.110206 0.100137 68 57 66
0.778982 0.224875 0.213126 107 70 64
0.787888 0.216218 0.224533 138 113 104
0.805050 0.219002 0.224499 130 99 86
0.812838 0.225814 0.207153 86 78 73
0.793745 0.220306 0.212204 98 87 79
0.801915 0.230941 0.230537 207 187 171
0.857535 0.047226 0.102093 40 44 30
0.846633 0.024651 0.107381 52 42 46
0.829126 0.034143 0.106185 45 35 48
0.846555 0.231953 0.129417 99 84 69
0.765169 -0.034763 0.129728 74 79 81
0.769195 -0.030484 0.121069 56 51 49
0.786693 -0.037046 0.110029 59 51 43
0.789559 -0.016813 0.109761 52 50 51
0.775663 -0.026828 0.115006 58 51 46
0.770246 -0.020614 0.112189 54 53 39
0.863943 0.068127 0.101386 34 36 38
0.814372 0.079302 0.101555 59 48 47
0.820055 0.099490 0.101617 39 36 41
0.822917 0.107928 0.103454 50 45 46
0.549062 0.255692 0.214242 188 156 140
0.550514 0.247732 0.204239 197 166 139
0.534081 0.253054 0.205209 210 187 176
0.531529 0.258951 0.222993 193 153 130
0.642448 0.248893 0.186082 155 133 119
0.613469 0.319411 0.147843 83 71 59
0.614765 0.321591 0.171708 218 209 201
0.624832 0.336426 0.148747 121 100 80
0.638199 0.249317 0.181613 131 106 90
0.624190 0.237481 0.205269 96 83 76
0.620363 0.248848 0.176920 93 90 75
0.632358 0.240965 0.194299 122 107 90
0.694548 -0.024819 0.098714 48 55 32
0.670269 -0.009917 0.097715 66 54 40
0.813968 0.034748 0.107952 51 44 41
0.761836 0.055534 0.109962 48 49 45
0.743482 0.085067 0.109864 67 63 54
0.861867 0.143646 0.105276 72 65 47
0.859216 0.114039 0.106655 45 44 46
0.758804 0.242317 0.246294 105 67 50
0.768584 0.234402 0.238238 144 124 115
0.572496 0.233695 0.091944 68 53 33
0.559897 0.227248 0.091834 58 55 35
0.571978 0.244388 0.080438 63 60 36
0.585892 0.248704 0.100943 76 55 42
0.581301 0.222655 0.098158 70 55 45
0.551851 0.235206 0.084126 72 58 56
0.861679 -0.021188 0.106087 49 50 37
0.818549 0.273051 0.251531 146 130 117
0.778076 0.269975 0.251252 169 157 145
0.800576 0.258936 0.254140 200 177 170
0.799279 0.247646 0.251148 52 35 29
0.512896 0.249893 0.226951 199 175 159
0.496862 0.250341 0.225261 190 169 141
0.519553 0.251880 0.213954 188 166 133
0.728105 0.211006 0.105067 61 58 50
0.567881 0.291685 0.170484 75 53 40
0.572715 0.294928 0.143415 79 73 57
0.586485 0.299596 0.155896 105 95 81
0.690875 0.290890 0.229298 198 155 120
0.713271 0.289269 0.229281 124 105 90
0.656951 -0.012614 0.096848 58 55 49
0.643012 0.008172 0.097378 61 58 50
0.694519 0.126830 0.106607 58 50 53
0.687972 0.160298 0.108230 59 52 55
0.819329 -0.034420 0.104162 48 47 43
0.798951 -0.031101 0.106740 58 43 49
0.514171 0.289981 0.079142 132 116 96
0.506105 0.304728 0.101501 134 108 99
0.863978 0.096875 0.104358 44 31 31
0.849560 0.104984 0.102320 45 44 54
0.750030 0.019359 0.104134 65 61 56
0.758563 0.009766 0.109836 62 59 55
0.748177 -0.004860 0.105258 65 62 56
0.742025 0.008230 0.102328 61 54 57
0.676250 0.095624 0.102216 57 49 50
0.685986 0.111249 0.103120 60 54 42
0.500562 0.294964 0.191677 181 151 126
0.496441 0.300919 0.177662 174 148 116
0.520349 0.298210 0.177248 142 117 106
0.524347 0.295550 0.189948 202 172 143
0.506918 0.305160 0.198059 169 132 123
0.514234 0.304674 0.174977 146 138 114
0.490796 0.305894 0.193218 176 150 133
0.512779 0.302388 0.195230 193 168 153
-0.862730 -0.020383 0.014072 237 216 213
-0.854483 0.033069 -0.118399 219 197 185
-0.852028 0.054230 -0.144863 209 184 177
-0.852051 0.050728 -0.114537 214 198 176
-0.865858 -0.093203 0.025661 235 210 191
-0.863311 0.054668 0.268785 254 246 233
-0.863943 0.034147 0.251316 253 246 230
-0.866671 -0.137667 0.011099 225 205 185
-0.861472 0.051049 0.133160 251 235 216
-0.862336 0.035622 0.141783 244 229 212
-0.856944 -0.035639 -0.121090 220 201 190
-0.859311 -0.027480 -0.072340 224 208 180
-0.859689 -0.057924 -0.075673 226 206 187
-0.856064 -0.014305 -0.114933 228 208 195
-0.863895 -0.023604 0.042660 238 219 199
-0.540113 -0.019599 -0.569576 120 110 103
-0.539725 -0.030046 -0.567334 182 174 164
-0.516266 -0.012300 -0.576714 69 54 49
-0.865080 -0.024241 0.170457 249 232 220
-0.862696 0.003785 0.093910 247 229 203
-0.861507 0.011727 0.097660 245 229 217
-0.852571 0.038861 -0.139780 211 185 168
-0.864702 -0.182440 0.111910 227 212 189
-0.865551 -0.123278 0.059660 227 216 198
-0.864675 -0.190171 0.091455 225 211 189
-0.866002 -0.178103 0.087158 233 212 201
-0.865703 -0.173362 0.106660 233 218 195
-0.862264 -0.045333 0.026160 231 219 202
-0.865051 -0.140340 0.166660 241 219 202
-0.865409 -0.173380 0.135661 238 219 196
-0.863441 -0.003182 0.118660 246 231 211
-0.862157 0.015775 0.139161 248 229 215
-0.864064 -0.001141 0.142660 246 233 211
-0.862922 -0.052512 0.136559 244 228 207
-0.864427 -0.050899 0.174848 249 230 217
-0.865045 -0.079226 0.157660 247 228 206
-0.857966 0.039193 0.033315 228 211 202
-0.859874 0.052741 0.054296 253 245 238
-0.864396 -0.109654 0.084328 237 217 209
-0.864046 -0.084046 0.087785 241 219 201
-0.531998 -0.060251 -0.584005 93 80 70
-0.866426 -0.161507 0.224056 246 231 211
-0.864990 -0.160722 0.210544 242 232 215
-0.865115 0.002931 0.181660 250 235 216
-0.859471 -0.028738 -0.051813 227 212 192
-0.863401 -0.097039 -0.014022 230 207 186
-0.861128 -0.054700 -0.033795 221 210 192
-0.857049 -0.043540 -0.106341 215 200 171
-0.858936 -0.071780 -0.080405 222 208 185
-0.867000 -0.136903 0.038783 231 209 184
-0.866207 -0.168572 0.066911 229 208 191
-0.866964 -0.141225 0.059660 237 211 195
-0.863871 0.024301 0.263598 253 244 233
-0.864641 -0.009195 0.244018 251 243 227
-0.865183 -0.100758 0.171160 239 229 214
-0.865131 -0.119735 0.154660 243 227 211
-0.864530 -0.150226 0.146846 232 214 201
-0.866001 -0.146401 0.126886 242 216 209
-0.865240 -0.157197 0.121179 238 220 206
-0.854285 0.050809 -0.090059 222 205 185
-0.855343 0.015426 -0.115210 224 207 189
-0.854076 0.032011 -0.095334 221 205 193
-0.861474 0.026753 0.153660 250 235 223
-0.862919 -0.071364 0.025591 232 212 192
-0.864061 -0.025363 0.153973 246 230 222
-0.864600 -0.007119 0.161660 249 232 218
-0.865391 -0.132145 0.083220 235 219 199
-0.863814 -0.101352 0.100034 233 218 190
-0.865789 -0.122076 0.100099 235 214 191
-0.865777 -0.134107 0.122144 237 216 206
-0.863300 0.007879 0.158965 248 231 219
-0.865123 -0.114663 0.121910 243 224 196
-0.865418 -0.130777 0.248165 246 234 215
-0.864450 -0.017147 0.061661 243 224 210
-0.861160 0.020973 0.061973 245 222 205
-0.861617 0.027639 0.084911 245 222 205
-0.862297 0.001699 0.071661 243 224 207
-0.860432 0.005301 0.049654 248 231 221
-0.862406 -0.036588 -0.006836 230 211 198
-0.854373 0.011301 -0.135494 208 185 169
-0.864771 -0.058454 0.211411 248 236 219
-0.866193 -0.074147 0.233660 249 235 220
-0.854917 0.023833 -0.068370 231 205 188
-0.853017 0.023407 -0.080051 231 208 185
-0.854115 0.042915 -0.079579 234 214 191
-0.854678 0.064730 -0.065533 210 193 171
-0.865695 -0.148430 0.221476 246 225 220
-0.864196 -0.162660 0.179404 244 220 212
-0.865124 -0.139813 0.192465 240 225 210
-0.865222 -0.160462 0.196097 246 225 213
-0.864474 -0.125086 0.178018 244 226 214
-0.866805 -0.056130 0.284573 252 242 230
-0.867319 -0.073242 0.281549 253 242 224
-0.865938 0.002458 0.257895 255 247 232
-0.866414 0.006986 0.295241 253 248 234
-0.862001 -0.119307 -0.059417 220 204 183
-0.862267 -0.133050 -0.041672 222 205 184
-0.863471 -0.111838 -0.032840 222 204 186
-0.863116 -0.133961 -0.020123 222 201 181
-0.865428 -0.133930 0.226848 245 229 211
-0.865921 -0.109722 0.267380 248 236 222
-0.866153 -0.132211 0.263942 247 233 224
-0.866611 -0.139580 -0.005445 226 206 197
-0.866284 -0.108759 0.005891 231 207 177
-0.865763 -0.111230 -0.016122 228 206 197
-0.865112 0.003933 0.244660 253 241 229
-0.863138 0.017838 0.206661 251 236 228
-0.864787 0.000718 0.201942 252 238 221
-0.865108 -0.189428 0.131660 236 213 207
-0.863588 -0.177110 0.173453 244 220 205
-0.864664 -0.180689 0.147160 237 216 203
-0.864455 -0.187464 0.168160 233 223 201
-0.862224 0.043455 0.180660 250 239 225
-0.862349 0.024803 0.182910 250 238 226
-0.869196 -0.158021 0.025507 223 204 187
-0.865350 -0.029945 0.248296 252 242 228
-0.866464 -0.033555 0.268660 252 242 225
-0.860492 0.032210 0.048927 254 251 239
-0.861524 -0.039868 -0.023839 235 211 204
-0.856797 -0.012461 -0.052819 225 212 186
-0.864641 -0.175172 0.196052 232 215 206
-0.863229 -0.059300 0.019660 234 216 205
-0.863648 -0.071498 -0.007794 232 211 197
-0.863812 -0.060626 -0.000106 232 211 197
-0.863036 -0.012730 0.128014 244 229 202
-0.864889 -0.084112 0.176728 245 226 207
-0.865756 -0.086851 0.200758 248 231 216
-0.864685 -0.105103 0.221484 242 228 211
-0.865538 -0.072058 0.188910 247 232 219
-0.865805 -0.102112 0.187794 245 228 216
-0.865602 -0.093719 0.057786 233 216 201
-0.864362 -0.071005 0.049802 233 211 202
-0.864427 -0.101305 0.151660 244 223 210
-0.865759 -0.117254 0.227660 249 231 218
-0.857285 -0.066671 -0.111112 190 180 147
-0.855109 0.018082 -0.053959 218 198 173
-0.855699 0.003452 -0.067160 227 206 185
-0.854601 0.040535 -0.058390 234 210 208
-0.865707 -0.010683 0.271910 254 245 232
-0.865706 -0.090582 0.228724 249 233 214
-0.855993 -0.014158 -0.133839 199 181 166
-0.862903 -0.090029 -0.032132 226 204 184
-0.865478 -0.113263 0.027660 223 218 188
-0.862826 0.036855 0.215660 251 242 227
-0.863442 0.024056 0.232036 251 243 219
-0.862384 0.043515 0.235528 253 245 229
-0.866696 -0.062247 0.259213 251 240 222
-0.864131 -0.107437 0.243590 248 235 219
-0.866124 -0.096192 0.252160 249 237 223
-0.866648 -0.080255 0.251285 250 240 217
-0.864830 -0.082245 0.112661 236 224 203
-0.864340 -0.072981 0.138827 244 227 201
-0.863822 -0.035908 0.119785 244 223 208
-0.864512 -0.057358 0.114501 241 225 206
-0.542296 -0.057605 -0.581600 115 99 89
-0.550982 -0.035227 -0.572875 220 205 199
-0.540694 -0.045622 -0.572315 174 158 138
-0.520098 -0.041058 -0.569659 217 208 198
-0.528808 -0.028677 -0.569541 191 184 169
-0.544560 0.003445 -0.581455 38 38 27
-0.534857 -0.000606 -0.578104 44 43 28
-0.520236 0.026807 -0.594631 27 29 32
-0.862177 -0.093187 -0.064448 218 205 181
-0.863784 -0.009674 0.099661 243 226 210
-0.863586 -0.026651 0.083161 242 227 206
-0.863674 -0.041239 0.092660 244 225 198
-0.861201 -0.058422 -0.048339 223 205 183
-0.861547 0.019911 0.023368 221 205 189
-0.861141 -0.001319 0.031660 219 200 185
-0.863845 -0.017184 0.041660 227 216 194
-0.858733 -0.089035 -0.094264 218 202 177
-0.866446 -0.152277 0.081661 237 214 197
-0.865757 -0.149377 0.104097 225 218 193
-0.864810 -0.039104 0.218566 252 237 225
-0.865668 -0.013262 0.221206 251 237 224
-0.861110 0.041509 0.072160 239 226 213
-0.860787 0.045914 0.109128 247 228 206
-0.863135 -0.034314 0.065530 243 220 198
-0.863511 -0.069695 0.085465 237 217 201
-0.864399 -0.060937 0.063509 234 220 201
-0.856779 0.048507 0.009161 235 216 210
-0.856760 0.033317 -0.005828 221 211 203
-0.856289 0.027816 -0.024629 219 213 202
-0.857790 -0.001023 -0.040340 230 211 184
-0.857381 0.019575 -0.029619 223 208 188
-0.865884 -0.100966 0.275785 251 238 225
-0.853105 0.009052 -0.087857 224 205 190
-0.856669 -0.009717 -0.085649 226 206 180
-0.853112 0.011220 -0.098191 223 205 195
-0.865130 -0.114537 0.198161 244 226 207
-0.865485 -0.050396 0.233660 251 239 226
-0.867071 -0.064153 0.251154 251 240 222
-0.858388 0.007099 -0.014356 233 211 197
-0.859385 0.013109 -0.007007 219 203 182
-0.860769 -0.015869 -0.020311 225 211 192
-0.861082 -0.001323 0.013286 230 211 191
-0.866852 -0.073136 0.303733 252 243 229
-0.867328 -0.054040 0.307660 251 244 231
-0.863699 0.024922 0.329760 254 251 239
-0.863385 0.042211 0.307035 254 252 239
-0.862283 0.065219 0.343910 255 252 241
-0.863681 0.046891 0.337865 254 252 240
-0.866307 -0.032813 0.287660 254 246 235
-0.866868 -0.028838 0.313725 253 248 228
-0.865612 -0.022388 0.333117 253 249 236
-0.867354 -0.080929 0.302660 250 241 228
-0.865693 0.005203 0.335967 255 251 241
-0.866004 -0.010540 0.297660 252 248 235
-0.864550 0.020930 0.310161 253 250 237
0.428253 -0.064681 0.087484 105 97 95
0.417157 -0.067907 0.088437 107 90 95
0.297996 -0.207097 -0.528939 98 82 52
-0.334015 -0.206400 -0.164340 124 100 82
-0.220064 -0.210670 -0.012339 120 110 67
-0.260391 -0.210712 -0.000839 127 107 80
0.326859 -0.216368 -0.307840 110 91 64
0.346691 -0.215627 -0.338340 108 91 64
-0.002753 -0.212219 -0.191339 131 96 84
0.020226 -0.213260 -0.199340 120 95 74
-0.455739 -0.195315 -0.404175 120 100 74
-0.435279 -0.164146 0.007010 135 108 83
0.106181 -0.167724 -0.587797 84 71 25
-0.337559 -0.117550 0.094880 254 255 255
-0.469786 -0.023187 0.084993 254 255 253
-0.457982 -0.039571 0.099708 255 251 235
-0.476058 -0.015576 0.087479 255 248 230
-0.474286 -0.016190 0.091542 251 241 225
-0.467720 -0.030781 0.095703 224 211 190
0.368021 -0.227754 -0.044088 87 82 54
0.383191 -0.224582 -0.049610 92 74 46
0.369845 -0.230498 -0.030897 109 84 72
0.388227 -0.221747 -0.036648 94 72 43
0.144278 -0.212117 -0.328090 105 95 65
0.014741 -0.204664 -0.372340 116 95 66
0.048167 -0.206898 -0.390215 106 91 74
-0.460844 -0.208284 -0.019876 167 152 140
-0.424531 -0.212074 0.024660 133 110 91
-0.426391 -0.209722 -0.023340 133 103 89
-0.448665 -0.213528 0.011160 135 119 115
-0.446564 -0.211505 -0.025475 125 111 82
-0.144136 -0.214180 0.041660 126 103 84
-0.159370 -0.195198 -0.524494 109 86 63
-0.180805 -0.193831 -0.523467 104 90 58
-0.225890 -0.211750 0.015911 125 106 80
-0.291297 -0.200036 -0.370527 126 94 70
0.163084 -0.052067 0.096952 255 251 254
0.167078 -0.076857 0.096262 255 253 251
-0.348990 -0.203470 -0.233590 122 99 90
-0.468615 -0.177060 -0.213819 128 106 80
-0.478035 -0.185426 -0.198524 131 107 92
-0.034594 -0.210694 -0.206840 117 95 72
0.163605 -0.213487 -0.304590 113 94 61
0.059679 -0.205001 -0.449715 116 90 64
0.032866 -0.203175 -0.473340 106 92 66
0.032870 -0.203100 -0.446340 108 87 79
-0.003040 -0.200529 -0.450340 103 88 71
-0.100059 -0.283090 -0.648860 73 62 36
-0.099610 -0.255264 -0.645969 83 57 44
0.277343 -0.229092 0.011302 116 100 78
-0.277980 -0.207532 -0.146340 109 113 73
-0.285979 -0.207263 -0.126340 126 103 95
0.144633 -0.210410 -0.402340 116 91 67
-0.432506 -0.113598 -0.595950 118 98 64
-0.439854 -0.117779 -0.623006 112 89 56
-0.444538 -0.131103 -0.612124 96 81 56
-0.435891 -0.118947 -0.615911 111 87 51
-0.450965 -0.115577 -0.629752 110 94 63
0.407925 -0.107344 0.087996 140 125 110
0.392873 -0.093393 0.099523 255 251 244
0.394971 -0.119964 0.096296 201 178 162
0.374245 -0.095307 0.100662 255 255 252
-0.135865 -0.040044 0.096231 254 255 255
0.401157 -0.211685 -0.424503 109 86 62
0.132819 -0.217228 -0.188465 120 94 71
0.116124 -0.217452 -0.165027 124 91 84
0.229486 -0.227690 0.032660 113 101 70
0.213973 -0.227437 0.047660 119 96 83
0.087940 -0.203637 0.086249 243 229 212
-0.466392 -0.177567 -0.546224 120 95 68
-0.474857 -0.177286 -0.538331 114 99 72
-0.461048 -0.170932 -0.535171 123 102 77
-0.268731 -0.203943 -0.215071 125 98 88
-0.253785 -0.205079 -0.222340 120 101 80
-0.048024 -0.166811 -0.582411 98 72 65
0.009494 -0.208557 -0.312340 126 93 82
0.010935 -0.209559 -0.293590 111 97 82
0.031034 -0.212655 -0.273152 125 97 82
0.248997 -0.330624 -0.642402 80 59 42
-0.004552 -0.314398 -0.651576 78 66 45
-0.033440 -0.290809 -0.649351 79 58 42
-0.432434 -0.039894 -0.507090 128 113 91
0.090153 -0.216608 -0.171340 127 96 77
-0.063812 -0.211318 -0.192340 121 88 68
0.127653 -0.209562 -0.402340 102 92 59
0.110715 -0.208028 -0.406340 114 89 64
0.161970 -0.209502 -0.413371 107 91 68
0.147749 -0.208595 -0.438340 99 88 57
0.076572 -0.256373 -0.643611 71 54 31
0.110356 -0.237317 -0.640587 61 53 32
0.104263 -0.262573 -0.643952 71 62 40
0.242595 -0.205828 -0.529340 102 81 65
0.238101 -0.197179 -0.547233 103 83 57
0.203093 -0.188275 -0.557649 101 85 58
0.086299 -0.335263 -0.649268 71 64 42
0.106061 -0.218587 0.071661 128 99 85
0.049952 -0.215145 0.070948 121 99 84
0.072551 -0.219011 0.055239 116 103 66
-0.024678 -0.349673 -0.652295 78 62 38
-0.013565 -0.371358 -0.656073 78 70 38
0.006210 -0.361341 -0.654164 77 65 51
0.006123 -0.376160 -0.653843 77 57 50
-0.017269 -0.381411 -0.657969 77 57 35
-0.063103 -0.214070 -0.047090 114 97 73
-0.234551 -0.253586 -0.643870 101 60 58
-0.262053 -0.304173 -0.644689 90 62 44
-0.271170 -0.279324 -0.645951 90 66 39
-0.222321 -0.198434 -0.457840 114 93 65
-0.254452 -0.159363 -0.636314 80 71 44
-0.327035 -0.200789 -0.324840 132 95 77
0.018761 -0.155324 0.092283 255 254 248
0.037054 -0.179736 0.091270 254 254 247
0.051875 -0.195420 0.088370 254 253 246
0.437484 -0.153590 -0.387726 15 15 23
0.422019 -0.162053 -0.396320 36 27 21
0.350064 -0.230475 -0.029346 111 94 82
0.027503 -0.103511 0.093841 255 254 251
-0.158673 -0.204101 -0.330965 117 94 65
0.249688 -0.228525 -0.638398 71 51 40
0.390680 -0.056374 0.102165 255 255 252
0.385796 -0.078456 0.101579 255 255 251
0.400734 -0.064146 0.098751 253 249 230
0.400044 -0.088334 0.096730 176 157 138
-0.458843 -0.201014 0.087063 252 231 211
-0.450104 -0.188084 0.097345 254 254 241
-0.447076 -0.169265 0.099491 255 252 229
-0.498120 -0.021064 -0.587602 68 51 40
-0.510168 -0.059885 -0.595101 62 56 28
-0.505645 -0.050991 -0.585279 76 58 50
-0.520374 -0.053598 -0.574046 99 90 66
-0.503018 -0.027358 -0.577841 88 74 52
-0.512940 -0.056637 -0.578263 85 75 62
0.058932 -0.374998 -0.650051 70 65 37
-0.414645 -0.157234 -0.597571 95 77 55
-0.428716 -0.161906 -0.622201 82 60 45
-0.408553 -0.151393 -0.620327 95 74 65
-0.433555 -0.163567 -0.597744 81 59 47
-0.201317 -0.207205 -0.199090 131 96 82
0.442592 -0.097116 -0.611800 25 30 20
0.436166 -0.108560 -0.608191 26 23 14
0.440629 -0.113901 -0.621658 25 24 16
0.454443 -0.093109 -0.603800 35 22 27
0.451019 -0.093813 -0.615049 39 25 35
-0.063094 -0.207779 -0.281340 107 89 82
-0.041572 -0.208066 -0.286340 118 101 68
-0.096441 -0.206290 -0.308715 117 96 63
-0.207977 -0.201434 -0.380590 122 90 68
0.414136 -0.175806 -0.180089 29 18 26
0.417927 -0.167473 -0.201321 30 16 22
0.421741 -0.164214 -0.210166 27 22 21
0.438163 -0.173359 0.074148 96 99 96
0.269039 -0.082655 0.098184 255 255 255
0.384691 -0.215547 -0.355230 103 88 69
0.368473 -0.215774 -0.376465 113 91 78
0.351106 -0.225353 -0.118840 111 97 62
0.195126 -0.105589 0.095055 255 255 255
-0.442486 -0.054749 -0.629918 121 103 70
-0.448709 -0.162059 -0.292555 128 101 89
-0.433779 -0.153871 -0.289649 125 101 69
-0.439338 -0.158214 -0.289587 117 110 69
-0.431534 -0.132792 -0.290340 129 105 74
-0.439420 -0.160026 -0.312060 124 107 81
0.424233 -0.165705 -0.447438 57 47 25
0.435353 -0.155526 -0.449042 41 31 18
0.420263 -0.186202 -0.468642 63 46 33
0.421898 -0.173970 -0.444090 79 60 39
0.421105 -0.167299 -0.168913 33 20 22
0.427867 -0.165024 -0.167539 28 24 23
0.417564 -0.171315 -0.146590 24 19 18
0.416434 -0.171645 -0.173813 26 21 23
-0.074125 -0.219983 -0.642787 65 52 30
-0.079546 -0.187277 -0.642139 60 50 18
-0.051784 -0.209282 -0.642632 61 50 24
0.441551 -0.092442 0.086033 108 94 85
-0.432197 0.010516 -0.522340 136 116 96
-0.433083 0.033613 -0.521340 126 114 92
-0.432193 0.002688 -0.500715 132 116 93
0.047124 -0.219877 0.002563 115 97 78
0.027819 -0.217105 0.038254 119 102 75
-0.412840 -0.209492 0.079540 220 201 175
-0.392147 -0.195243 0.090449 241 229 214
-0.374881 -0.212238 0.076241 234 204 180
-0.369839 -0.209525 0.080060 179 149 130
-0.277718 -0.209837 -0.005035 132 109 83
-0.207373 -0.199750 -0.406340 122 99 62
0.096938 -0.198599 0.088768 219 204 183
0.086610 -0.213901 0.078843 138 115 92
0.020990 -0.160205 -0.606121 89 74 49
-0.432048 -0.044608 -0.271027 183 159 127
-0.214254 -0.155166 -0.597712 100 80 55
-0.220809 -0.181905 -0.555323 104 89 63
-0.234451 -0.156329 -0.594205 93 77 54
-0.214434 -0.162988 -0.583840 103 85 57
-0.447976 -0.158254 -0.373630 124 100 74
-0.433145 -0.146684 -0.369062 125 98 70
0.424670 -0.162202 -0.407198 51 44 32
0.422779 -0.168012 -0.421340 62 60 44
0.418129 -0.185511 -0.413090 74 54 38
0.427056 -0.160453 -0.433828 27 9 7
-0.402786 -0.152912 -0.632248 80 72 51
-0.381693 -0.166898 -0.639293 81 65 37
-0.377491 -0.156021 -0.636636 90 66 43
0.035210 -0.199524 -0.528913 101 85 66
0.034976 -0.201429 -0.514340 103 83 51
-0.174471 -0.213055 0.075846 248 229 208
-0.021341 -0.264517 -0.648784 75 53 47
0.000893 -0.252971 -0.646441 74 55 26
-0.015266 -0.294487 -0.650757 75 58 35
-0.277494 -0.207776 -0.079840 122 106 80
-0.430752 -0.089759 -0.100340 189 172 132
-0.430672 -0.137854 -0.106840 182 161 128
-0.189409 -0.192685 0.090305 255 254 253
-0.186303 -0.182856 0.092425 255 255 254
-0.217712 -0.204980 0.083184 200 168 148
-0.275645 -0.202118 -0.320340 110 96 85
-0.143413 -0.185973 -0.550073 110 87 67
-0.102727 -0.190968 -0.542840 111 86 59
0.014140 -0.214497 -0.100340 116 101 64
-0.010424 -0.214283 -0.099401 104 97 72
-0.015609 0.002444 0.096918 254 255 255
-0.194684 -0.208297 -0.170027 118 102 72
-0.211068 -0.208963 -0.146715 127 108 72
-0.225863 -0.207211 -0.181840 129 102 80
-0.432547 0.019554 -0.334340 182 157 127
-0.431801 0.046559 -0.339340 182 159 131
-0.429833 -0.019684 0.007411 199 179 149
-0.429623 0.001342 -0.014340 202 181 149
-0.116801 -0.278034 -0.648742 69 61 43
-0.060650 -0.152212 -0.619680 93 67 55
-0.294448 -0.237841 -0.642057 78 64 43
-0.442534 -0.161383 -0.601745 86 69 49
-0.447388 -0.161520 -0.620566 72 52 25
-0.438596 -0.167366 -0.626926 73 52 40
-0.428840 -0.166301 -0.629455 73 57 35
0.420123 -0.191524 -0.486340 65 59 47
0.407201 -0.209127 -0.475590 78 57 47
0.412112 -0.205163 -0.479566 74 60 44
0.133846 -0.269130 -0.642747 73 59 32
0.114378 -0.297791 -0.644330 78 61 53
0.219339 -0.319876 -0.643229 66 56 39
0.259539 -0.171064 -0.633812 64 60 42
0.264126 -0.183334 -0.636724 59 50 30
0.252477 -0.188930 -0.637945 57 50 31
0.217208 -0.211386 -0.376340 113 96 64
0.302573 -0.224397 -0.088652 116 95 81
-0.262502 -0.197115 -0.468652 121 93 77
-0.262808 -0.198776 -0.437515 124 88 76
0.058734 -0.196816 -0.537210 101 87 52
-0.320294 0.003609 0.099783 255 255 255
-0.285439 0.014506 0.099452 255 255 255
-0.459993 -0.198802 -0.209911 129 105 86
-0.448848 -0.201668 -0.217372 122 109 80
-0.432643 -0.026380 -0.582715 134 118 94
0.391974 -0.214200 -0.349163 98 88 49
0.399672 -0.212703 -0.368843 94 82 59
0.403530 -0.208290 -0.347075 105 80 62
-0.431735 -0.102598 -0.379340 145 128 105
0.125376 -0.164178 -0.598183 89 71 44
0.113555 -0.177968 -0.571463 92 73 46
0.081697 -0.185556 -0.560289 105 82 55
0.110638 -0.197000 -0.540363 97 79 52
0.340575 -0.221433 -0.216590 117 94 61
0.325386 -0.219967 -0.241590 108 91 65
0.362414 -0.220650 -0.230340 110 97 52
-0.116774 -0.198852 -0.470175 115 98 62
-0.134250 -0.200614 -0.437291 116 93 61
-0.222522 -0.214005 0.068160 141 114 91
-0.223236 -0.212517 0.075603 250 231 203
-0.015500 -0.207692 -0.300340 113 93 70
-0.021089 -0.208967 -0.282340 109 102 69
-0.236010 -0.209302 -0.026340 121 110 78
0.416742 -0.200135 -0.508340 70 55 39
0.420727 -0.195982 -0.544401 56 51 33
0.410737 -0.207329 -0.521827 75 61 43
0.415762 -0.202599 -0.531184 80 53 43
-0.418792 -0.025929 0.099847 255 255 255
-0.315847 -0.173580 -0.640897 73 56 42
-0.289138 -0.197359 -0.640546 73 50 42
0.397805 -0.213053 -0.064059 86 64 57
-0.261285 -0.016468 0.098068 255 255 255
0.159760 -0.271147 -0.642696 73 55 31
-0.439733 -0.156743 -0.331463 121 98 86
-0.447090 -0.158440 -0.343087 128 99 80
-0.431975 -0.145220 -0.284256 128 99 73
-0.433543 -0.148894 -0.329212 128 99 65
-0.202224 -0.153877 -0.609017 89 69 51
-0.188551 -0.158153 -0.594634 95 76 61
-0.153038 -0.154398 -0.610007 88 75 64
-0.041114 -0.200577 0.086236 240 227 207
-0.033588 -0.192197 0.089303 254 255 253
-0.007881 -0.197777 0.087366 255 253 248
0.325350 -0.189855 0.096380 255 254 253
0.050342 -0.213566 -0.222718 113 96 72
0.029796 -0.214338 -0.224883 107 91 66
-0.493012 -0.160543 -0.587961 75 64 45
-0.508602 -0.158911 -0.574328 89 71 50
-0.517350 -0.163719 -0.573861 105 85 65
-0.214515 -0.206970 -0.209277 123 102 76
-0.043832 -0.153679 -0.621771 96 74 52
-0.130334 -0.205560 -0.306465 121 98 72
-0.139833 -0.206085 -0.293569 112 94 68
-0.209186 -0.209833 0.079674 184 155 124
-0.454119 -0.174623 -0.083264 123 109 91
-0.445373 -0.167219 -0.053159 123 110 81
-0.445627 -0.166171 -0.078423 131 111 84
-0.452638 -0.174656 -0.060500 129 105 95
0.432068 -0.175210 0.000410 31 35 23
0.463610 -0.176508 -0.001152 33 33 27
0.289748 -0.227662 -0.027840 123 95 69
0.205829 -0.209056 -0.411840 111 87 61
0.233329 -0.209904 -0.417340 107 93 58
0.210872 -0.208512 -0.434340 113 92 69
-0.458868 -0.102019 -0.630289 113 85 65
0.354622 -0.194484 0.096628 255 254 253
0.326062 -0.200729 0.095016 255 254 254
-0.031051 -0.036060 0.096331 255 255 254
0.010232 -0.032681 0.095603 255 255 254
-0.035789 -0.165385 -0.640976 59 47 25
-0.026647 -0.176691 -0.642657 60 51 26
0.427439 -0.161312 -0.282197 26 19 17
0.430365 -0.161268 -0.271635 20 20 16
0.417409 -0.165890 -0.227752 24 21 15
-0.450519 -0.204452 -0.122419 139 112 93
-0.464036 -0.200103 -0.125583 140 118 100
0.176262 -0.205410 -0.501165 102 84 59
0.202920 -0.207484 -0.464340 105 90 59
0.199450 -0.206879 -0.496902 96 83 61
-0.337945 -0.201029 -0.300090 117 104 87
-0.375465 -0.200207 -0.325840 122 102 64
0.168047 -0.340970 -0.646200 79 57 35
0.186759 -0.327207 -0.645352 78 52 39
0.192244 -0.346953 -0.645931 77 59 43
0.077053 -0.226489 -0.642006 68 55 37
-0.184701 -0.169530 -0.640351 53 51 24
-0.174601 -0.196214 -0.641817 65 56 26
-0.143582 -0.193221 -0.640175 67 50 19
-0.432621 -0.020249 -0.598228 132 119 94
-0.439773 -0.006637 -0.624554 123 108 79
-0.440932 -0.035606 -0.626652 129 108 86
-0.434949 -0.024866 -0.616993 130 114 93
-0.432696 -0.056814 -0.597535 138 116 90
-0.432124 -0.071641 -0.588340 132 115 87
-0.378195 -0.203891 -0.218090 125 103 69
-0.409993 -0.203700 -0.218340 118 110 80
0.413383 -0.175399 -0.233340 28 28 10
0.421572 -0.162685 -0.244376 22 20 17
0.428889 -0.161617 -0.244557 26 19 22
0.414010 -0.172050 -0.218418 23 16 22
-0.350118 -0.205537 -0.167215 132 107 69
-0.336261 -0.206253 -0.139590 116 107 88
-0.461443 -0.205723 -0.057335 134 110 104
-0.459783 -0.205133 -0.081272 133 114 83
-0.449394 -0.207461 -0.070782 129 111 78
-0.384918 -0.051736 0.098010 255 255 254
-0.342415 -0.052974 0.097945 254 255 255
-0.082612 -0.202365 -0.407527 110 88 66
0.235073 -0.162741 -0.623227 89 64 39
0.231851 -0.162770 -0.611095 85 73 47
0.215919 -0.163453 -0.613741 79 67 55
0.215365 -0.164020 -0.626485 80 66 53
0.303160 -0.211739 -0.455840 108 85 57
0.395248 -0.214418 -0.300340 97 80 61
0.411007 -0.197628 -0.312944 82 67 41
0.409205 -0.199050 -0.285343 70 58 40
0.400933 -0.210139 -0.276576 76 56 42
0.405915 -0.206796 -0.304699 90 68 36
-0.119391 -0.212459 -0.642320 68 51 23
0.096797 -0.315081 -0.647562 76 62 35
-0.057364 -0.243740 -0.645262 71 59 29
-0.067322 -0.255445 -0.648098 79 50 40
0.147379 -0.163938 -0.596954 79 68 48
0.154443 -0.172857 -0.581575 89 73 58
0.158775 -0.007846 0.099293 255 254 253
-0.431649 -0.038670 -0.187840 188 166 131
-0.429411 -0.058482 0.053535 201 183 137
-0.373986 -0.206737 -0.090276 128 107 88
-0.406580 -0.205233 -0.104339 128 111 86
-0.456608 0.031595 -0.627402 117 97 71
-0.432044 0.000488 -0.192340 188 166 132
0.430894 -0.157714 -0.451538 47 35 18
0.424621 -0.159986 -0.478740 40 34 23
0.425674 -0.161900 -0.495209 26 16 17
-0.024165 -0.154740 -0.614808 80 66 40
-0.010318 -0.155759 -0.626692 90 74 39
0.257418 -0.200824 0.092560 255 250 237
0.240485 -0.178904 0.093675 255 255 252
-0.313882 -0.204832 -0.182340 125 105 80
-0.354420 -0.204205 -0.202840 127 112 86
-0.361912 -0.203855 -0.194340 131 102 74
-0.218309 -0.235889 -0.642509 89 62 38
-0.444475 -0.215384 0.035489 125 111 81
0.103231 -0.221874 0.007285 115 98 82
-0.508633 -0.037655 -0.572495 91 78 55
-0.511025 -0.029453 -0.571619 58 54 40
-0.025192 -0.156474 0.091265 254 254 253
-0.352535 -0.200017 -0.343277 130 98 82
-0.486500 -0.179516 0.075400 240 222 194
-0.473393 -0.177642 0.089396 236 219 193
-0.475449 -0.188275 0.082778 233 208 179
-0.483171 -0.166100 0.079575 236 221 196
0.219224 -0.173971 -0.636936 72 57 45
0.243888 -0.175007 -0.637042 70 56 52
-0.430461 -0.200274 -0.296857 130 103 71
-0.448647 -0.198270 -0.319871 127 101 86
-0.445427 -0.199983 -0.283192 140 104 85
-0.456490 -0.198036 -0.290493 122 105 84
0.226780 -0.187122 -0.638420 62 50 38
0.215884 -0.203213 -0.637868 61 47 32
-0.394034 -0.204870 -0.160590 122 109 82
-0.370908 -0.205562 -0.155465 122 106 77
0.418564 -0.169536 -0.306250 69 53 40
0.422039 -0.163644 -0.299618 34 30 24
0.419881 -0.163174 -0.336315 65 50 45
0.428360 -0.157068 -0.322498 20 15 17
-0.064846 -0.187279 0.090734 255 254 252
-0.432240 -0.015624 -0.511090 134 117 94
-0.432128 -0.027559 -0.456340 138 122 98
-0.409443 -0.194718 -0.516340 109 92 67
0.008778 -0.203869 -0.394340 105 89 54
-0.020731 -0.203127 -0.389340 118 91 71
0.037170 -0.067283 0.094785 254 254 251
0.015962 -0.020902 0.096249 255 255 255
-0.382834 -0.152802 0.094872 254 255 254
-0.114530 -0.194125 -0.642078 70 53 27
0.361822 -0.218032 -0.298090 118 90 66
0.359450 -0.219967 -0.267840 114 95 63
0.333490 -0.218512 -0.290340 121 93 79
-0.393117 -0.201143 -0.275246 129 104 83
-0.439818 -0.195836 -0.398465 135 102 75
-0.426610 -0.196925 -0.403340 123 106 72
0.278745 -0.167867 -0.632135 90 63 56
0.231766 -0.165533 -0.632380 87 61 55
0.298994 -0.215349 -0.327465 108 93 65
0.418663 -0.164760 -0.273680 18 19 22
0.412641 -0.179614 -0.268390 24 19 20
0.410215 -0.195296 -0.275340 28 20 21
0.415415 -0.170823 -0.272505 23 24 18
0.439818 -0.158038 -0.302070 23 16 18
0.441874 -0.159513 -0.288106 21 18 19
0.369963 -0.229957 -0.015512 124 92 75
0.347972 -0.231547 0.009910 108 94 77
0.360385 -0.231295 -0.003590 109 94 66
-0.216073 -0.190468 -0.537840 116 89 65
-0.252671 -0.193001 -0.529340 116 89 65
-0.060928 -0.298258 -0.648527 89 62 48
-0.003003 -0.216304 0.025160 112 95 73
-0.517927 -0.066567 -0.591841 69 65 47
-0.440344 -0.155029 -0.449790 113 99 66
-0.433571 -0.147071 -0.458450 103 98 76
-0.432259 -0.129742 -0.458340 124 102 74
-0.455478 -0.165930 -0.463091 119 99 89
-0.449701 -0.158988 -0.459298 127 102 75
-0.449423 -0.159280 -0.439927 127 102 75
-0.354488 -0.197139 -0.440090 124 99 74
-0.332372 -0.197951 -0.437590 121 96 80
0.392828 -0.218914 -0.129526 87 72 49
0.377037 -0.223521 -0.138476 104 77 46
-0.264453 -0.207510 -0.108340 124 99 72
-0.244085 -0.208244 -0.093777 133 105 86
-0.289382 -0.206594 -0.106933 125 107 76
-0.016327 -0.198694 -0.480090 99 87 43
-0.041854 -0.196984 -0.487133 100 86 57
-0.466040 0.039352 -0.626087 104 77 61
-0.354380 -0.211742 0.013660 128 108 82
0.208071 -0.221554 -0.104089 107 96 77
0.180549 -0.221064 -0.104856 106 97 75
0.363865 -0.102737 0.099841 255 254 251
-0.280658 -0.298392 -0.644914 88 68 50
0.064663 -0.203370 -0.495840 109 88 68
0.100490 -0.205261 -0.480340 108 86 62
-0.443946 0.011222 0.104726 253 255 249
-0.463270 0.005951 0.083660 255 254 253
-0.438684 0.021535 0.082708 255 255 254
-0.436724 0.032786 0.082317 255 254 255
-0.432220 0.014792 0.079865 233 221 205
-0.429684 -0.002715 0.075472 211 185 155
-0.122086 -0.211093 -0.124840 117 105 73
-0.137852 -0.209710 -0.144340 124 100 71
0.081300 -0.218024 -0.096215 121 95 68
0.112099 -0.218161 -0.113840 118 96 69
0.098113 -0.218517 -0.108153 116 95 68
-0.010104 -0.339949 -0.651774 76 58 46
-0.017494 -0.315669 -0.650503 73 66 39
-0.087771 -0.214015 -0.015589 120 104 74
-0.072156 -0.214660 -0.032340 114 109 73
0.091672 -0.159013 -0.618840 87 67 41
0.092121 -0.159653 -0.609821 87 67 41
0.163050 -0.158075 0.093210 255 254 254
0.182226 -0.134264 0.093997 255 255 253
-0.442915 -0.155822 -0.527182 111 95 67
-0.444931 -0.157132 -0.502988 108 100 67
-0.450980 -0.166412 -0.521477 114 103 71
0.294663 -0.214497 -0.368340 109 86 60
0.356720 -0.215458 -0.354840 112 94 71
0.330347 -0.214958 -0.379715 112 86 62
-0.430439 0.024435 0.055161 208 186 149
0.170028 -0.210844 -0.381965 111 94 70
-0.005949 -0.215340 -0.074340 110 99 67
0.012452 -0.215475 -0.085590 119 98 73
-0.027847 -0.214023 -0.073652 122 94 93
-0.327661 -0.200787 -0.347340 125 102 68
0.322400 -0.212497 -0.431840 107 87 66
0.306322 -0.212249 -0.418840 100 90 70
-0.240154 -0.203352 -0.292590 123 90 82
-0.129536 -0.195576 -0.519886 110 91 70
-0.123670 -0.197436 -0.492434 111 89 71
-0.136931 -0.192471 -0.532940 107 86 60
-0.280361 -0.213691 0.062660 211 187 167
-0.279586 -0.213315 0.071160 253 238 221
0.362372 -0.134288 0.099321 255 255 254
-0.179952 -0.210070 -0.052340 120 110 80
-0.176483 -0.210682 -0.034340 121 106 76
0.289369 -0.206518 0.092264 255 253 254
-0.467435 -0.206053 0.008008 132 105 101
-0.482433 -0.191050 0.035995 138 117 100
-0.473012 -0.203493 0.029473 136 118 100
0.189780 -0.225760 0.031160 119 101 75
0.198666 -0.227161 0.049415 109 99 75
0.257844 -0.209591 -0.511200 100 89 52
0.279607 -0.209517 -0.521144 95 85 62
0.296914 -0.210722 -0.511481 100 81 73
-0.430178 -0.039701 -0.096340 195 172 143
-0.431032 0.004434 -0.100839 195 172 140
-0.108291 -0.175324 0.091875 255 254 255
-0.078073 -0.176252 0.091797 255 255 254
-0.054923 -0.197282 -0.515304 109 89 61
-0.073695 -0.197890 -0.516146 104 89 69
-0.315882 -0.196576 -0.483590 109 92 68
-0.442476 -0.134732 0.099846 254 255 255
-0.464880 -0.158375 0.076639 254 255 254
-0.461746 -0.160391 0.096317 239 212 184
-0.437515 -0.134121 0.078095 255 255 255
0.097785 -0.190108 -0.552590 104 85 56
0.080530 -0.193752 -0.545840 95 79 59
0.378511 -0.176843 -0.629257 76 64 38
0.113022 -0.350089 -0.647946 84 60 41
0.148489 -0.331063 -0.646469 76 60 44
0.333464 -0.218939 -0.266340 116 91 68
-0.432378 0.012531 -0.582340 122 105 86
0.138252 -0.191884 -0.551340 101 81 62
-0.201996 -0.210108 -0.020339 122 110 68
-0.201289 -0.210841 -0.000589 132 102 83
-0.436014 -0.176297 -0.568712 111 88 60
-0.408947 -0.188231 -0.542958 119 91 80
0.027823 -0.237192 -0.643664 69 60 45
0.004603 -0.222419 -0.643616 76 55 37
0.372582 -0.217253 -0.335027 104 92 68
0.381647 -0.217776 -0.321095 114 87 69
-0.033854 -0.180158 0.090753 255 255 255
-0.381415 -0.113036 0.096229 255 255 254
0.398990 -0.213489 -0.451292 100 81 53
-0.431915 -0.085274 -0.416528 142 124 97
-0.431711 -0.101973 -0.431840 140 123 96
-0.431803 -0.131773 -0.412340 133 120 91
0.021490 -0.175366 -0.641770 69 55 41
0.019390 -0.207526 -0.643389 63 56 45
0.036071 -0.199948 -0.640669 56 52 33
0.042461 -0.213105 -0.641470 68 61 32
-0.206999 -0.210003 -0.090340 122 104 77
0.132410 -0.173370 -0.639995 56 52 40
-0.081902 -0.124433 0.093433 255 255 252
0.007282 0.009184 0.097690 254 255 255
0.123349 -0.169360 0.092162 255 255 253
0.129011 -0.220115 -0.064340 120 97 76
0.150179 -0.220569 -0.078152 122 97 73
0.132052 -0.219531 -0.098340 118 95 75
0.134089 -0.218994 -0.118840 127 96 82
0.141297 -0.194266 -0.639830 67 49 39
0.156700 -0.177602 -0.639449 72 63 48
-0.132457 -0.325092 -0.653907 82 61 41
-0.099930 -0.316143 -0.651934 80 60 43
0.387017 -0.180322 -0.578350 88 71 41
0.387851 -0.175104 -0.592737 88 69 43
-0.413526 -0.195959 -0.488340 123 94 72
-0.423315 -0.193371 -0.526608 113 95 70
-0.221771 -0.107550 0.094995 255 255 255
-0.062408 -0.212933 -0.097340 127 97 67
0.185547 -0.160854 -0.621365 80 65 48
0.192551 -0.161548 -0.610361 84 63 63
0.180527 -0.161926 -0.627156 87 70 38
0.296397 -0.165628 -0.616483 83 61 43
0.304791 -0.167666 -0.601340 83 68 44
0.293901 -0.169899 -0.593448 80 73 47
0.308406 -0.171542 -0.629680 76 68 52
-0.430275 -0.076764 -0.094339 191 171 138
-0.291637 -0.205594 -0.177090 120 103 58
-0.314008 -0.206349 -0.148965 123 102 84
0.064496 -0.202009 -0.517340 104 85 62
-0.074134 -0.214701 0.061059 122 102 78
-0.074589 -0.215278 0.073102 128 106 87
-0.054936 -0.212913 0.074669 219 199 177
0.197798 -0.070095 0.097029 253 253 245
0.231813 -0.071925 0.097700 253 252 243
-0.188278 -0.362571 -0.650451 82 69 48
-0.475570 -0.177155 -0.140215 127 109 86
-0.477476 -0.181121 -0.116688 128 105 86
-0.480123 -0.185283 -0.130261 128 106 83
-0.475829 -0.181164 -0.219365 126 106 84
-0.472044 -0.177373 -0.231576 126 107 80
-0.471966 -0.187756 -0.222865 123 105 80
-0.463767 -0.195033 -0.230237 122 105 73
-0.472470 -0.181593 -0.238747 120 109 79
-0.432013 -0.134682 0.076288 200 182 147
-0.430061 -0.016004 0.037974 199 182 148
-0.364584 -0.198396 -0.381840 122 99 76
-0.300136 -0.209401 -0.014340 129 111 61
-0.301983 -0.207876 -0.048465 135 109 91
-0.337648 -0.208458 -0.026340 124 113 79
0.383032 -0.220071 0.086360 249 234 217
0.390340 -0.218969 0.073933 154 121 102
0.366821 -0.231256 0.076911 199 172 156
-0.259517 -0.200511 -0.358340 123 94 88
0.126210 -0.034533 0.096970 254 254 253
0.147379 -0.306783 -0.644275 72 63 31
0.168002 -0.306753 -0.643308 68 56 50
-0.432222 -0.103695 -0.508340 136 117 88
-0.166469 -0.214860 0.067410 125 110 75
-0.178730 -0.214664 0.049660 122 102 64
-0.170429 -0.214075 0.040661 120 104 75
-0.437257 -0.164552 -0.057204 138 116 81
-0.434883 -0.163144 -0.028239 131 109 78
0.059234 -0.198474 -0.641284 71 49 39
0.066494 -0.235405 -0.643789 61 61 37
0.177884 -0.199120 0.089679 236 224 202
0.154569 -0.168765 0.092570 255 252 247
-0.166791 -0.172915 0.093211 255 254 251
-0.145348 -0.170521 0.092372 255 254 254
-0.155081 -0.212938 0.014117 127 102 85
-0.225690 -0.081604 0.096057 254 255 255
-0.379105 -0.198301 -0.403340 119 108 75
0.138250 -0.175539 -0.577285 87 65 40
-0.346375 -0.195530 -0.494340 116 97 54
0.029298 -0.216977 -0.061809 112 100 74
0.049425 -0.348555 -0.649603 69 66 51
0.092723 -0.248903 -0.642875 81 62 45
0.079480 -0.281353 -0.645837 80 59 49
-0.336698 -0.207256 -0.067340 131 115 76
-0.283345 -0.207196 -0.062464 127 111 89
0.144198 -0.224938 0.050851 117 100 85
0.055037 -0.205134 -0.426744 119 90 66
-0.431954 -0.069038 -0.570981 133 117 88
0.412512 -0.180261 -0.144714 32 27 26
0.401960 -0.208105 -0.119590 81 67 43
0.396877 -0.214809 -0.110695 86 67 45
0.308293 -0.227121 -0.041090 115 93 68
0.337258 -0.230616 -0.015642 111 97 80
-0.453409 -0.166389 -0.319172 116 105 80
-0.454365 -0.170848 -0.274832 123 107 78
0.414430 -0.191146 -0.337496 76 60 46
0.416569 -0.187005 -0.380340 75 62 46
0.428769 -0.155464 -0.392139 22 12 13
0.420918 -0.165917 -0.357982 62 54 47
0.425440 -0.159658 -0.357576 29 26 19
0.430198 -0.156535 -0.348553 15 12 26
-0.430454 -0.034299 -0.057590 194 175 148
0.418657 -0.188799 -0.441965 74 59 47
0.415968 -0.198277 -0.462741 80 55 37
0.409632 -0.206358 -0.449939 86 71 51
0.444602 -0.154551 -0.421340 23 16 7
0.452594 -0.155366 -0.441199 17 14 14
0.442075 -0.154230 -0.451279 19 13 8
0.442796 -0.153242 -0.475536 24 13 5
-0.123230 -0.215392 0.059137 122 102 65
-0.137677 -0.214621 0.074940 124 106 83
-0.054441 -0.214751 0.024410 120 98 71
-0.025295 -0.215301 0.040035 111 100 77
-0.046043 -0.215641 0.047660 120 100 82
0.376106 -0.226619 -0.060835 104 80 54
0.391709 -0.219372 -0.047024 76 76 55
0.390497 -0.220146 -0.081840 89 73 49
-0.481446 -0.160235 0.083704 247 233 195
-0.465262 -0.141406 0.079549 253 255 246
-0.478656 -0.137323 0.085645 208 172 151
-0.475098 -0.152564 0.089674 217 194 169
-0.473812 -0.149935 0.081447 255 254 238
-0.471576 -0.135522 0.091761 227 203 173
-0.268138 -0.208378 -0.047464 129 110 81
-0.272082 -0.209381 -0.031340 124 107 71
-0.431441 -0.151599 -0.101439 157 132 98
0.115188 -0.223865 0.044143 117 96 78
0.086357 -0.221534 0.031971 117 98 77
-0.475775 -0.043897 0.087451 255 249 218
-0.468861 -0.050335 0.083498 253 254 240
0.155944 -0.166137 -0.634193 81 64 61
-0.429408 -0.103993 0.041911 197 178 153
0.024161 -0.214451 -0.136965 120 98 67
0.002204 -0.213085 -0.146340 115 100 81
0.047393 -0.215450 -0.129215 122 100 78
0.230528 -0.210739 0.088236 250 238 226
-0.136458 -0.152439 -0.620950 88 82 41
-0.135235 -0.157351 -0.600392 81 78 42
0.267701 -0.229435 0.067660 113 97 70
0.235674 -0.228889 0.052660 124 96 70
0.277684 -0.228671 0.074410 131 109 87
0.325674 -0.211168 -0.511090 105 87 64
0.247053 -0.220462 -0.146299 109 97 69
0.251647 -0.221630 -0.123160 104 97 70
0.041204 -0.160319 -0.635303 85 59 30
-0.431305 -0.086970 -0.252590 184 159 126
0.210114 -0.334959 -0.643861 77 57 36
-0.236992 -0.208983 -0.052340 127 103 83
-0.258017 -0.208745 -0.066339 123 109 86
0.074987 -0.184611 -0.640960 65 47 49
0.070137 -0.168522 -0.638536 59 51 33
0.044216 -0.166907 -0.640229 68 56 40
-0.431693 -0.118810 -0.394090 145 128 96
-0.432494 -0.073122 -0.392840 153 133 103
-0.432429 -0.049658 -0.382152 155 136 107
-0.287690 -0.202481 -0.272340 126 98 80
-0.261180 -0.203137 -0.266965 123 102 66
0.312151 -0.219316 -0.235090 95 95 64
-0.388723 -0.198029 -0.640645 73 61 22
-0.432575 0.000521 -0.312340 183 157 128
-0.431684 -0.032470 -0.267340 181 159 130
-0.091062 -0.211390 0.080182 172 145 114
-0.116180 -0.214954 0.073633 244 234 207
-0.111423 -0.187829 0.091015 254 254 250
-0.267420 -0.060818 0.097010 255 255 255
-0.275750 -0.071004 0.097384 254 255 255
-0.463180 -0.205240 -0.033048 150 127 113
-0.446696 -0.211613 -0.042919 135 111 89
-0.401636 -0.199151 -0.342465 124 104 71
-0.397764 -0.200327 -0.297840 125 100 73
-0.193303 -0.199027 -0.450340 114 86 64
-0.245077 -0.189647 -0.539943 108 89 68
-0.255338 -0.178259 -0.560612 106 91 55
0.004934 -0.190959 -0.545972 110 84 55
-0.346382 -0.156696 -0.637708 91 68 45
-0.423624 -0.172157 -0.572482 113 90 67
-0.410431 -0.179443 -0.558586 105 90 64
0.439910 -0.154649 -0.405267 24 12 11
-0.310272 -0.211329 0.018160 124 109 84
-0.331875 -0.212358 0.036474 129 108 87
-0.071166 -0.198645 -0.458912 108 90 65
-0.071211 -0.201245 -0.432340 104 83 59
-0.051166 -0.198066 -0.465465 104 89 59
-0.474552 -0.176618 -0.351814 125 104 85
-0.474692 -0.182888 -0.350499 129 102 79
-0.471942 -0.173442 -0.363980 125 106 82
-0.464431 -0.171408 -0.363167 132 106 83
-0.474124 -0.181406 -0.372044 120 98 82
-0.469276 -0.197357 -0.109758 133 120 91
-0.478584 -0.192678 -0.086239 129 119 89
-0.349806 -0.197618 -0.403871 116 96 82
-0.371051 -0.197654 -0.405840 110 106 71
0.196658 -0.262268 -0.641143 76 52 33
0.116006 -0.328173 -0.645516 83 64 52
0.072411 -0.207733 -0.394715 108 96 53
0.084715 -0.209271 -0.370840 107 94 71
-0.068407 -0.214793 0.005160 123 104 77
-0.053738 -0.214348 -0.004205 122 103 79
-0.430677 -0.013121 -0.146340 194 171 138
-0.060039 -0.215152 -0.032340 129 103 83
0.007454 -0.199935 -0.501215 111 91 59
0.012978 -0.200727 -0.468340 111 94 65
-0.179605 -0.200296 -0.419277 117 92 83
-0.220120 -0.199312 -0.430840 111 92 79
-0.446886 -0.208311 0.084589 208 184 162
-0.448592 -0.198611 0.092552 255 251 240
-0.227125 -0.162326 0.093529 255 255 254
-0.290494 -0.212190 0.028484 129 111 60
0.269743 -0.224711 -0.050840 107 96 64
0.245252 -0.223810 -0.060590 100 100 65
0.262304 -0.223485 -0.083215 117 100 61
-0.271784 -0.204513 -0.239590 113 104 74
-0.299021 -0.203458 -0.244465 120 99 78
-0.432815 -0.121289 -0.564715 132 114 84
-0.448323 0.003162 -0.628701 120 99 67
-0.443512 -0.163307 -0.117127 130 109 80
-0.435686 -0.162892 -0.104416 127 104 89
-0.453012 -0.174090 -0.109263 129 107 89
-0.445186 -0.166537 -0.096601 127 109 83
-0.451133 -0.204633 -0.161968 130 109 88
-0.470925 -0.194887 -0.140043 133 109 75
-0.451407 -0.204987 -0.139462 148 134 99
-0.437214 -0.203194 -0.157677 131 109 82
-0.459852 -0.201609 -0.166977 128 105 86
-0.471206 -0.192492 -0.199010 132 104 98
0.290491 -0.211046 -0.476465 106 86 58
0.346530 -0.222974 -0.195438 114 92 70
-0.057578 -0.182648 -0.559035 97 77 52
0.202385 -0.224426 -0.037090 114 93 68
0.176916 -0.223132 -0.038589 113 101 64
0.196710 -0.193678 0.091267 254 253 250
0.171276 -0.185691 0.091733 255 254 250
0.195330 -0.184157 0.092467 255 254 250
-0.289058 -0.151169 -0.624212 103 80 55
-0.292414 -0.152386 -0.604324 105 82 62
-0.431717 -0.125767 -0.370840 141 122 96
-0.432323 -0.140132 -0.350965 153 127 91
-0.432018 -0.101386 -0.360465 156 137 106
-0.434842 -0.160785 -0.090209 135 109 74
-0.429919 -0.131124 -0.079340 182 163 126
-0.326952 -0.036669 0.098943 254 255 255
-0.233568 -0.210333 -0.006340 120 110 77
-0.262208 -0.211751 0.007661 127 106 87
-0.164059 -0.210260 -0.111215 120 96 74
-0.408538 -0.163562 -0.580773 101 82 63
0.155548 -0.216225 -0.219590 118 96 70
0.391018 -0.213614 -0.513319 91 81 59
0.343918 -0.202622 -0.540264 96 80 60
0.359786 -0.181707 -0.573141 91 79 58
-0.259837 -0.205747 -0.178339 126 105 83
-0.477510 -0.197717 0.008960 127 107 87
-0.477368 -0.197494 -0.012107 136 113 88
0.155530 -0.367009 -0.647511 69 65 34
0.130943 -0.355757 -0.647431 82 66 46
0.219957 -0.207397 -0.512340 96 85 53
-0.430318 -0.139879 -0.128340 170 148 115
-0.431007 -0.149496 -0.133955 147 124 90
-0.314161 -0.153700 -0.601953 99 80 64
-0.369102 -0.151976 -0.631601 90 69 55
-0.057948 -0.213724 -0.116340 107 99 68
-0.042938 -0.214031 -0.107340 116 98 72
-0.402080 -0.165759 -0.639034 68 58 46
-0.408299 -0.157812 -0.636039 91 71 49
0.156670 -0.206075 -0.491965 111 85 65
0.352224 -0.216796 -0.326434 109 91 65
-0.426240 -0.204463 -0.130947 134 109 83
-0.399019 -0.204473 -0.131840 128 109 77
0.275705 -0.211601 -0.422840 108 89 67
0.029158 -0.350361 -0.651110 76 60 46
0.037069 -0.374815 -0.650368 72 63 35
0.013701 -0.376299 -0.653429 75 61 44
-0.317539 -0.202923 -0.258487 125 101 79
0.061894 -0.154455 0.092798 255 251 255
0.046565 -0.142998 0.093282 255 253 254
-0.036655 -0.386041 -0.657385 81 69 47
-0.474508 -0.177295 -0.409360 124 98 72
-0.473446 -0.182871 -0.408987 125 98 78
-0.471026 -0.173647 -0.413683 131 103 71
-0.474623 -0.179759 -0.433664 133 99 72
0.030739 -0.274969 -0.647063 71 62 42
0.028350 -0.255086 -0.644487 67 61 35
0.028329 -0.287022 -0.647883 84 62 51
0.295036 -0.182511 -0.635114 74 52 51
0.284439 -0.212747 -0.635988 65 49 25
0.282099 -0.179717 -0.636789 60 59 36
0.146405 -0.214196 -0.258340 114 93 70
0.136849 -0.214810 -0.251840 121 93 70
-0.438646 -0.197155 -0.361590 118 106 75
-0.448406 -0.197021 -0.356590 118 106 75
-0.456620 -0.194763 -0.355738 121 103 64
0.401046 -0.185222 0.065212 63 59 51
0.049929 -0.314762 -0.648830 76 63 36
0.004416 -0.285029 -0.649541 83 60 36
0.021763 -0.309872 -0.650990 89 58 49
-0.482715 -0.185659 0.052086 127 110 73
-0.476721 -0.171323 0.071746 230 223 203
-0.485657 -0.187734 0.069412 172 155 127
-0.486238 -0.182466 0.065848 197 177 156
-0.451960 -0.034393 -0.630738 118 88 70
-0.277749 -0.252904 -0.642502 81 63 24
-0.467973 -0.181471 0.021819 128 110 88
-0.481443 -0.182434 0.041693 129 113 84
-0.477040 -0.184870 0.020882 129 111 77
-0.479407 -0.190016 0.021940 132 117 89
-0.432692 -0.206276 -0.087340 133 109 93
-0.427382 -0.207170 -0.057703 125 109 91
-0.437040 -0.160097 -0.194030 130 103 84
-0.439181 -0.160687 -0.216055 126 106 73
-0.430815 -0.131897 -0.197652 159 135 99
-0.436629 -0.160573 -0.166592 126 103 79
-0.431341 -0.142822 -0.187090 144 119 96
-0.178562 -0.211908 0.001660 126 103 86
-0.141033 -0.212583 -0.017840 114 107 83
-0.473527 -0.056442 0.091612 210 187 158
-0.478249 -0.077156 0.087690 251 237 207
