ply
format ascii 1.0
element vertex 1223
property float x
property float y
property float z
property uchar red
property uchar green
property uchar blue
end_header
0.062489 0.805524 -0.107085 255 125 0
0.053651 0.808290 -0.080085 255 125 0
0.078323 0.837702 -0.086085 255 125 0
0.057057 0.849138 -0.065085 255 125 0
0.089744 0.804286 -0.101085 255 125 0
0.092469 0.814646 -0.089085 255 125 0
0.017384 0.841476 -0.128085 255 125 0
0.052501 0.806376 -0.140905 255 125 0
0.025208 0.807552 -0.119085 255 125 0
0.017867 0.858685 -0.110085 255 125 0
0.043108 0.796568 -0.116085 255 125 0
0.084419 0.836197 -0.078909 255 125 0
0.067930 0.797105 -0.087707 255 125 0
0.047380 0.844452 -0.078807 255 125 0
0.043917 0.809565 -0.113085 255 125 0
0.043253 0.825933 -0.079127 255 125 0
0.090157 0.808250 -0.119085 255 125 0
0.073096 0.829001 -0.077856 255 125 0
0.081825 0.802757 -0.088301 255 125 0
0.066396 0.812027 -0.087518 255 125 0
0.052534 0.858855 -0.153619 255 125 0
0.033982 0.810504 -0.136117 255 125 0
0.065899 0.840325 -0.079828 255 125 0
0.050967 0.821297 -0.087316 255 125 0
0.054202 0.826680 -0.077085 255 125 0
0.065392 0.851129 -0.069781 255 125 0
0.075888 0.804525 -0.101085 255 125 0
0.036535 0.803103 -0.089085 255 125 0
0.062280 0.811000 -0.135591 255 125 0
0.035282 0.844722 -0.098085 255 125 0
0.028571 0.845254 -0.119085 255 125 0
0.037551 0.836358 -0.158085 255 125 0
0.042215 0.812556 -0.079507 255 125 0
0.099837 0.809433 -0.090668 255 125 0
0.034367 0.875219 -0.116085 255 125 0
0.016988 0.824214 -0.122085 255 125 0
0.042923 0.813735 -0.131085 255 125 0
0.036047 0.796466 -0.107085 255 125 0
0.052714 0.818380 -0.143085 255 125 0
0.061264 0.832610 -0.090431 255 125 0
0.060768 0.860908 -0.159430 255 125 0
0.037784 0.816832 -0.098085 255 125 0
0.013764 0.850651 -0.110085 255 125 0
0.075410 0.806610 -0.119085 255 125 0
0.031620 0.850421 -0.107085 255 125 0
0.036139 0.851207 -0.152085 255 125 0
0.029769 0.844266 -0.080085 255 125 0
0.044542 0.860158 -0.101085 255 125 0
0.028070 0.835056 -0.146085 255 125 0
0.069102 0.796402 -0.116085 255 125 0
0.044786 0.811012 -0.099541 255 125 0
0.032185 0.822083 -0.107085 255 125 0
0.076431 0.846203 -0.083085 255 125 0
0.027813 0.817710 -0.084296 255 125 0
0.018902 0.854563 -0.125085 255 125 0
0.043793 0.867607 -0.143368 255 125 0
0.058280 0.798520 -0.128085 255 125 0
0.027562 0.870360 -0.101085 255 125 0
0.065878 0.805339 -0.140989 255 125 0
0.046486 0.796365 -0.125085 255 125 0
0.056352 0.795311 -0.089085 255 125 0
0.029871 0.803661 -0.125085 255 125 0
0.045328 0.852686 -0.078042 255 125 0
0.036068 0.854749 -0.078112 255 125 0
0.062280 0.811000 -0.078850 255 125 0
0.078995 0.807957 -0.140085 255 125 0
0.084408 0.818704 -0.087426 255 125 0
0.080291 0.817678 -0.079761 255 125 0
0.013929 0.829553 -0.101643 255 125 0
0.028566 0.836437 -0.134085 255 125 0
0.016645 0.828248 -0.092085 255 125 0
0.072411 0.853911 -0.083085 255 125 0
0.077509 0.798350 -0.113085 255 125 0
0.039950 0.814612 -0.149085 255 125 0
0.069814 0.802974 -0.110085 255 125 0
0.074110 0.807392 -0.093496 255 125 0
0.048134 0.828233 -0.152085 255 125 0
0.101901 0.818692 -0.102540 255 125 0
0.061927 0.849712 -0.077085 255 125 0
0.054587 0.850621 -0.090563 255 125 0
0.028872 0.871897 -0.110085 255 125 0
0.044506 0.868793 -0.107085 255 125 0
0.017700 0.818355 -0.110085 255 125 0
0.040195 0.873268 -0.131221 255 125 0
0.047589 0.865326 -0.134085 255 125 0
0.073679 0.797151 -0.098085 255 125 0
0.057863 0.838153 -0.074085 255 125 0
0.068471 0.838779 -0.072464 255 125 0
0.021513 0.810995 -0.113085 255 125 0
0.045338 0.870178 -0.081850 255 125 0
0.036554 0.808959 -0.083771 255 125 0
0.079772 0.810989 -0.132707 255 125 0
0.069080 0.831414 -0.086085 255 125 0
0.024892 0.847799 -0.140085 255 125 0
0.083688 0.808636 -0.104085 255 125 0
0.057953 0.824101 -0.089085 255 125 0
0.017390 0.835314 -0.089085 255 125 0
0.050204 0.837503 -0.089085 255 125 0
0.065911 0.857817 -0.084424 255 125 0
0.044776 0.793519 -0.099426 255 125 0
0.070513 0.813053 -0.144576 255 125 0
0.052480 0.870414 -0.143085 255 125 0
0.038109 0.829023 -0.155729 255 125 0
0.039643 0.814102 -0.117544 255 125 0
0.021923 0.831209 -0.137085 255 125 0
0.036298 0.823112 -0.128085 255 125 0
0.035255 0.818447 -0.113085 255 125 0
0.050967 0.821297 -0.150803 255 125 0
0.027823 0.835203 -0.126632 255 125 0
0.027157 0.842604 -0.146085 255 125 0
0.030158 0.851300 -0.146085 255 125 0
0.034523 0.852178 -0.135636 255 125 0
0.037843 0.834404 -0.092085 255 125 0
0.028301 0.818523 -0.140085 255 125 0
0.061804 0.792735 -0.104085 255 125 0
0.087961 0.806069 -0.092085 255 125 0
0.074722 0.825883 -0.086085 255 125 0
0.034301 0.866311 -0.083085 255 125 0
0.059593 0.802116 -0.137085 255 125 0
0.082874 0.833625 -0.090580 255 125 0
0.043594 0.803201 -0.134085 255 125 0
0.018575 0.854761 -0.091329 255 125 0
0.014159 0.843414 -0.098085 255 125 0
0.083435 0.801789 -0.098085 255 125 0
0.012902 0.833670 -0.108645 255 125 0
0.025383 0.840169 -0.113085 255 125 0
0.044395 0.860245 -0.143085 255 125 0
0.096239 0.815094 -0.105566 255 125 0
0.040920 0.848334 -0.095085 255 125 0
0.027305 0.828516 -0.081204 255 125 0
0.049202 0.859133 -0.095085 255 125 0
0.066766 0.824293 -0.077085 255 125 0
0.036275 0.840625 -0.146085 255 125 0
0.032630 0.837377 -0.140085 255 125 0
0.052149 0.811615 -0.092085 255 125 0
0.049940 0.825414 -0.159305 255 125 0
0.052926 0.836208 -0.080085 255 125 0
0.073084 0.811508 -0.079433 255 125 0
0.051837 0.793623 -0.104085 255 125 0
0.066429 0.864505 -0.078980 255 125 0
0.069785 0.799491 -0.128085 255 125 0
0.085942 0.803783 -0.122695 255 125 0
0.051508 0.862971 -0.079093 255 125 0
0.080017 0.803842 -0.128085 255 125 0
0.061493 0.809690 -0.092085 255 125 0
0.027823 0.835203 -0.102516 255 125 0
0.041718 0.840854 -0.153781 255 125 0
0.046068 0.818971 -0.140085 255 125 0
0.024755 0.865046 -0.124159 255 125 0
0.051982 0.799688 -0.085698 255 125 0
0.034531 0.863840 -0.143085 255 125 0
0.030164 0.851297 -0.080085 255 125 0
0.056601 0.853974 -0.083085 255 125 0
0.020710 0.842978 -0.134085 255 125 0
0.088017 0.830535 -0.080957 255 125 0
0.020028 0.822231 -0.128085 255 125 0
0.077973 0.831294 -0.083085 255 125 0
0.032120 0.867622 -0.131085 255 125 0
0.038606 0.800725 -0.121151 255 125 0
0.022850 0.866192 -0.098085 255 125 0
0.086507 0.806942 -0.113085 255 125 0
0.098993 0.816940 -0.089085 255 125 0
0.030350 0.861684 -0.137085 255 125 0
0.084865 0.800930 -0.107085 255 125 0
0.063328 0.841870 -0.087155 255 125 0
0.014330 0.846812 -0.104085 255 125 0
0.078227 0.808418 -0.083544 255 125 0
0.060794 0.802704 -0.101085 255 125 0
0.029346 0.802788 -0.104085 255 125 0
0.040666 0.874051 -0.110085 255 125 0
0.031962 0.871215 -0.088532 255 125 0
0.034411 0.805392 -0.131085 255 125 0
0.046861 0.862264 -0.152085 255 125 0
0.083889 0.812016 -0.090406 255 125 0
0.048769 0.794340 -0.113085 255 125 0
0.053042 0.848050 -0.077866 255 125 0
0.045536 0.812258 -0.107085 255 125 0
0.042772 0.865907 -0.092085 255 125 0
0.015993 0.838813 -0.122021 255 125 0
0.021244 0.860156 -0.128085 255 125 0
0.079264 0.821795 -0.090539 255 125 0
0.019955 0.864430 -0.113085 255 125 0
0.055274 0.815209 -0.152085 255 125 0
0.013019 0.844098 -0.113085 255 125 0
0.019532 0.821405 -0.092085 255 125 0
0.018056 0.848073 -0.126881 255 125 0
0.032259 0.801812 -0.095085 255 125 0
0.015820 0.852916 -0.116085 255 125 0
0.065878 0.805339 -0.081581 255 125 0
0.040615 0.873966 -0.119085 255 125 0
0.023199 0.844982 -0.082599 255 125 0
0.037602 0.839828 -0.078108 255 125 0
0.042734 0.819245 -0.077817 255 125 0
0.018154 0.862013 -0.104085 255 125 0
0.036564 0.826451 -0.077886 255 125 0
0.042994 0.831328 -0.146085 255 125 0
0.031421 0.829542 -0.150645 255 125 0
0.059697 0.795053 -0.095662 255 125 0
0.039108 0.871458 -0.101085 255 125 0
0.036671 0.847386 -0.146085 255 125 0
0.034738 0.855549 -0.110085 255 125 0
0.047369 0.826959 -0.090556 255 125 0
0.024940 0.833436 -0.113085 255 125 0
0.031646 0.824091 -0.122085 255 125 0
0.028462 0.845320 -0.134085 255 125 0
0.028065 0.829779 -0.122085 255 125 0
0.022429 0.814576 -0.125085 255 125 0
0.048063 0.810640 -0.128085 255 125 0
0.040830 0.865888 -0.116085 255 125 0
0.036294 0.858112 -0.125085 255 125 0
0.030130 0.847818 -0.113085 255 125 0
0.030107 0.847831 -0.125085 255 125 0
0.040367 0.815307 -0.125085 255 125 0
0.030920 0.799583 -0.110085 255 125 0
0.037591 0.822335 -0.093552 255 125 0
0.034072 0.857251 -0.149085 255 125 0
0.099014 0.825538 -0.089085 255 125 0
0.068665 0.793164 -0.101085 255 125 0
0.058151 0.792480 -0.116621 255 125 0
0.051560 0.857232 -0.086085 255 125 0
0.029369 0.837776 -0.078910 255 125 0
0.092417 0.817391 -0.095085 255 125 0
0.022162 0.831605 -0.083933 255 125 0
0.029323 0.869302 -0.122085 255 125 0
0.088524 0.819730 -0.082429 255 125 0
0.030903 0.822855 -0.145559 255 125 0
0.068990 0.845468 -0.083946 255 125 0
0.015244 0.828763 -0.116085 255 125 0
0.022408 0.859456 -0.089085 255 125 0
0.029569 0.803159 -0.116085 255 125 0
0.089043 0.826419 -0.087433 255 125 0
0.043921 0.809570 -0.146085 255 125 0
0.016254 0.831656 -0.122085 255 125 0
0.057137 0.814091 -0.138692 255 125 0
0.049024 0.806415 -0.110085 255 125 0
0.041516 0.863817 -0.128085 255 125 0
0.076693 0.823340 -0.078371 255 125 0
0.040272 0.824225 -0.140085 255 125 0
0.080927 0.830385 -0.077085 255 125 0
0.047380 0.844452 -0.090498 255 125 0
0.069216 0.805070 -0.104085 255 125 0
0.062460 0.805475 -0.125085 255 125 0
0.059948 0.824595 -0.155085 255 125 0
0.086092 0.807192 -0.128085 255 125 0
0.073352 0.823603 -0.092085 255 125 0
0.025421 0.857646 -0.137085 255 125 0
0.073331 0.806094 -0.125085 255 125 0
0.074427 0.800201 -0.086085 255 125 0
0.015485 0.849618 -0.095546 255 125 0
0.036317 0.858099 -0.116085 255 125 0
0.055843 0.806113 -0.110085 255 125 0
0.053053 0.865544 -0.150189 255 125 0
0.067953 0.832091 -0.093459 255 125 0
0.091972 0.810658 -0.104085 255 125 0
0.050649 0.809119 -0.098085 255 125 0
0.037591 0.822335 -0.156547 255 125 0
0.057236 0.843380 -0.068085 255 125 0
0.026384 0.815069 -0.134085 255 125 0
0.042756 0.854230 -0.096552 255 125 0
0.088777 0.840578 -0.080085 255 125 0
0.080821 0.841859 -0.081233 255 125 0
0.043298 0.872609 -0.125085 255 125 0
0.067109 0.857097 -0.068085 255 125 0
0.067930 0.797105 -0.122604 255 125 0
0.023178 0.809997 -0.098610 255 125 0
0.079410 0.800707 -0.119085 255 125 0
0.081476 0.808001 -0.119085 255 125 0
0.058693 0.834155 -0.078969 255 125 0
0.074025 0.795599 -0.104085 255 125 0
0.081318 0.813561 -0.138797 255 125 0
0.078768 0.850091 -0.078857 255 125 0
0.064222 0.796759 -0.128085 255 125 0
0.038099 0.811530 -0.143077 255 125 0
0.060745 0.825922 -0.078641 255 125 0
0.030903 0.822855 -0.080684 255 125 0
0.016624 0.820932 -0.104085 255 125 0
0.047877 0.816154 -0.153802 255 125 0
0.063328 0.841870 -0.073715 255 125 0
0.032618 0.814059 -0.083085 255 125 0
0.047358 0.809466 -0.080677 255 125 0
0.068749 0.833418 -0.077085 255 125 0
0.072349 0.798635 -0.092085 255 125 0
0.040921 0.798752 -0.092085 255 125 0
0.024680 0.806672 -0.104085 255 125 0
0.057137 0.814091 -0.077838 255 125 0
0.031940 0.836230 -0.150595 255 125 0
0.067941 0.814599 -0.078606 255 125 0
0.045846 0.859373 -0.077888 255 125 0
0.048915 0.829531 -0.077690 255 125 0
0.039655 0.831594 -0.078531 255 125 0
0.057266 0.796834 -0.122085 255 125 0
0.089594 0.812087 -0.095085 255 125 0
0.042561 0.865554 -0.086085 255 125 0
0.038998 0.871276 -0.095085 255 125 0
0.069486 0.817170 -0.087329 255 125 0
0.050618 0.809067 -0.122085 255 125 0
0.042940 0.831237 -0.152085 255 125 0
0.042237 0.847543 -0.153635 255 125 0
0.029532 0.841176 -0.101085 255 125 0
0.062799 0.817689 -0.090561 255 125 0
0.043772 0.832622 -0.090481 255 125 0
0.043782 0.850114 -0.159395 255 125 0
0.059730 0.847531 -0.090573 255 125 0
0.056121 0.835700 -0.087323 255 125 0
0.073192 0.840811 -0.086085 255 125 0
0.062488 0.805524 -0.113085 255 125 0
0.069815 0.802973 -0.116085 255 125 0
0.035761 0.825115 -0.134085 255 125 0
0.069977 0.802875 -0.137085 255 125 0
0.017048 0.823093 -0.116085 255 125 0
0.062860 0.793153 -0.113085 255 125 0
0.020491 0.836110 -0.134085 255 125 0
0.040185 0.855775 -0.152137 255 125 0
0.068493 0.873765 -0.084570 255 125 0
0.059189 0.805858 -0.080563 255 125 0
0.019579 0.815659 -0.099307 255 125 0
0.062268 0.793508 -0.090543 255 125 0
0.068072 0.808992 -0.134085 255 125 0
0.091604 0.807381 -0.087712 255 125 0
0.049538 0.804656 -0.083085 255 125 0
0.080280 0.800184 -0.093235 255 125 0
0.089885 0.810346 -0.125085 255 125 0
0.044301 0.856803 -0.147715 255 125 0
0.026191 0.871184 -0.095085 255 125 0
0.030031 0.830376 -0.098085 255 125 0
0.068107 0.809048 -0.092085 255 125 0
0.036575 0.843944 -0.155633 255 125 0
0.059223 0.858336 -0.077642 255 125 0
0.093901 0.828680 -0.083085 255 125 0
0.035052 0.876359 -0.090983 255 125 0
0.039158 0.859892 -0.105530 255 125 0
0.032179 0.830805 -0.134085 255 125 0
0.057329 0.869974 -0.080085 255 125 0
0.034733 0.820552 -0.101085 255 125 0
0.049944 0.793913 -0.095085 255 125 0
0.073614 0.835688 -0.090364 255 125 0
0.045025 0.866867 -0.122085 255 125 0
0.042496 0.850886 -0.149085 255 125 0
0.044279 0.821816 -0.090577 255 125 0
0.053993 0.812479 -0.143085 255 125 0
0.062072 0.807626 -0.131085 255 125 0
0.026264 0.809307 -0.092085 255 125 0
0.051247 0.868362 -0.137085 255 125 0
0.048165 0.863233 -0.140085 255 125 0
0.018805 0.843493 -0.086085 255 125 0
0.065117 0.812795 -0.140085 255 125 0
0.038651 0.870697 -0.081812 255 125 0
0.029877 0.826970 -0.102584 255 125 0
0.072814 0.808170 -0.131085 255 125 0
0.037602 0.839828 -0.093547 255 125 0
0.060482 0.831309 -0.158085 255 125 0
0.060249 0.854219 -0.065919 255 125 0
0.079254 0.804302 -0.105543 255 125 0
0.057908 0.806628 -0.104085 255 125 0
0.059455 0.852898 -0.089085 255 125 0
0.047602 0.812820 -0.095085 255 125 0
0.059189 0.805858 -0.120592 255 125 0
0.078587 0.811700 -0.092085 255 125 0
0.044290 0.839309 -0.159581 255 125 0
0.088536 0.837223 -0.084509 255 125 0
0.073418 0.794590 -0.113085 255 125 0
0.055117 0.874802 -0.084578 255 125 0
0.055815 0.858491 -0.158085 255 125 0
0.047866 0.798662 -0.129947 255 125 0
0.047614 0.865312 -0.104085 255 125 0
0.070745 0.868912 -0.080085 255 125 0
0.079209 0.797328 -0.098085 255 125 0
0.048213 0.854452 -0.158085 255 125 0
0.056971 0.810690 -0.134085 255 125 0
0.067455 0.860389 -0.063659 255 125 0
0.083638 0.852371 -0.080085 255 125 0
0.045944 0.871186 -0.131085 255 125 0
0.035285 0.818498 -0.152085 255 125 0
0.084653 0.813287 -0.131085 255 125 0
0.023980 0.817156 -0.089085 255 125 0
0.099789 0.812962 -0.101085 255 125 0
0.067907 0.853118 -0.080085 255 125 0
0.088036 0.807267 -0.107085 255 125 0
0.045295 0.800207 -0.087890 255 125 0
0.032381 0.874464 -0.101085 255 125 0
0.091107 0.835678 -0.078812 255 125 0
0.022753 0.869749 -0.113085 255 125 0
0.045471 0.864573 -0.080085 255 125 0
0.068957 0.792989 -0.091023 255 125 0
0.059959 0.807139 -0.098085 255 125 0
0.057238 0.863029 -0.155085 255 125 0
0.025659 0.866551 -0.119085 255 125 0
0.034512 0.834684 -0.144780 255 125 0
0.068078 0.843950 -0.071085 255 125 0
0.040162 0.820790 -0.152100 255 125 0
0.039632 0.796609 -0.111065 255 125 0
0.051993 0.817180 -0.090579 255 125 0
0.046974 0.814653 -0.137085 255 125 0
0.016092 0.850629 -0.122085 255 125 0
0.048384 0.805350 -0.137682 255 125 0
0.019601 0.850643 -0.088113 255 125 0
0.054163 0.820792 -0.077085 255 125 0
0.075096 0.799801 -0.128085 255 125 0
0.094102 0.819879 -0.089085 255 125 0
0.030008 0.865391 -0.086085 255 125 0
0.055614 0.846506 -0.087367 255 125 0
0.043865 0.826954 -0.149085 255 125 0
0.074110 0.807392 -0.137363 255 125 0
0.048119 0.810732 -0.116085 255 125 0
0.069130 0.804927 -0.122085 255 125 0
0.083108 0.829984 -0.083085 255 125 0
0.036175 0.858186 -0.131085 255 125 0
0.038763 0.856630 -0.140085 255 125 0
0.035041 0.858866 -0.081249 255 125 0
0.062531 0.846369 -0.071085 255 125 0
0.060178 0.824978 -0.161085 255 125 0
0.025383 0.840171 -0.122085 255 125 0
0.057170 0.866569 -0.084571 255 125 0
0.048859 0.868063 -0.146085 255 125 0
0.045026 0.866865 -0.113085 255 125 0
0.044797 0.828504 -0.156164 255 125 0
0.034202 0.831371 -0.095085 255 125 0
0.091951 0.807958 -0.098085 255 125 0
0.073981 0.803969 -0.107085 255 125 0
0.073981 0.803969 -0.113085 255 125 0
0.059063 0.809433 -0.140085 255 125 0
0.034209 0.848867 -0.101085 255 125 0
0.012860 0.837196 -0.101085 255 125 0
0.066904 0.801222 -0.084628 255 125 0
0.038547 0.806453 -0.134085 255 125 0
0.064451 0.869194 -0.080085 255 125 0
0.029501 0.841196 -0.137085 255 125 0
0.029090 0.825661 -0.110085 255 125 0
0.038878 0.830303 -0.143085 255 125 0
0.044052 0.862212 -0.137085 255 125 0
0.030892 0.805361 -0.090747 255 125 0
0.038789 0.849614 -0.158085 255 125 0
0.053531 0.796441 -0.128085 255 125 0
0.048156 0.863219 -0.098085 255 125 0
0.050967 0.821297 -0.155974 255 125 0
0.016521 0.857166 -0.104085 255 125 0
0.020616 0.829035 -0.132649 255 125 0
0.070027 0.858844 -0.081586 255 125 0
0.063144 0.855979 -0.071085 255 125 0
0.070016 0.841351 -0.076582 255 125 0
0.015629 0.839031 -0.092085 255 125 0
0.043749 0.797635 -0.121010 255 125 0
0.031433 0.847035 -0.148512 255 125 0
0.062269 0.860005 -0.065085 255 125 0
0.061625 0.853393 -0.083085 255 125 0
0.085701 0.807427 -0.086085 255 125 0
0.048039 0.863022 -0.092085 255 125 0
0.042766 0.848421 -0.077085 255 125 0
0.030091 0.872340 -0.116085 255 125 0
0.041141 0.793295 -0.104085 255 125 0
0.049704 0.867555 -0.080085 255 125 0
0.029865 0.809478 -0.133127 255 125 0
0.076686 0.854844 -0.080085 255 125 0
0.063087 0.835646 -0.077085 255 125 0
0.061893 0.863731 -0.077085 255 125 0
0.030292 0.874262 -0.092085 255 125 0
0.072445 0.829391 -0.083085 255 125 0
0.021858 0.856287 -0.131085 255 125 0
0.048417 0.857828 -0.150626 255 125 0
0.058151 0.792480 -0.100810 255 125 0
0.035362 0.818624 -0.146085 255 125 0
0.042369 0.871062 -0.137085 255 125 0
0.077212 0.830027 -0.087750 255 125 0
0.055252 0.867722 -0.146085 255 125 0
0.068269 0.826794 -0.092085 255 125 0
0.053527 0.802260 -0.137935 255 125 0
0.013547 0.840281 -0.116085 255 125 0
0.080302 0.835170 -0.076355 255 125 0
0.089551 0.815613 -0.085298 255 125 0
0.036575 0.843944 -0.150774 255 125 0
0.061892 0.849732 -0.065085 255 125 0
0.080700 0.803433 -0.110085 255 125 0
0.046472 0.807990 -0.104085 255 125 0
0.026462 0.836022 -0.107085 255 125 0
0.049639 0.830739 -0.158085 255 125 0
0.030490 0.854601 -0.122085 255 125 0
0.020288 0.846731 -0.131085 255 125 0
0.052523 0.841363 -0.087362 255 125 0
0.039870 0.817466 -0.131085 255 125 0
0.025823 0.853905 -0.140085 255 125 0
0.028065 0.829780 -0.113085 255 125 0
0.034349 0.834414 -0.155085 255 125 0
0.061783 0.839298 -0.082052 255 125 0
0.039643 0.814102 -0.111626 255 125 0
0.073084 0.811508 -0.090552 255 125 0
0.014793 0.825534 -0.104085 255 125 0
0.055200 0.794255 -0.113085 255 125 0
0.098522 0.820723 -0.092085 255 125 0
0.032183 0.822084 -0.113085 255 125 0
0.083249 0.805401 -0.092085 255 125 0
0.048595 0.791224 -0.101085 255 125 0
0.068201 0.809205 -0.080085 255 125 0
0.049159 0.832884 -0.089085 255 125 0
0.076939 0.826692 -0.092085 255 125 0
0.056879 0.810746 -0.092085 255 125 0
0.059433 0.847037 -0.080085 255 125 0
0.069941 0.795898 -0.095085 255 125 0
0.035255 0.818447 -0.107085 255 125 0
0.017939 0.836227 -0.128085 255 125 0
0.052259 0.855521 -0.092085 255 125 0
0.029623 0.849848 -0.119085 255 125 0
0.057289 0.791045 -0.095085 255 125 0
0.026398 0.857060 -0.083085 255 125 0
0.096239 0.815094 -0.092430 255 125 0
0.095014 0.815831 -0.101085 255 125 0
0.038143 0.881502 -0.096565 255 125 0
0.028872 0.866072 -0.127842 255 125 0
0.043263 0.843426 -0.076809 255 125 0
0.024830 0.833503 -0.143085 255 125 0
0.088768 0.814312 -0.134085 255 125 0
0.074716 0.835027 -0.080085 255 125 0
0.056110 0.818207 -0.147746 255 125 0
0.065824 0.794872 -0.119085 255 125 0
0.038945 0.865362 -0.143085 255 125 0
0.040955 0.874532 -0.086085 255 125 0
0.061242 0.797624 -0.086270 255 125 0
0.041199 0.834166 -0.156212 255 125 0
0.058344 0.804450 -0.116085 255 125 0
0.035669 0.851489 -0.140085 255 125 0
0.050438 0.797116 -0.089244 255 125 0
0.091326 0.812744 -0.119085 255 125 0
0.052534 0.858855 -0.080980 255 125 0
0.057656 0.820779 -0.153777 255 125 0
0.023599 0.810698 -0.122085 255 125 0
0.067147 0.848226 -0.080085 255 125 0
0.047076 0.823636 -0.149085 255 125 0
0.043490 0.864290 -0.107085 255 125 0
0.045316 0.835193 -0.153699 255 125 0
0.053249 0.825095 -0.152085 255 125 0
0.056886 0.863240 -0.149085 255 125 0
0.061333 0.838549 -0.071085 255 125 0
0.021643 0.824918 -0.134434 255 125 0
0.027036 0.822243 -0.083085 255 125 0
0.028487 0.830483 -0.146085 255 125 0
0.060660 0.843473 -0.077085 255 125 0
0.067028 0.829147 -0.077085 255 125 0
0.019071 0.826462 -0.126623 255 125 0
0.032526 0.813906 -0.140085 255 125 0
0.012703 0.833338 -0.104085 255 125 0
0.071042 0.837234 -0.078494 255 125 0
0.019111 0.814880 -0.113085 255 125 0
0.080302 0.835170 -0.080921 255 125 0
0.025771 0.843437 -0.141815 255 125 0
0.047804 0.795199 -0.119085 255 125 0
0.021627 0.819067 -0.125085 255 125 0
0.047600 0.873941 -0.083085 255 125 0
0.053031 0.830557 -0.079350 255 125 0
0.044308 0.800799 -0.128085 255 125 0
0.028839 0.813595 -0.085938 255 125 0
-0.154468 -0.231232 -0.180465 255 0 255
-0.004999 -0.133918 -0.086085 255 0 255
-0.110392 -0.096719 -0.179085 255 0 255
-0.056773 -0.324931 -0.186343 255 0 255
-0.019657 -0.210737 -0.177309 255 0 255
-0.101448 -0.189590 -0.091393 255 0 255
-0.194446 -0.144212 -0.179085 255 0 255
-0.104384 -0.173827 -0.167085 255 0 255
-0.170923 -0.217844 -0.106735 255 0 255
-0.082159 -0.253679 -0.179085 255 0 255
-0.012858 -0.205246 -0.104085 255 0 255
-0.042472 -0.143860 -0.173085 255 0 255
-0.132756 -0.294118 -0.176085 255 0 255
-0.080363 -0.137024 -0.119085 255 0 255
-0.211923 -0.204532 -0.179085 255 0 255
-0.066364 -0.228171 -0.125085 255 0 255
-0.122061 -0.223897 -0.134085 255 0 255
-0.002428 -0.170413 -0.146085 255 0 255
-0.143089 -0.136571 -0.171680 255 0 255
-0.054945 -0.179034 -0.137085 255 0 255
-0.183572 -0.273843 -0.176085 255 0 255
-0.164213 -0.183377 -0.172208 255 0 255
-0.035535 -0.257195 -0.176085 255 0 255
-0.129299 -0.177694 -0.128085 255 0 255
-0.087789 -0.134800 -0.179085 255 0 255
-0.017542 -0.131495 -0.128085 255 0 255
-0.108455 -0.218727 -0.176085 255 0 255
-0.089608 -0.294703 -0.176085 255 0 255
-0.052568 -0.183962 -0.177529 255 0 255
-0.056816 -0.223409 -0.167085 255 0 255
-0.166532 -0.213483 -0.146085 255 0 255
-0.123332 -0.255137 -0.179085 255 0 255
-0.001979 -0.172361 -0.086085 255 0 255
-0.202322 -0.240977 -0.171671 255 0 255
-0.060293 -0.196820 -0.104095 255 0 255
-0.097353 -0.223550 -0.106297 255 0 255
-0.136445 -0.207061 -0.105805 255 0 255
-0.107009 -0.158072 -0.107085 255 0 255
-0.134768 -0.201069 -0.158085 255 0 255
-0.070284 -0.149374 -0.152085 255 0 255
-0.168283 -0.117933 -0.185085 255 0 255
-0.060061 -0.114886 -0.176085 255 0 255
-0.090966 -0.218745 -0.146085 255 0 255
-0.057699 -0.163380 -0.107445 255 0 255
-0.015786 -0.163522 -0.116085 255 0 255
-0.134878 -0.169505 -0.180498 255 0 255
-0.101785 -0.154390 -0.140085 255 0 255
-0.060421 -0.278578 -0.176085 255 0 255
-0.193291 -0.176405 -0.185085 255 0 255
-0.151918 -0.267762 -0.171634 255 0 255
-0.180483 -0.210455 -0.179085 255 0 255
-0.115617 -0.146079 -0.179085 255 0 255
-0.167281 -0.153534 -0.171973 255 0 255
-0.135871 -0.112909 -0.186339 255 0 255
-0.082918 -0.176225 -0.111162 255 0 255
-0.151723 -0.197881 -0.128085 255 0 255
-0.009868 -0.188619 -0.125865 255 0 255
-0.065415 -0.158743 -0.177330 255 0 255
-0.086314 -0.107686 -0.173085 255 0 255
-0.174543 -0.247168 -0.171655 255 0 255
-0.081083 -0.222828 -0.179085 255 0 255
-0.046679 -0.219000 -0.110085 255 0 255
-0.108191 -0.276536 -0.171579 255 0 255
-0.148277 -0.203453 -0.180528 255 0 255
-0.109638 -0.121672 -0.171846 255 0 255
-0.025701 -0.185848 -0.173085 255 0 255
-0.035403 -0.231117 -0.179085 255 0 255
-0.047942 -0.225241 -0.143085 255 0 255
-0.005740 -0.170100 -0.171355 255 0 255
-0.081573 -0.317030 -0.185085 255 0 255
-0.145950 -0.222350 -0.125085 255 0 255
-0.130287 -0.231761 -0.172419 255 0 255
-0.128582 -0.176787 -0.155085 255 0 255
-0.084276 -0.201784 -0.110085 255 0 255
-0.115087 -0.191896 -0.113085 255 0 255
-0.160588 -0.290552 -0.176085 255 0 255
-0.058782 -0.246726 -0.177184 255 0 255
-0.003453 -0.139976 -0.110085 255 0 255
-0.142074 -0.222254 -0.149085 255 0 255
-0.104334 -0.173858 -0.125085 255 0 255
-0.103027 -0.244641 -0.171395 255 0 255
-0.066128 -0.154107 -0.128085 255 0 255
-0.120695 -0.227446 -0.110085 255 0 255
-0.122273 -0.189300 -0.176085 255 0 255
-0.089596 -0.158214 -0.177553 255 0 255
-0.015359 -0.153821 -0.092085 255 0 255
-0.057583 -0.169009 -0.158085 255 0 255
-0.043574 -0.206866 -0.176085 255 0 255
-0.091528 -0.143958 -0.158085 255 0 255
-0.198195 -0.222458 -0.186479 255 0 255
-0.070083 -0.218937 -0.104782 255 0 255
-0.083934 -0.154616 -0.104728 255 0 255
-0.111293 -0.299173 -0.180582 255 0 255
-0.034377 -0.165338 -0.176085 255 0 255
-0.013735 -0.182796 -0.104085 255 0 255
-0.112982 -0.224659 -0.155085 255 0 255
-0.123813 -0.172652 -0.107085 255 0 255
-0.082465 -0.274494 -0.171435 255 0 255
-0.068775 -0.219722 -0.149085 255 0 255
-0.176529 -0.133978 -0.171898 255 0 255
-0.151819 -0.110326 -0.172055 255 0 255
-0.086278 -0.219706 -0.125085 255 0 255
-0.107869 -0.176976 -0.146085 255 0 255
-0.194574 -0.193134 -0.171670 255 0 255
-0.131020 -0.198032 -0.134085 255 0 255
-0.143674 -0.248217 -0.171046 255 0 255
-0.013259 -0.194264 -0.086085 255 0 255
-0.080988 -0.135387 -0.140085 255 0 255
-0.167838 -0.224359 -0.164085 255 0 255
-0.167764 -0.224236 -0.128085 255 0 255
-0.188438 -0.252819 -0.186338 255 0 255
-0.203842 -0.163065 -0.173085 255 0 255
-0.155639 -0.202529 -0.161085 255 0 255
-0.086248 -0.158468 -0.125085 255 0 255
-0.043755 -0.185757 -0.110085 255 0 255
-0.130828 -0.273436 -0.172717 255 0 255
-0.138755 -0.188174 -0.113085 255 0 255
-0.005619 -0.149174 -0.128085 255 0 255
-0.074144 -0.132499 -0.164390 255 0 255
-0.169666 -0.262350 -0.185085 255 0 255
-0.144149 -0.184933 -0.171756 255 0 255
-0.185337 -0.230182 -0.171542 255 0 255
-0.154943 -0.167948 -0.180564 255 0 255
-0.146268 -0.281657 -0.186422 255 0 255
-0.184266 -0.164328 -0.171642 255 0 255
-0.126330 -0.129142 -0.179085 255 0 255
-0.210299 -0.184355 -0.179085 255 0 255
-0.155216 -0.202783 -0.107085 255 0 255
-0.094710 -0.224975 -0.164085 255 0 255
-0.105082 -0.224762 -0.125085 255 0 255
-0.104625 -0.206527 -0.101085 255 0 255
-0.141927 -0.216186 -0.167085 255 0 255
-0.115839 -0.166944 -0.180568 255 0 255
-0.152404 -0.221972 -0.106331 255 0 255
-0.104528 -0.177241 -0.106489 255 0 255
-0.001382 -0.165719 -0.104085 255 0 255
-0.016950 -0.130510 -0.101085 255 0 255
-0.107855 -0.157741 -0.158085 255 0 255
-0.067354 -0.147078 -0.110085 255 0 255
-0.105609 -0.260589 -0.180584 255 0 255
-0.064399 -0.180353 -0.111416 255 0 255
-0.159037 -0.133989 -0.180562 255 0 255
-0.089864 -0.161552 -0.152085 255 0 255
-0.132295 -0.153557 -0.171816 255 0 255
-0.142350 -0.189514 -0.146085 255 0 255
-0.068052 -0.262156 -0.171192 255 0 255
-0.002951 -0.168276 -0.128085 255 0 255
-0.074210 -0.237456 -0.170870 255 0 255
-0.161971 -0.214594 -0.179085 255 0 255
-0.177081 -0.193145 -0.180547 255 0 255
-0.196131 -0.213198 -0.171409 255 0 255
-0.065096 -0.164039 -0.143085 255 0 255
-0.151568 -0.150681 -0.179085 255 0 255
-0.178593 -0.143237 -0.186534 255 0 255
-0.096122 -0.147293 -0.116085 255 0 255
-0.158595 -0.249751 -0.180562 255 0 255
-0.115884 -0.236915 -0.180466 255 0 255
-0.075966 -0.120905 -0.179085 255 0 255
-0.012791 -0.205134 -0.122085 255 0 255
-0.121774 -0.191377 -0.149085 255 0 255
-0.143435 -0.209861 -0.137085 255 0 255
-0.120497 -0.209644 -0.111297 255 0 255
-0.049533 -0.266284 -0.180544 255 0 255
-0.073099 -0.290622 -0.176085 255 0 255
-0.082929 -0.193719 -0.095375 255 0 255
-0.167358 -0.275984 -0.171083 255 0 255
-0.131821 -0.216840 -0.180517 255 0 255
-0.042798 -0.202652 -0.110085 255 0 255
-0.049658 -0.225718 -0.125085 255 0 255
-0.078140 -0.147597 -0.170085 255 0 255
-0.162245 -0.209226 -0.122085 255 0 255
-0.081190 -0.152765 -0.140085 255 0 255
-0.114416 -0.164300 -0.134085 255 0 255
-0.080580 -0.230581 -0.110085 255 0 255
-0.097714 -0.191835 -0.110085 255 0 255
-0.114580 -0.185200 -0.131085 255 0 255
-0.015145 -0.167949 -0.158085 255 0 255
-0.088373 -0.237729 -0.179085 255 0 255
-0.062888 -0.230261 -0.180523 255 0 255
-0.170603 -0.232037 -0.179085 255 0 255
-0.075104 -0.221468 -0.164085 255 0 255
-0.120949 -0.111375 -0.177176 255 0 255
-0.051012 -0.163898 -0.171980 255 0 255
-0.100908 -0.147917 -0.172229 255 0 255
-0.121887 -0.217780 -0.167085 255 0 255
-0.017374 -0.145610 -0.116085 255 0 255
-0.136638 -0.224857 -0.110085 255 0 255
-0.150477 -0.119743 -0.185085 255 0 255
-0.177071 -0.175652 -0.180571 255 0 255
-0.051375 -0.234401 -0.110085 255 0 255
-0.119515 -0.283733 -0.180463 255 0 255
-0.208575 -0.223220 -0.173085 255 0 255
-0.057824 -0.170304 -0.122085 255 0 255
-0.137771 -0.206265 -0.122085 255 0 255
-0.078005 -0.226297 -0.137085 255 0 255
-0.139313 -0.261337 -0.179085 255 0 255
-0.091629 -0.144124 -0.131085 255 0 255
-0.193306 -0.158896 -0.185085 255 0 255
-0.200237 -0.196731 -0.186489 255 0 255
-0.188957 -0.259507 -0.171940 255 0 255
-0.021764 -0.225894 -0.173085 255 0 255
-0.108547 -0.218879 -0.140085 255 0 255
-0.162679 -0.198298 -0.177409 255 0 255
-0.094716 -0.120139 -0.177330 255 0 255
-0.134845 -0.117025 -0.171321 255 0 255
-0.145242 -0.285774 -0.171405 255 0 255
-0.095842 -0.273457 -0.180584 255 0 255
-0.118887 -0.168613 -0.164085 255 0 255
-0.043860 -0.245193 -0.170835 255 0 255
-0.126149 -0.219051 -0.149085 255 0 255
-0.189239 -0.236677 -0.185085 255 0 255
-0.153420 -0.200362 -0.145766 255 0 255
-0.103213 -0.134278 -0.179085 255 0 255
-0.161224 -0.277424 -0.185085 255 0 255
-0.015204 -0.168376 -0.098085 255 0 255
-0.181684 -0.148380 -0.171600 255 0 255
-0.072621 -0.164913 -0.111464 255 0 255
-0.027686 -0.244412 -0.179085 255 0 255
-0.115058 -0.183117 -0.161085 255 0 255
-0.094230 -0.165928 -0.111227 255 0 255
-0.092233 -0.261626 -0.170811 255 0 255
-0.104667 -0.156157 -0.125085 255 0 255
-0.117037 -0.166224 -0.119085 255 0 255
-0.039711 -0.191687 -0.172751 255 0 255
-0.134769 -0.201069 -0.173085 255 0 255
-0.156062 -0.222234 -0.155085 255 0 255
-0.162116 -0.121639 -0.172047 255 0 255
-0.155978 -0.222096 -0.140085 255 0 255
-0.099705 -0.288635 -0.185085 255 0 255
-0.014923 -0.179559 -0.086085 255 0 255
-0.164776 -0.260037 -0.171310 255 0 255
-0.001898 -0.154909 -0.086085 255 0 255
-0.198680 -0.176667 -0.171403 255 0 255
-0.127175 -0.191632 -0.104978 255 0 255
-0.101912 -0.108815 -0.171751 255 0 255
-0.068952 -0.321901 -0.179085 255 0 255
-0.057214 -0.209170 -0.111333 255 0 255
-0.097098 -0.167705 -0.137085 255 0 255
-0.032007 -0.213816 -0.170534 255 0 255
-0.133896 -0.243593 -0.180553 255 0 255
-0.128525 -0.217179 -0.122085 255 0 255
-0.072124 -0.193210 -0.111257 255 0 255
-0.061573 -0.228073 -0.140085 255 0 255
-0.117710 -0.269077 -0.179085 255 0 255
-0.013580 -0.165389 -0.137085 255 0 255
-0.178832 -0.129095 -0.185085 255 0 255
-0.101990 -0.231265 -0.177372 255 0 255
-0.126001 -0.192338 -0.122085 255 0 255
-0.086031 -0.216354 -0.111410 255 0 255
-0.002929 -0.150790 -0.101085 255 0 255
-0.113366 -0.192929 -0.098085 255 0 255
-0.139124 -0.188222 -0.128085 255 0 255
-0.118814 -0.168656 -0.149085 255 0 255
-0.130448 -0.179605 -0.170085 255 0 255
-0.085467 -0.139695 -0.106306 255 0 255
-0.066595 -0.231532 -0.110085 255 0 255
-0.029785 -0.201152 -0.176085 255 0 255
-0.102542 -0.290431 -0.171544 255 0 255
-0.041244 -0.176766 -0.172046 255 0 255
-0.013530 -0.193418 -0.113085 255 0 255
-0.132803 -0.142751 -0.180580 255 0 255
-0.111484 -0.180061 -0.179085 255 0 255
-0.049264 -0.227946 -0.179085 255 0 255
-0.073179 -0.142543 -0.131085 255 0 255
-0.014468 -0.175356 -0.125085 255 0 255
-0.108482 -0.218770 -0.113085 255 0 255
-0.141354 -0.226882 -0.179085 255 0 255
-0.068119 -0.160618 -0.161085 255 0 255
-0.161599 -0.226947 -0.116085 255 0 255
-0.003549 -0.174917 -0.116085 255 0 255
-0.003474 -0.157462 -0.116085 255 0 255
-0.004524 -0.135832 -0.131085 255 0 255
-0.082026 -0.227164 -0.152085 255 0 255
-0.147736 -0.161779 -0.170775 255 0 255
-0.091113 -0.184040 -0.101085 255 0 255
-0.165747 -0.168456 -0.172399 255 0 255
-0.056662 -0.150003 -0.171803 255 0 255
-0.055902 -0.183686 -0.122085 255 0 255
-0.094253 -0.200914 -0.092851 255 0 255
-0.132426 -0.223671 -0.161085 255 0 255
-0.163220 -0.239973 -0.171089 255 0 255
-0.187919 -0.246131 -0.172142 255 0 255
-0.100919 -0.165409 -0.177377 255 0 255
-0.086855 -0.156360 -0.164085 255 0 255
-0.113777 -0.157684 -0.171119 255 0 255
-0.206395 -0.172032 -0.182691 255 0 255
-0.095253 -0.225879 -0.134085 255 0 255
-0.134944 -0.222037 -0.137085 255 0 255
-0.156168 -0.222411 -0.170085 255 0 255
-0.145980 -0.193807 -0.158085 255 0 255
-0.049969 -0.173814 -0.110085 255 0 255
-0.184277 -0.181821 -0.171374 255 0 255
-0.120271 -0.223780 -0.179085 255 0 255
-0.005232 -0.180905 -0.135413 255 0 255
-0.015619 -0.139945 -0.092085 255 0 255
-0.149195 -0.213401 -0.116085 255 0 255
-0.132589 -0.181379 -0.143085 255 0 255
-0.095144 -0.219872 -0.176085 255 0 255
-0.059512 -0.221789 -0.116085 255 0 255
-0.177060 -0.158159 -0.180512 255 0 255
-0.072687 -0.269870 -0.180528 255 0 255
-0.134889 -0.186997 -0.180583 255 0 255
-0.076857 -0.151868 -0.119085 255 0 255
-0.153408 -0.182870 -0.180570 255 0 255
-0.100653 -0.170791 -0.155085 255 0 255
-0.126003 -0.192337 -0.164085 255 0 255
-0.141025 -0.127311 -0.180560 255 0 255
-0.188405 -0.200340 -0.180451 255 0 255
-0.149314 -0.216829 -0.180527 255 0 255
-0.072157 -0.245689 -0.180569 255 0 255
-0.201803 -0.234288 -0.182672 255 0 255
-0.078077 -0.139044 -0.152085 255 0 255
-0.133682 -0.284009 -0.185085 255 0 255
-0.084529 -0.283754 -0.180565 255 0 255
-0.143483 -0.209833 -0.152085 255 0 255
-0.120520 -0.244630 -0.171303 255 0 255
-0.095312 -0.249276 -0.180554 255 0 255
-0.113324 -0.255953 -0.171123 255 0 255
-0.053739 -0.226687 -0.155085 255 0 255
-0.073162 -0.206587 -0.105953 255 0 255
-0.055702 -0.259076 -0.170737 255 0 255
-0.201274 -0.210107 -0.186435 255 0 255
-0.016298 -0.149756 -0.104085 255 0 255
-0.117463 -0.291965 -0.171009 255 0 255
-0.164248 -0.211356 -0.164085 255 0 255
-0.097343 -0.206057 -0.111425 255 0 255
-0.159698 -0.207090 -0.137085 255 0 255
-0.146754 -0.235867 -0.171628 255 0 255
-0.075009 -0.221311 -0.119085 255 0 255
-0.175028 -0.201377 -0.171341 255 0 255
-0.148740 -0.122676 -0.171869 255 0 255
-0.136832 -0.185830 -0.161085 255 0 255
-0.148671 -0.196216 -0.116085 255 0 255
-0.014079 -0.165089 -0.086085 255 0 255
-0.101536 -0.224687 -0.149085 255 0 255
-0.182203 -0.263565 -0.185085 255 0 255
-0.104311 -0.217655 -0.161085 255 0 255
-0.066938 -0.126330 -0.172435 255 0 255
-0.118693 -0.224727 -0.122085 255 0 255
-0.113246 -0.133504 -0.171197 255 0 255
-0.193006 -0.155576 -0.171953 255 0 255
-0.093789 -0.281691 -0.171325 255 0 255
-0.177126 -0.263116 -0.171688 255 0 255
-0.167788 -0.142730 -0.180481 255 0 255
-0.187390 -0.221950 -0.180510 255 0 255
-0.173237 -0.274118 -0.185085 255 0 255
-0.094705 -0.102645 -0.180521 255 0 255
-0.003909 -0.172878 -0.158085 255 0 255
-0.093718 -0.145237 -0.146085 255 0 255
-0.133296 -0.198454 -0.146085 255 0 255
-0.111571 -0.180009 -0.116085 255 0 255
-0.068871 -0.152846 -0.140085 255 0 255
-0.003947 -0.137992 -0.098085 255 0 255
-0.123036 -0.155621 -0.180528 255 0 255
-0.130730 -0.178996 -0.116085 255 0 255
-0.149552 -0.195687 -0.170085 255 0 255
-0.042259 -0.155157 -0.177540 255 0 255
-0.016811 -0.131949 -0.113085 255 0 255
-0.197698 -0.250755 -0.178878 255 0 255
-0.040759 -0.222557 -0.172440 255 0 255
-0.206924 -0.196213 -0.171930 255 0 255
-0.061447 -0.169616 -0.170085 255 0 255
-0.122522 -0.173428 -0.137085 255 0 255
-0.084430 -0.126319 -0.171233 255 0 255
-0.013547 -0.193408 -0.098085 255 0 255
-0.143640 -0.195738 -0.105130 255 0 255
-0.083102 -0.188183 -0.110085 255 0 255
-0.013000 -0.205483 -0.092085 255 0 255
-0.133388 -0.254397 -0.171234 255 0 255
-0.155528 -0.279593 -0.171310 255 0 255
-0.124592 -0.175685 -0.180559 255 0 255
-0.109175 -0.202449 -0.111398 255 0 255
-0.124570 -0.140699 -0.172138 255 0 255
-0.197168 -0.226574 -0.171746 255 0 255
-0.187334 -0.134486 -0.176969 255 0 255
-0.172469 -0.220416 -0.177105 255 0 255
-0.156985 -0.142222 -0.172227 255 0 255
-0.095619 -0.165094 -0.164085 255 0 255
-0.091329 -0.146673 -0.179085 255 0 255
-0.118422 -0.182891 -0.105328 255 0 255
-0.142854 -0.273209 -0.179085 255 0 255
-0.015518 -0.174725 -0.112763 255 0 255
-0.130552 -0.200103 -0.113085 255 0 255
-0.115366 -0.230227 -0.170737 255 0 255
-0.171153 -0.217706 -0.119085 255 0 255
-0.152890 -0.176181 -0.171077 255 0 255
-0.015604 -0.129174 -0.086085 255 0 255
-0.097637 -0.218197 -0.119085 255 0 255
-0.112805 -0.249265 -0.180563 255 0 255
-0.055657 -0.189105 -0.111381 255 0 255
-0.064847 -0.157799 -0.116085 255 0 255
-0.070635 -0.278104 -0.170896 255 0 255
-0.095570 -0.165123 -0.125085 255 0 255
-0.113268 -0.168489 -0.105488 255 0 255
-0.129217 -0.165907 -0.171233 255 0 255
-0.087090 -0.264716 -0.180539 255 0 255
-0.074867 -0.133703 -0.176085 255 0 255
-0.081190 -0.152765 -0.152085 255 0 255
-0.052601 -0.236441 -0.172248 255 0 255
-0.202258 -0.153497 -0.179085 255 0 255
-0.064680 -0.227419 -0.158085 255 0 255
-0.086766 -0.138915 -0.167085 255 0 255
-0.066222 -0.221256 -0.173085 255 0 255
-0.096780 -0.129398 -0.171115 255 0 255
-0.110145 -0.110867 -0.180524 255 0 255
-0.060790 -0.168522 -0.133677 255 0 255
-0.171290 -0.218455 -0.137085 255 0 255
-0.173309 -0.121913 -0.173085 255 0 255
-0.044379 -0.251881 -0.180550 255 0 255
-0.121816 -0.191352 -0.137085 255 0 255
-0.029968 -0.175473 -0.173085 255 0 255
-0.089650 -0.245678 -0.171274 255 0 255
-0.140747 -0.158978 -0.179085 255 0 255
-0.108845 -0.160648 -0.146085 255 0 255
-0.100769 -0.151500 -0.152085 255 0 255
-0.055680 -0.224091 -0.105851 255 0 255
-0.140540 -0.173102 -0.171593 255 0 255
-0.013962 -0.154660 -0.122597 255 0 255
-0.147273 -0.242555 -0.180508 255 0 255
-0.059511 -0.221789 -0.131085 255 0 255
-0.168881 -0.243570 -0.180520 255 0 255
-0.084496 -0.231276 -0.170907 255 0 255
-0.172577 -0.220595 -0.152085 255 0 255
-0.058310 -0.173512 -0.146085 255 0 255
-0.175062 -0.253857 -0.180461 255 0 255
-0.197422 -0.186223 -0.182085 255 0 255
-0.127704 -0.215813 -0.105633 255 0 255
-0.083168 -0.162076 -0.113085 255 0 255
-0.114581 -0.185199 -0.143085 255 0 255
-0.150596 -0.259737 -0.179085 255 0 255
-0.179469 -0.240709 -0.179085 255 0 255
-0.116325 -0.121153 -0.180572 255 0 255
-0.050250 -0.118856 -0.179085 255 0 255
-0.069751 -0.110640 -0.179085 255 0 255
-0.159899 -0.266467 -0.179085 255 0 255
-0.168297 -0.131925 -0.186421 255 0 255
-0.012924 -0.141284 -0.125857 255 0 255
-0.072964 -0.143708 -0.161085 255 0 255
-0.005000 -0.133920 -0.119085 255 0 255
-0.061104 -0.268068 -0.179085 255 0 255
-0.181728 -0.218352 -0.171603 255 0 255
-0.004480 -0.144706 -0.089085 255 0 255
-0.146451 -0.194589 -0.137085 255 0 255
-0.159844 -0.207003 -0.152085 255 0 255
-0.094739 -0.155124 -0.105955 255 0 255
-0.163683 -0.159196 -0.180521 255 0 255
-0.072039 -0.140763 -0.143085 255 0 255
-0.130320 -0.284240 -0.171741 255 0 255
-0.162947 -0.210396 -0.107085 255 0 255
-0.118434 -0.200385 -0.106037 255 0 255
-0.070953 -0.220386 -0.131085 255 0 255
-0.030981 -0.217933 -0.180513 255 0 255
-0.063406 -0.236948 -0.171559 255 0 255
-0.123013 -0.120635 -0.171944 255 0 255
-0.068560 -0.251351 -0.171615 255 0 255
-0.092697 -0.180850 -0.111573 255 0 255
-0.078857 -0.262664 -0.170773 255 0 255
-0.165726 -0.133470 -0.171548 255 0 255
-0.118997 -0.277044 -0.171364 255 0 255
-0.102011 -0.266251 -0.171046 255 0 255
-0.034082 -0.240568 -0.171069 255 0 255
-0.102519 -0.255446 -0.171217 255 0 255
-0.142582 -0.147376 -0.171727 255 0 255
-0.053075 -0.173158 -0.177364 255 0 255
-0.144667 -0.191621 -0.180567 255 0 255
-0.133310 -0.131947 -0.171361 255 0 255
-0.073658 -0.178289 -0.106059 255 0 255
-0.067866 -0.151175 -0.170085 255 0 255
-0.086132 -0.219793 -0.170085 255 0 255
-0.118642 -0.101710 -0.173085 255 0 255
-0.110401 -0.289209 -0.185085 255 0 255
-0.049004 -0.242103 -0.180584 255 0 255
-0.124648 -0.263149 -0.172144 255 0 255
-0.136964 -0.213750 -0.114527 255 0 255
-0.183770 -0.192626 -0.172263 255 0 255
-0.106569 -0.151515 -0.180521 255 0 255
-0.023556 -0.236394 -0.173085 255 0 255
-0.137754 -0.215065 -0.128085 255 0 255
-0.157122 -0.224000 -0.128085 255 0 255
-0.153452 -0.252841 -0.171497 255 0 255
-0.088113 -0.225643 -0.116085 255 0 255
-0.067986 -0.157199 -0.105914 255 0 255
-0.146179 -0.141714 -0.180552 255 0 255
-0.166265 -0.175144 -0.180538 255 0 255
-0.048084 -0.197156 -0.176085 255 0 255
-0.145472 -0.222086 -0.137085 255 0 255
-0.044898 -0.258569 -0.171541 255 0 255
-0.093504 -0.199668 -0.104085 255 0 255
-0.075389 -0.140395 -0.110085 255 0 255
-0.004113 -0.164078 -0.092085 255 0 255
-0.086231 -0.219734 -0.158085 255 0 255
-0.209953 -0.212903 -0.173085 255 0 255
-0.170404 -0.211156 -0.172453 255 0 255
-0.061602 -0.257247 -0.179085 255 0 255
-0.191272 -0.167118 -0.179085 255 0 255
-0.198183 -0.204964 -0.177385 255 0 255
-0.210164 -0.194266 -0.182085 255 0 255
-0.105587 -0.225603 -0.167556 255 0 255
-0.115874 -0.219422 -0.105822 255 0 255
-0.117362 -0.134530 -0.180558 255 0 255
-0.078609 -0.233128 -0.179085 255 0 255
-0.173991 -0.188001 -0.172245 255 0 255
-0.076424 -0.153769 -0.131085 255 0 255
-0.187368 -0.186964 -0.180528 255 0 255
-0.086277 -0.219707 -0.137085 255 0 255
-0.094274 -0.235900 -0.170985 255 0 255
-0.184774 -0.153523 -0.186518 255 0 255
-0.163728 -0.229168 -0.172066 255 0 255
-0.142626 -0.217348 -0.106738 255 0 255
-0.107869 -0.176977 -0.134085 255 0 255
-0.035075 -0.183974 -0.177453 255 0 255
-0.186353 -0.208574 -0.171047 255 0 255
-0.207454 -0.220394 -0.182938 255 0 255
-0.004482 -0.144707 -0.119085 255 0 255
-0.117709 -0.216654 -0.128085 255 0 255
-0.072180 -0.280674 -0.180546 255 0 255
-0.163947 -0.223709 -0.146085 255 0 255
-0.076704 -0.113461 -0.172317 255 0 255
-0.105819 -0.183465 -0.098085 255 0 255
-0.145130 -0.110846 -0.179563 255 0 255
-0.157760 -0.114389 -0.179085 255 0 255
-0.065097 -0.164041 -0.125085 255 0 255
-0.146184 -0.217445 -0.158085 255 0 255
-0.149249 -0.213367 -0.128085 255 0 255
-0.124610 -0.292210 -0.182085 255 0 255
-0.063223 -0.160061 -0.152085 255 0 255
-0.095540 -0.217640 -0.155085 255 0 255
-0.192014 -0.212171 -0.180528 255 0 255
-0.089906 -0.161527 -0.134085 255 0 255
-0.107166 -0.280653 -0.180565 255 0 255
-0.112717 -0.109323 -0.170725 255 0 255
-0.142042 -0.291196 -0.179085 255 0 255
-0.107842 -0.176932 -0.158085 255 0 255
-0.059764 -0.172639 -0.104548 255 0 255
-0.131083 -0.215612 -0.170085 255 0 255
-0.049489 -0.196312 -0.106441 255 0 255
-0.117739 -0.216702 -0.143085 255 0 255
-0.057523 -0.221333 -0.146085 255 0 255
-0.144657 -0.174129 -0.180503 255 0 255
-0.154903 -0.284380 -0.182085 255 0 255
-0.208282 -0.175171 -0.173085 255 0 255
-0.159545 -0.123184 -0.183376 255 0 255
-0.089375 -0.140846 -0.122085 255 0 255
-0.087509 -0.113969 -0.180562 255 0 255
-0.011373 -0.166716 -0.149085 255 0 255
-0.099097 -0.150730 -0.131085 255 0 255
-0.127738 -0.268292 -0.180479 255 0 255
-0.155401 -0.202672 -0.119085 255 0 255
-0.152437 -0.274450 -0.180524 255 0 255
-0.129702 -0.120116 -0.180580 255 0 255
-0.089640 -0.228186 -0.180539 255 0 255
-0.106420 -0.270602 -0.179085 255 0 255
-0.175051 -0.236363 -0.171591 255 0 255
-0.132124 -0.182395 -0.107085 255 0 255
-0.103815 -0.199353 -0.092085 255 0 255
-0.153694 -0.194995 -0.179085 255 0 255
-0.150031 -0.130649 -0.179085 255 0 255
-0.006247 -0.159295 -0.126432 255 0 255
-0.085609 -0.227302 -0.131085 255 0 255
-0.142648 -0.252334 -0.180471 255 0 255
-0.147623 -0.210845 -0.173085 255 0 255
-0.124885 -0.240246 -0.179085 255 0 255
-0.073636 -0.143303 -0.177496 255 0 255
-0.110036 -0.159932 -0.116085 255 0 255
-0.139764 -0.206759 -0.164085 255 0 255
-0.093034 -0.145648 -0.107085 255 0 255
-0.148795 -0.210141 -0.104972 255 0 255
-0.125557 -0.175105 -0.146085 255 0 255
-0.084971 -0.167992 -0.105707 255 0 255
-0.137754 -0.215066 -0.143085 255 0 255
-0.104969 -0.155976 -0.167085 255 0 255
-0.112416 -0.225319 -0.134085 255 0 255
-0.133050 -0.216101 -0.155085 255 0 255
-0.098866 -0.173644 -0.114584 255 0 255
-0.156995 -0.159715 -0.171931 255 0 255
-0.043297 -0.168534 -0.177337 255 0 255
-0.109195 -0.237434 -0.172317 255 0 255
-0.174499 -0.177196 -0.171526 255 0 255
-0.153960 -0.242037 -0.172473 255 0 255
-0.103711 -0.123459 -0.179085 255 0 255
-0.158043 -0.190584 -0.171379 255 0 255
-0.167315 -0.206013 -0.180518 255 0 255
-0.106592 -0.186501 -0.111228 255 0 255
-0.080369 -0.212757 -0.104668 255 0 255
-0.161663 -0.219908 -0.105682 255 0 255
-0.155946 -0.128846 -0.171239 255 0 255
-0.174488 -0.159704 -0.171423 255 0 255
-0.095290 -0.214290 -0.105774 255 0 255
-0.162713 -0.250778 -0.171939 255 0 255
-0.082145 -0.138191 -0.131085 255 0 255
-0.074686 -0.226599 -0.146085 255 0 255
-0.080390 -0.247742 -0.171694 255 0 255
-0.091726 -0.272431 -0.171803 255 0 255
-0.107077 -0.140710 -0.171597 255 0 255
-0.092189 -0.191655 -0.093202 255 0 255
-0.137494 -0.237931 -0.171921 255 0 255
-0.135493 -0.183135 -0.152085 255 0 255
-0.192544 -0.236352 -0.171760 255 0 255
-0.065955 -0.200418 -0.111440 255 0 255
-0.121147 -0.170755 -0.128085 255 0 255
-0.102464 -0.167981 -0.106676 255 0 255
-0.200744 -0.185926 -0.171731 255 0 255
-0.105598 -0.243095 -0.180511 255 0 255
-0.031500 -0.224621 -0.172314 255 0 255
-0.070624 -0.260610 -0.180583 255 0 255
-0.088094 -0.225614 -0.106363 255 0 255
-0.157154 -0.205119 -0.170085 255 0 255
-0.100886 -0.112931 -0.180569 255 0 255
-0.021721 -0.219997 -0.180559 255 0 255
-0.042823 -0.231817 -0.172482 255 0 255
-0.098855 -0.156150 -0.177517 255 0 255
-0.131325 -0.245137 -0.171219 255 0 255
-0.125100 -0.164880 -0.180523 255 0 255
-0.161675 -0.237400 -0.180520 255 0 255
-0.088380 -0.158944 -0.143085 255 0 255
-0.170890 -0.165366 -0.180573 255 0 255
-0.181750 -0.253338 -0.172113 255 0 255
-0.108634 -0.160774 -0.180516 255 0 255
-0.161620 -0.149936 -0.180576 255 0 255
-0.015004 -0.161034 -0.104085 255 0 255
-0.118811 -0.186158 -0.122085 255 0 255
-0.194608 -0.245612 -0.186200 255 0 255
-0.071995 -0.228287 -0.170085 255 0 255
-0.062421 -0.206041 -0.104085 255 0 255
-0.064950 -0.239520 -0.180518 255 0 255
-0.080195 -0.296859 -0.176085 255 0 255
-0.022728 -0.194892 -0.176085 255 0 255
-0.124078 -0.172494 -0.119085 255 0 255
-0.091804 -0.225964 -0.152085 255 0 255
-0.121839 -0.223526 -0.158085 255 0 255
-0.200310 -0.165188 -0.185085 255 0 255
-0.066463 -0.189613 -0.104662 255 0 255
-0.119945 -0.150478 -0.171989 255 0 255
-0.011738 -0.174258 -0.134085 255 0 255
-0.085917 -0.226923 -0.143085 255 0 255
-0.171906 -0.143756 -0.172122 255 0 255
-0.136997 -0.266228 -0.171447 255 0 255
-0.103209 -0.153534 -0.116085 255 0 255
-0.013893 -0.165202 -0.125085 255 0 255
-0.135385 -0.222771 -0.119085 255 0 255
-0.086624 -0.201999 -0.098085 255 0 255
-0.064421 -0.215339 -0.111512 255 0 255
-0.079617 -0.150209 -0.161085 255 0 255
-0.168330 -0.184403 -0.180479 255 0 255
-0.089054 -0.116541 -0.170896 255 0 255
-0.108125 -0.171579 -0.177334 255 0 255
-0.140010 -0.148921 -0.180515 255 0 255
-0.117239 -0.183604 -0.170085 255 0 255
-0.133190 -0.198518 -0.125085 255 0 255
-0.098917 -0.150429 -0.161085 255 0 255
-0.133388 -0.254397 -0.180571 255 0 255
-0.097130 -0.263952 -0.179085 255 0 255
-0.098626 -0.170288 -0.146085 255 0 255
-0.173753 -0.149646 -0.179085 255 0 255
-0.113054 -0.182617 -0.152085 255 0 255
-0.081417 -0.243626 -0.180524 255 0 255
-0.001935 -0.172386 -0.137085 255 0 255
-0.114870 -0.258525 -0.180506 255 0 255
-0.050796 -0.221787 -0.134085 255 0 255
-0.180380 -0.227759 -0.179085 255 0 255
-0.093777 -0.145202 -0.167085 255 0 255
-0.068338 -0.221858 -0.140085 255 0 255
-0.073768 -0.155172 -0.176085 255 0 255
-0.051066 -0.251363 -0.172463 255 0 255
-0.193345 -0.228871 -0.182085 255 0 255
-0.152843 -0.221708 -0.119085 255 0 255
-0.131314 -0.227645 -0.180536 255 0 255
-0.081959 -0.285299 -0.171917 255 0 255
-0.173563 -0.280486 -0.176085 255 0 255
-0.112951 -0.217679 -0.164085 255 0 255
-0.013466 -0.182957 -0.116162 255 0 255
-0.157231 -0.206705 -0.179085 255 0 255
-0.003448 -0.166285 -0.119085 255 0 255
-0.115388 -0.265213 -0.171137 255 0 255
