ply
format ascii 1.0
element vertex 1202
property float x
property float y
property float z
property uchar red
property uchar green
property uchar blue
end_header
-0.159361 -0.516573 -0.027670 0 255 255
-0.027597 -0.485332 -0.034599 0 255 255
-0.015397 -0.473366 -0.039180 0 255 255
-0.125693 -0.530065 -0.026582 0 255 255
-0.134347 -0.491837 -0.015670 0 255 255
-0.191812 -0.435237 -0.034161 0 255 255
-0.060703 -0.485342 0.105946 0 255 255
-0.112361 -0.477813 0.050330 0 255 255
-0.046944 -0.432175 -0.030126 0 255 255
-0.048127 -0.519893 -0.044650 0 255 255
-0.059642 -0.393152 -0.044635 0 255 255
-0.215620 -0.415309 -0.052513 0 255 255
-0.126869 -0.425799 -0.013670 0 255 255
-0.087763 -0.474930 0.040330 0 255 255
-0.037270 -0.458753 -0.040644 0 255 255
-0.161935 -0.546267 -0.046561 0 255 255
-0.192872 -0.527428 -0.050590 0 255 255
-0.131193 -0.463505 0.024330 0 255 255
-0.096668 -0.492845 0.050330 0 255 255
-0.209693 -0.435726 -0.040188 0 255 255
-0.176792 -0.559199 -0.044258 0 255 255
-0.061772 -0.544424 -0.037571 0 255 255
-0.146467 -0.555687 -0.038492 0 255 255
-0.005366 -0.480250 -0.043438 0 255 255
-0.060457 -0.494282 -0.024228 0 255 255
-0.086897 -0.489459 0.078330 0 255 255
-0.160660 -0.363701 -0.044312 0 255 255
-0.131600 -0.575859 -0.043613 0 255 255
-0.045874 -0.373091 -0.045221 0 255 255
-0.090041 -0.557724 -0.037792 0 255 255
-0.091193 -0.482157 0.058330 0 255 255
-0.116683 -0.450411 0.052330 0 255 255
-0.111680 -0.518945 -0.021909 0 255 255
-0.116180 -0.419750 -0.026666 0 255 255
-0.032941 -0.387948 -0.052663 0 255 255
-0.087870 -0.444222 0.014330 0 255 255
-0.161710 -0.488996 -0.032627 0 255 255
-0.056618 -0.405596 -0.033337 0 255 255
-0.180345 -0.396450 -0.038855 0 255 255
-0.072287 -0.391876 -0.033670 0 255 255
-0.097747 -0.489066 0.016330 0 255 255
-0.093703 -0.442535 0.032330 0 255 255
-0.126374 -0.488934 0.004330 0 255 255
-0.088972 -0.498640 -0.028658 0 255 255
-0.045507 -0.386503 -0.048500 0 255 255
-0.039938 -0.426615 -0.042632 0 255 255
-0.060101 -0.474587 -0.022634 0 255 255
-0.086128 -0.471279 0.020330 0 255 255
-0.154762 -0.564009 -0.051670 0 255 255
-0.100956 -0.420229 -0.019327 0 255 255
-0.148785 -0.446474 -0.011670 0 255 255
-0.061482 -0.439689 -0.023670 0 255 255
-0.179152 -0.538238 -0.049670 0 255 255
-0.180472 -0.469213 -0.027670 0 255 255
-0.118772 -0.501027 0.010330 0 255 255
-0.079195 -0.463477 -0.016667 0 255 255
-0.077300 -0.457741 0.010330 0 255 255
-0.187434 -0.529963 -0.039766 0 255 255
-0.014899 -0.524354 -0.054611 0 255 255
-0.124520 -0.409240 -0.032625 0 255 255
-0.080518 -0.480514 0.029561 0 255 255
-0.081466 -0.544068 -0.034130 0 255 255
-0.173656 -0.543008 -0.039103 0 255 255
-0.182646 -0.377723 -0.054428 0 255 255
-0.168858 -0.423874 -0.038658 0 255 255
-0.075975 -0.456573 -0.001670 0 255 255
-0.160611 -0.529230 -0.044650 0 255 255
-0.112819 -0.346288 -0.052550 0 255 255
-0.036466 -0.438097 -0.041670 0 255 255
-0.009236 -0.469619 -0.052646 0 255 255
-0.077324 -0.466557 0.022330 0 255 255
-0.025183 -0.475424 -0.036206 0 255 255
-0.051395 -0.498509 -0.038567 0 255 255
-0.129430 -0.557010 -0.044586 0 255 255
-0.046323 -0.487633 -0.038572 0 255 255
-0.103951 -0.507103 -0.009445 0 255 255
-0.048146 -0.453682 -0.027065 0 255 255
-0.055417 -0.448085 -0.033670 0 255 255
-0.118316 -0.440821 0.014330 0 255 255
-0.077842 -0.545759 -0.046642 0 255 255
-0.016598 -0.494873 -0.040495 0 255 255
-0.098317 -0.353050 -0.045453 0 255 255
-0.020439 -0.403729 -0.053670 0 255 255
-0.138634 -0.496297 -0.001670 0 255 255
-0.098757 -0.500698 0.009106 0 255 255
-0.111448 -0.463884 0.070330 0 255 255
-0.205519 -0.397951 -0.045670 0 255 255
-0.136314 -0.567041 -0.041678 0 255 255
-0.134346 -0.524961 -0.037670 0 255 255
-0.147899 -0.478308 0.002330 0 255 255
-0.101424 -0.565657 -0.049670 0 255 255
-0.175561 -0.390924 -0.047670 0 255 255
-0.101758 -0.388823 -0.031670 0 255 255
-0.054832 -0.437324 -0.035670 0 255 255
-0.113298 -0.361511 -0.048666 0 255 255
-0.192417 -0.448196 -0.043670 0 255 255
-0.081437 -0.484500 0.014330 0 255 255
-0.081110 -0.524373 -0.026988 0 255 255
-0.135845 -0.518712 -0.023630 0 255 255
-0.164501 -0.452387 -0.032595 0 255 255
-0.205316 -0.530452 -0.044264 0 255 255
-0.135695 -0.437938 0.004330 0 255 255
-0.160519 -0.434383 -0.032594 0 255 255
-0.155285 -0.560401 -0.041343 0 255 255
-0.060620 -0.418913 -0.027670 0 255 255
-0.123196 -0.392205 -0.036571 0 255 255
-0.015417 -0.407155 -0.044896 0 255 255
-0.125345 -0.477265 0.033397 0 255 255
-0.146942 -0.440713 -0.027670 0 255 255
-0.143792 -0.424528 -0.031670 0 255 255
-0.179415 -0.413386 -0.033670 0 255 255
-0.091150 -0.484384 0.001346 0 255 255
-0.140306 -0.551939 -0.044629 0 255 255
-0.049795 -0.558837 -0.053670 0 255 255
-0.072646 -0.475358 0.100330 0 255 255
-0.008644 -0.425759 -0.044339 0 255 255
-0.226852 -0.429932 -0.048753 0 255 255
-0.024235 -0.411869 -0.041336 0 255 255
-0.109256 -0.542143 -0.030711 0 255 255
-0.120613 -0.438721 0.028330 0 255 255
-0.091048 -0.422643 -0.028654 0 255 255
-0.049742 -0.409780 -0.041670 0 255 255
-0.017969 -0.459953 -0.047670 0 255 255
-0.085057 -0.362471 -0.047670 0 255 255
0.003809 -0.455841 -0.052568 0 255 255
-0.214521 -0.455543 -0.041000 0 255 255
-0.155560 -0.452143 -0.028600 0 255 255
-0.086382 -0.462333 0.024330 0 255 255
-0.083421 -0.472541 0.087350 0 255 255
-0.074368 -0.443661 -0.028670 0 255 255
-0.137677 -0.451654 -0.002654 0 255 255
-0.129215 -0.466634 0.047854 0 255 255
-0.135105 -0.481541 0.004330 0 255 255
-0.094414 -0.493896 -0.015670 0 255 255
-0.085131 -0.409954 -0.032621 0 255 255
-0.129553 -0.552540 -0.035250 0 255 255
-0.107372 -0.450338 0.046330 0 255 255
-0.040558 -0.371157 -0.052647 0 255 255
-0.042943 -0.480383 -0.029239 0 255 255
-0.093724 -0.437847 -0.003670 0 255 255
-0.117614 -0.422826 -0.013670 0 255 255
-0.040410 -0.505838 -0.043670 0 255 255
-0.201023 -0.453010 -0.035670 0 255 255
-0.064479 -0.379863 -0.046628 0 255 255
-0.197209 -0.385291 -0.053670 0 255 255
-0.176908 -0.457635 -0.037670 0 255 255
-0.079083 -0.434842 -0.019551 0 255 255
-0.081081 -0.476987 0.074330 0 255 255
-0.071126 -0.562131 -0.053670 0 255 255
-0.044530 -0.422266 -0.032781 0 255 255
-0.155268 -0.375042 -0.039670 0 255 255
-0.115794 -0.499373 0.019320 0 255 255
-0.187008 -0.545609 -0.053670 0 255 255
-0.091529 -0.494662 0.026330 0 255 255
-0.217363 -0.482905 -0.053670 0 255 255
-0.042454 -0.498264 -0.030867 0 255 255
-0.092742 -0.523363 -0.035670 0 255 255
-0.075636 -0.462930 0.078330 0 255 255
-0.067515 -0.481021 -0.029670 0 255 255
-0.154875 -0.467909 -0.011670 0 255 255
-0.134837 -0.407703 -0.033670 0 255 255
-0.154460 -0.492377 -0.020426 0 255 255
-0.094888 -0.511329 -0.020325 0 255 255
-0.126293 -0.540819 -0.042588 0 255 255
-0.133317 -0.486789 0.032330 0 255 255
-0.200804 -0.544439 -0.049670 0 255 255
-0.139363 -0.431007 -0.015670 0 255 255
-0.123741 -0.488021 0.018330 0 255 255
-0.054165 -0.528111 -0.044622 0 255 255
-0.164104 -0.565116 -0.054671 0 255 255
-0.084395 -0.467673 0.006330 0 255 255
-0.115267 -0.502976 -0.023670 0 255 255
-0.093837 -0.386034 -0.040635 0 255 255
-0.026272 -0.468295 -0.044614 0 255 255
-0.107415 -0.495602 0.002330 0 255 255
-0.122644 -0.362627 -0.041670 0 255 255
-0.024327 -0.506716 -0.050631 0 255 255
-0.039603 -0.397502 -0.039670 0 255 255
-0.105733 -0.491996 0.022330 0 255 255
-0.083646 -0.529811 -0.038578 0 255 255
-0.201700 -0.499036 -0.038397 0 255 255
-0.152872 -0.550493 -0.046657 0 255 255
-0.067107 -0.480148 0.116025 0 255 255
-0.048986 -0.548181 -0.041670 0 255 255
-0.134833 -0.369836 -0.039670 0 255 255
-0.170773 -0.484770 -0.024856 0 255 255
-0.091101 -0.482200 0.028330 0 255 255
-0.050345 -0.382679 -0.041670 0 255 255
-0.119082 -0.411777 -0.021920 0 255 255
-0.123205 -0.572054 -0.051670 0 255 255
-0.058533 -0.466493 -0.032665 0 255 255
-0.189642 -0.416388 -0.036662 0 255 255
-0.113479 -0.428157 0.002330 0 255 255
-0.090978 -0.507677 -0.029670 0 255 255
-0.141224 -0.357317 -0.053670 0 255 255
-0.118746 -0.522271 -0.035670 0 255 255
-0.045986 -0.401726 -0.044507 0 255 255
-0.140233 -0.390880 -0.040603 0 255 255
-0.061913 -0.473743 0.111323 0 255 255
-0.064530 -0.406319 -0.037670 0 255 255
-0.066130 -0.363646 -0.043670 0 255 255
-0.071164 -0.429707 -0.031670 0 255 255
-0.197494 -0.423761 -0.048643 0 255 255
-0.219996 -0.500413 -0.053670 0 255 255
-0.071168 -0.480461 0.084330 0 255 255
-0.037627 -0.478448 -0.040595 0 255 255
-0.059907 -0.497832 -0.035670 0 255 255
-0.021006 -0.480664 -0.047670 0 255 255
-0.020966 -0.433254 -0.048607 0 255 255
-0.144593 -0.450636 0.006330 0 255 255
-0.080162 -0.460820 0.052364 0 255 255
-0.128545 -0.493593 0.026330 0 255 255
-0.046088 -0.463468 -0.028159 0 255 255
-0.107677 -0.354190 -0.051670 0 255 255
-0.133212 -0.453736 0.010330 0 255 255
-0.180662 -0.548568 -0.042459 0 255 255
-0.176465 -0.440187 -0.038607 0 255 255
-0.147718 -0.411664 -0.026211 0 255 255
-0.096757 -0.486943 0.080330 0 255 255
-0.151884 -0.361173 -0.053670 0 255 255
-0.216226 -0.443714 -0.041670 0 255 255
-0.052343 -0.562063 -0.044700 0 255 255
-0.120753 -0.372767 -0.037670 0 255 255
-0.151303 -0.542397 -0.034945 0 255 255
-0.110460 -0.497400 0.036330 0 255 255
-0.192310 -0.384251 -0.045321 0 255 255
-0.090764 -0.564007 -0.048543 0 255 255
-0.210153 -0.517162 -0.054504 0 255 255
-0.224907 -0.468353 -0.054644 0 255 255
-0.085147 -0.473943 -0.001670 0 255 255
-0.154215 -0.501317 -0.034641 0 255 255
-0.105792 -0.406939 -0.030624 0 255 255
-0.169225 -0.410462 -0.042646 0 255 255
-0.034141 -0.495520 -0.033670 0 255 255
-0.096109 -0.466624 0.087082 0 255 255
-0.107015 -0.492433 0.012330 0 255 255
-0.039571 -0.440026 -0.032323 0 255 255
-0.150872 -0.385302 -0.035670 0 255 255
-0.078287 -0.470994 0.030330 0 255 255
-0.078594 -0.452724 -0.018607 0 255 255
-0.112792 -0.488201 0.058330 0 255 255
-0.144542 -0.527897 -0.027791 0 255 255
-0.185988 -0.493122 -0.031670 0 255 255
-0.181365 -0.408103 -0.045670 0 255 255
-0.088077 -0.491989 0.052330 0 255 255
-0.112507 -0.401602 -0.025670 0 255 255
-0.029053 -0.464792 -0.033900 0 255 255
-0.106196 -0.573439 -0.051670 0 255 255
-0.091714 -0.447734 0.052330 0 255 255
-0.048644 -0.402694 -0.036137 0 255 255
-0.200630 -0.439952 -0.036900 0 255 255
-0.139827 -0.536715 -0.030783 0 255 255
-0.046680 -0.507328 -0.031225 0 255 255
-0.092024 -0.483976 0.010330 0 255 255
-0.126953 -0.352937 -0.045302 0 255 255
-0.160406 -0.405747 -0.030854 0 255 255
-0.225640 -0.441531 -0.046139 0 255 255
-0.202787 -0.468238 -0.035670 0 255 255
-0.111509 -0.437375 0.032330 0 255 255
-0.132147 -0.359343 -0.050584 0 255 255
-0.084634 -0.454321 0.014330 0 255 255
-0.232172 -0.479200 -0.049670 0 255 255
-0.231313 -0.463160 -0.046863 0 255 255
-0.124408 -0.380606 -0.042612 0 255 255
-0.119453 -0.561663 -0.047670 0 255 255
-0.086723 -0.477622 0.050330 0 255 255
-0.119392 -0.483426 0.036330 0 255 255
-0.193116 -0.518487 -0.050631 0 255 255
-0.138151 -0.469087 0.004330 0 255 255
-0.124593 -0.570300 -0.042059 0 255 255
-0.218024 -0.458323 -0.052641 0 255 255
-0.017827 -0.426524 -0.041670 0 255 255
-0.085927 -0.577296 -0.044621 0 255 255
-0.138025 -0.504454 -0.019045 0 255 255
-0.168106 -0.516908 -0.040601 0 255 255
-0.137404 -0.559913 -0.046572 0 255 255
-0.188045 -0.507611 -0.034219 0 255 255
-0.099857 -0.460463 0.063353 0 255 255
-0.173827 -0.373008 -0.044179 0 255 255
-0.100345 -0.442581 0.039517 0 255 255
-0.094204 -0.372622 -0.044625 0 255 255
-0.123856 -0.433825 -0.009670 0 255 255
-0.080978 -0.486920 0.072330 0 255 255
-0.077890 -0.380229 -0.042445 0 255 255
-0.149199 -0.429039 -0.021670 0 255 255
-0.108424 -0.476329 0.058330 0 255 255
-0.202311 -0.476684 -0.046601 0 255 255
-0.174409 -0.449973 -0.026223 0 255 255
-0.117568 -0.527233 -0.025670 0 255 255
-0.182992 -0.430523 -0.032138 0 255 255
-0.086738 -0.465456 0.034330 0 255 255
-0.163156 -0.501562 -0.025050 0 255 255
-0.078340 -0.494771 -0.018733 0 255 255
-0.073056 -0.488171 0.102330 0 255 255
-0.184458 -0.445287 -0.039670 0 255 255
-0.039916 -0.523722 -0.047670 0 255 255
-0.110302 -0.482863 0.070330 0 255 255
-0.118828 -0.453823 0.037347 0 255 255
-0.206771 -0.509912 -0.041020 0 255 255
-0.085994 -0.541956 -0.043670 0 255 255
-0.129479 -0.391481 -0.030723 0 255 255
-0.184402 -0.395685 -0.049670 0 255 255
-0.029663 -0.442439 -0.044647 0 255 255
-0.047882 -0.528834 -0.035891 0 255 255
-0.222605 -0.513563 -0.049670 0 255 255
-0.151130 -0.515997 -0.037670 0 255 255
-0.058584 -0.547054 -0.049670 0 255 255
-0.085651 -0.571971 -0.053670 0 255 255
-0.148387 -0.486382 -0.027670 0 255 255
-0.144749 -0.454977 -0.019670 0 255 255
-0.129995 -0.420982 -0.027670 0 255 255
-0.115194 -0.488620 0.027343 0 255 255
-0.057650 -0.367600 -0.051670 0 255 255
-0.065886 -0.524852 -0.030387 0 255 255
-0.133329 -0.447061 0.025298 0 255 255
-0.065999 -0.553488 -0.039078 0 255 255
-0.191323 -0.453120 -0.032799 0 255 255
-0.095997 -0.437988 0.013430 0 255 255
-0.102754 -0.376762 -0.035670 0 255 255
-0.112588 -0.503074 0.004330 0 255 255
-0.129597 -0.451009 0.038330 0 255 255
-0.073933 -0.570504 -0.053670 0 255 255
-0.094146 -0.571258 -0.042501 0 255 255
-0.095036 -0.502181 -0.005670 0 255 255
-0.039225 -0.387225 -0.042792 0 255 255
-0.191821 -0.402132 -0.039920 0 255 255
-0.001384 -0.462246 -0.044523 0 255 255
-0.010672 -0.515291 -0.054652 0 255 255
-0.121386 -0.435645 0.020330 0 255 255
-0.170333 -0.550080 -0.049670 0 255 255
-0.068442 -0.464079 -0.028600 0 255 255
-0.152677 -0.393904 -0.032998 0 255 255
-0.043797 -0.449089 -0.038617 0 255 255
-0.069990 -0.538386 -0.044633 0 255 255
-0.175488 -0.475951 -0.036632 0 255 255
-0.146027 -0.408039 -0.036634 0 255 255
-0.077857 -0.472929 0.052330 0 255 255
-0.079165 -0.562796 -0.041344 0 255 255
-0.147923 -0.535147 -0.044656 0 255 255
-0.172220 -0.497336 -0.038651 0 255 255
-0.174867 -0.531409 -0.046632 0 255 255
-0.196018 -0.510513 -0.048622 0 255 255
-0.173094 -0.399830 -0.035496 0 255 255
-0.089196 -0.487501 -0.013670 0 255 255
-0.166557 -0.442601 -0.034604 0 255 255
-0.099338 -0.577663 -0.054462 0 255 255
-0.224297 -0.490705 -0.054424 0 255 255
-0.094439 -0.396787 -0.028690 0 255 255
-0.199997 -0.530725 -0.053670 0 255 255
-0.033175 -0.412114 -0.038470 0 255 255
-0.085003 -0.478423 0.066330 0 255 255
-0.077402 -0.398111 -0.030678 0 255 255
-0.080005 -0.487374 -0.005670 0 255 255
0.001229 -0.470840 -0.045670 0 255 255
-0.053139 -0.422666 -0.029670 0 255 255
-0.052667 -0.418472 -0.039670 0 255 255
-0.090896 -0.491123 0.044330 0 255 255
-0.140243 -0.357775 -0.044609 0 255 255
-0.042962 -0.414170 -0.035263 0 255 255
-0.096942 -0.454214 0.070330 0 255 255
-0.141966 -0.475050 -0.009670 0 255 255
-0.115752 -0.385705 -0.039670 0 255 255
-0.035942 -0.552057 -0.045670 0 255 255
-0.089848 -0.448465 0.024330 0 255 255
-0.113341 -0.508309 -0.011670 0 255 255
-0.029541 -0.446910 -0.034694 0 255 255
-0.089431 -0.580076 -0.052642 0 255 255
-0.121721 -0.478956 0.057862 0 255 255
-0.060203 -0.536329 -0.035055 0 255 255
-0.020824 -0.503937 -0.040178 0 255 255
-0.071475 -0.418529 -0.032490 0 255 255
-0.032635 -0.399125 -0.049670 0 255 255
-0.042464 -0.465158 -0.038633 0 255 255
-0.073860 -0.527755 -0.029995 0 255 255
-0.156424 -0.387744 -0.044570 0 255 255
-0.098870 -0.529332 -0.026651 0 255 255
-0.064948 -0.428193 -0.025487 0 255 255
-0.105826 -0.435404 0.024330 0 255 255
-0.038414 -0.513388 -0.035670 0 255 255
-0.095799 -0.409168 -0.023670 0 255 255
-0.101431 -0.497244 0.034330 0 255 255
-0.092025 -0.386879 -0.032573 0 255 255
-0.018768 -0.513722 -0.041928 0 255 255
-0.076322 -0.372134 -0.040667 0 255 255
-0.096447 -0.552530 -0.035907 0 255 255
-0.101914 -0.450677 0.061570 0 255 255
-0.110296 -0.568033 -0.041670 0 255 255
-0.082676 -0.464061 -0.003670 0 255 255
-0.117880 -0.390270 -0.030514 0 255 255
-0.110898 -0.453108 0.062330 0 255 255
-0.064073 -0.525698 -0.040600 0 255 255
-0.078440 -0.426315 -0.029670 0 255 255
-0.081476 -0.510962 -0.022916 0 255 255
-0.121853 -0.502904 0.000330 0 255 255
-0.158667 -0.567652 -0.043915 0 255 255
-0.029148 -0.379815 -0.051670 0 255 255
-0.167881 -0.459637 -0.034639 0 255 255
-0.066770 -0.394242 -0.040615 0 255 255
-0.100101 -0.451522 0.053392 0 255 255
-0.217047 -0.494087 -0.042755 0 255 255
-0.077269 -0.435687 -0.028661 0 255 255
-0.088185 -0.444898 0.004330 0 255 255
-0.086568 -0.455626 0.059592 0 255 255
-0.087872 -0.538875 -0.031199 0 255 255
-0.221492 -0.503620 -0.045670 0 255 255
-0.210730 -0.397728 -0.053670 0 255 255
-0.009348 -0.498255 -0.043274 0 255 255
-0.076208 -0.464870 0.014330 0 255 255
-0.067097 -0.513254 -0.027088 0 255 255
-0.032302 -0.509619 -0.046548 0 255 255
-0.210905 -0.424128 -0.052591 0 255 255
-0.093203 -0.476806 0.078330 0 255 255
-0.087637 -0.514709 -0.032568 0 255 255
-0.225518 -0.446001 -0.054645 0 255 255
-0.131477 -0.367371 -0.047670 0 255 255
-0.028910 -0.535474 -0.054501 0 255 255
-0.191924 -0.463873 -0.042649 0 255 255
-0.007555 -0.432888 -0.054648 0 255 255
-0.141200 -0.441184 -0.001670 0 255 255
-0.142655 -0.367683 -0.041094 0 255 255
-0.150373 -0.483249 -0.007670 0 255 255
-0.068290 -0.567867 -0.044511 0 255 255
-0.137932 -0.486843 0.014330 0 255 255
-0.006841 -0.523698 -0.051670 0 255 255
-0.022779 -0.432409 -0.038754 0 255 255
-0.041271 -0.410546 -0.044550 0 255 255
-0.093677 -0.522927 -0.024629 0 255 255
-0.072095 -0.363070 -0.050562 0 255 255
-0.005478 -0.508886 -0.046072 0 255 255
-0.132780 -0.493208 0.016330 0 255 255
-0.135171 -0.346899 -0.054661 0 255 255
-0.227932 -0.455910 -0.045157 0 255 255
-0.171609 -0.567012 -0.051670 0 255 255
-0.076989 -0.468920 0.060330 0 255 255
-0.104760 -0.395259 -0.035670 0 255 255
-0.144968 -0.468115 0.016330 0 255 255
-0.180874 -0.508748 -0.043670 0 255 255
-0.130192 -0.430870 -0.022722 0 255 255
-0.023047 -0.520555 -0.053670 0 255 255
-0.032575 -0.401360 -0.041037 0 255 255
-0.040529 -0.470474 -0.029254 0 255 255
-0.209562 -0.473303 -0.050664 0 255 255
-0.058353 -0.572500 -0.051670 0 255 255
-0.142209 -0.432978 -0.027670 0 255 255
-0.132467 -0.447463 0.004330 0 255 255
-0.101781 -0.488254 0.035337 0 255 255
-0.104551 -0.517856 -0.032642 0 255 255
-0.095416 -0.361024 -0.048584 0 255 255
-0.016720 -0.488197 -0.049670 0 255 255
-0.146882 -0.376745 -0.046654 0 255 255
-0.118940 -0.352260 -0.051670 0 255 255
-0.114865 -0.369607 -0.046659 0 255 255
-0.208227 -0.489372 -0.050654 0 255 255
-0.159063 -0.454923 -0.020187 0 255 255
-0.006817 -0.486194 -0.053670 0 255 255
-0.067430 -0.468964 0.096330 0 255 255
-0.143292 -0.446829 -0.019670 0 255 255
-0.167017 -0.377332 -0.049670 0 255 255
-0.197295 -0.397373 -0.043670 0 255 255
-0.105847 -0.421254 -0.025670 0 255 255
-0.123431 -0.416369 -0.028548 0 255 255
-0.225492 -0.487942 -0.045670 0 255 255
-0.121139 -0.401990 -0.034646 0 255 255
-0.078233 -0.457306 0.018330 0 255 255
-0.085129 -0.485670 0.046330 0 255 255
-0.155643 -0.475985 -0.015670 0 255 255
-0.068300 -0.402355 -0.031670 0 255 255
-0.112886 -0.582379 -0.047670 0 255 255
-0.126208 -0.559564 -0.037670 0 255 255
-0.080334 -0.476187 0.036330 0 255 255
-0.147784 -0.460182 0.006330 0 255 255
-0.143565 -0.563660 -0.041117 0 255 255
-0.161691 -0.555208 -0.040762 0 255 255
-0.055152 -0.459241 -0.032549 0 255 255
-0.028920 -0.502369 -0.036825 0 255 255
-0.108290 -0.544801 -0.042585 0 255 255
-0.000407 -0.498010 -0.054618 0 255 255
-0.064691 -0.481274 0.100330 0 255 255
-0.110630 -0.393650 -0.029179 0 255 255
-0.181722 -0.555573 -0.053670 0 255 255
-0.151482 -0.575906 -0.047670 0 255 255
-0.095120 -0.475913 0.092330 0 255 255
-0.134774 -0.411080 -0.023670 0 255 255
-0.062251 -0.559649 -0.042443 0 255 255
-0.106955 -0.560871 -0.046545 0 255 255
-0.196047 -0.411195 -0.039113 0 255 255
-0.111343 -0.433040 0.017215 0 255 255
-0.151441 -0.452776 -0.007670 0 255 255
-0.161295 -0.521232 -0.041670 0 255 255
-0.104106 -0.500410 -0.017670 0 255 255
-0.073209 -0.472889 0.088330 0 255 255
-0.216653 -0.516905 -0.045670 0 255 255
-0.134164 -0.481980 0.038554 0 255 255
-0.137753 -0.482514 -0.005670 0 255 255
-0.143933 -0.493463 -0.007670 0 255 255
-0.110929 -0.448680 0.038330 0 255 255
-0.227678 -0.497957 -0.052628 0 255 255
-0.119580 -0.490988 0.012330 0 255 255
-0.087393 -0.490549 0.032330 0 255 255
-0.078989 -0.403991 -0.035670 0 255 255
-0.077307 -0.516218 -0.035670 0 255 255
-0.132171 -0.501366 -0.005670 0 255 255
-0.023013 -0.456574 -0.036576 0 255 255
-0.074358 -0.476767 -0.026626 0 255 255
-0.133388 -0.461385 0.014330 0 255 255
-0.099107 -0.425505 -0.013670 0 255 255
-0.101577 -0.364771 -0.040678 0 255 255
-0.001873 -0.444364 -0.045267 0 255 255
-0.217548 -0.418823 -0.045670 0 255 255
-0.186833 -0.443490 -0.031670 0 255 255
-0.090568 -0.495689 0.006330 0 255 255
-0.130168 -0.383493 -0.033670 0 255 255
-0.105595 -0.473235 0.080330 0 255 255
0.000541 -0.434456 -0.052617 0 255 255
-0.075787 -0.414311 -0.025670 0 255 255
-0.099011 -0.458651 0.076402 0 255 255
-0.050071 -0.481472 -0.026269 0 255 255
-0.131723 -0.505140 -0.013670 0 255 255
-0.083140 -0.441777 -0.015670 0 255 255
-0.064215 -0.455015 -0.020573 0 255 255
-0.109337 -0.493557 0.046330 0 255 255
-0.083939 -0.355341 -0.044840 0 255 255
-0.058665 -0.428916 -0.034589 0 255 255
-0.072539 -0.539119 -0.033670 0 255 255
-0.112091 -0.549648 -0.033670 0 255 255
-0.056886 -0.377777 -0.041670 0 255 255
-0.108865 -0.372406 -0.037670 0 255 255
-0.106661 -0.430809 0.010330 0 255 255
-0.057043 -0.385537 -0.045670 0 255 255
-0.084745 -0.451720 0.038330 0 255 255
-0.079275 -0.478887 0.004330 0 255 255
-0.031813 -0.527501 -0.040301 0 255 255
-0.153004 -0.512916 -0.025287 0 255 255
-0.140041 -0.470922 0.028330 0 255 255
-0.065942 -0.489518 -0.021670 0 255 255
-0.155295 -0.527295 -0.030513 0 255 255
-0.112422 -0.459017 0.051389 0 255 255
-0.220692 -0.426185 -0.045757 0 255 255
-0.146119 -0.502887 -0.020625 0 255 255
-0.129151 -0.480692 0.044330 0 255 255
-0.212135 -0.478823 -0.039670 0 255 255
-0.178776 -0.388354 -0.040682 0 255 255
-0.013033 -0.465641 -0.039670 0 255 255
-0.120172 -0.404648 -0.025407 0 255 255
-0.124349 -0.579241 -0.054498 0 255 255
-0.175800 -0.431671 -0.039670 0 255 255
-0.085629 -0.471511 0.100330 0 255 255
-0.208919 -0.410404 -0.053670 0 255 255
-0.075929 -0.385488 -0.035670 0 255 255
-0.082727 -0.366939 -0.041121 0 255 255
-0.088143 -0.490199 0.070330 0 255 255
-0.121007 -0.439567 0.007346 0 255 255
-0.130180 -0.497097 0.010330 0 255 255
-0.144991 -0.462606 -0.015670 0 255 255
-0.072896 -0.577744 -0.051670 0 255 255
-0.087582 -0.500394 -0.013670 0 255 255
-0.155665 -0.416785 -0.035670 0 255 255
-0.122527 -0.463132 0.056330 0 255 255
-0.206557 -0.419535 -0.042183 0 255 255
-0.140213 -0.457092 0.024681 0 255 255
-0.072743 -0.477520 -0.011670 0 255 255
-0.044286 -0.431207 -0.038517 0 255 255
-0.130117 -0.437525 -0.007670 0 255 255
-0.066047 -0.387959 -0.036400 0 255 255
-0.202057 -0.518731 -0.041158 0 255 255
-0.123308 -0.420839 -0.018195 0 255 255
-0.125357 -0.491488 0.034330 0 255 255
-0.060703 -0.485342 -0.032562 0 255 255
-0.215854 -0.439474 -0.054670 0 255 255
-0.167852 -0.558955 -0.042914 0 255 255
-0.020478 -0.451137 -0.046599 0 255 255
-0.141341 -0.487904 0.004330 0 255 255
-0.140781 -0.415719 -0.023670 0 255 255
-0.080722 -0.466753 0.094330 0 255 255
-0.078742 -0.479136 0.084330 0 255 255
-0.129294 -0.481000 0.020330 0 255 255
-0.186466 -0.532621 -0.048577 0 255 255
-0.085924 -0.475787 0.014330 0 255 255
-0.084061 -0.350871 -0.052618 0 255 255
-0.115682 -0.470738 0.047331 0 255 255
-0.201222 -0.483811 -0.048664 0 255 255
-0.083043 -0.483750 -0.021670 0 255 255
-0.131760 -0.438965 0.012560 0 255 255
-0.064790 -0.368684 -0.049670 0 255 255
-0.161221 -0.506878 -0.036618 0 255 255
-0.087677 -0.382287 -0.042670 0 255 255
-0.086723 -0.477622 0.024330 0 255 255
-0.098713 -0.486405 0.042330 0 255 255
-0.075711 -0.394486 -0.040659 0 255 255
-0.203734 -0.458366 -0.047670 0 255 255
-0.097903 -0.531990 -0.038644 0 255 255
-0.141322 -0.383751 -0.042630 0 255 255
-0.089001 -0.399322 -0.034573 0 255 255
-0.129761 -0.496197 -0.019670 0 255 255
-0.139695 -0.574291 -0.052633 0 255 255
-0.080035 -0.463085 0.044330 0 255 255
-0.123128 -0.460645 0.036330 0 255 255
-0.120743 -0.514719 -0.030595 0 255 255
-0.106292 -0.355952 -0.043816 0 255 255
-0.081101 -0.557479 -0.050663 0 255 255
-0.133872 -0.476622 0.010330 0 255 255
-0.203410 -0.436449 -0.048605 0 255 255
-0.061894 -0.539954 -0.046642 0 255 255
-0.113104 -0.484141 0.040330 0 255 255
-0.127994 -0.511339 -0.030582 0 255 255
-0.188289 -0.498670 -0.044658 0 255 255
-0.032728 -0.493973 -0.045670 0 255 255
-0.189338 -0.411002 -0.047670 0 255 255
-0.024573 -0.497776 -0.048634 0 255 255
-0.119287 -0.535259 -0.040652 0 255 255
-0.126054 -0.452660 0.024330 0 255 255
-0.065999 -0.553488 -0.050629 0 255 255
-0.114450 -0.548548 -0.044595 0 255 255
-0.137691 -0.551063 -0.035670 0 255 255
-0.100697 -0.493173 -0.001670 0 255 255
-0.151822 -0.425198 -0.032584 0 255 255
-0.120813 -0.429685 -0.015670 0 255 255
-0.086748 -0.486437 0.094330 0 255 255
-0.153267 -0.437764 -0.020804 0 255 255
-0.129440 -0.523904 -0.024670 0 255 255
-0.175865 -0.429434 -0.029534 0 255 255
-0.157972 -0.462051 -0.018294 0 255 255
-0.042513 -0.562232 -0.051670 0 255 255
-0.118227 -0.443070 0.038857 0 255 255
-0.142974 -0.519801 -0.025522 0 255 255
-0.197943 -0.538303 -0.054417 0 255 255
-0.172362 -0.415620 -0.031670 0 255 255
-0.142475 -0.570789 -0.043409 0 255 255
-0.055171 -0.393030 -0.036655 0 255 255
-0.032810 -0.425525 -0.044633 0 255 255
-0.088888 -0.370688 -0.038965 0 255 255
-0.127045 -0.447784 0.017367 0 255 255
-0.211618 -0.463517 -0.050629 0 255 255
-0.143046 -0.484459 -0.021670 0 255 255
-0.184627 -0.370178 -0.053670 0 255 255
-0.148929 -0.400066 -0.038594 0 255 255
-0.014892 -0.410762 -0.051670 0 255 255
-0.193849 -0.491663 -0.044599 0 255 255
-0.030122 -0.523875 -0.050627 0 255 255
-0.118499 -0.498112 -0.011670 0 255 255
-0.157870 -0.400309 -0.040569 0 255 255
-0.147942 -0.468935 -0.022647 0 255 255
-0.109540 -0.400778 -0.034666 0 255 255
-0.131854 -0.533812 -0.028605 0 255 255
-0.077823 -0.484198 0.108330 0 255 255
-0.136222 -0.474400 0.036330 0 255 255
-0.173074 -0.466043 -0.025205 0 255 255
-0.075127 -0.480822 0.072330 0 255 255
-0.078629 -0.466997 0.084330 0 255 255
-0.096061 -0.499748 0.002330 0 255 255
-0.110775 -0.535935 -0.039670 0 255 255
-0.178287 -0.406236 -0.034960 0 255 255
-0.114123 -0.497946 0.026330 0 255 255
-0.177575 -0.366847 -0.050651 0 255 255
-0.027137 -0.403896 -0.050639 0 255 255
-0.196873 -0.479219 -0.034499 0 255 255
-0.162546 -0.523915 -0.030873 0 255 255
-0.168421 -0.489188 -0.035670 0 255 255
-0.195867 -0.401343 -0.051670 0 255 255
-0.055498 -0.512042 -0.040658 0 255 255
-0.209758 -0.404801 -0.045670 0 255 255
-0.201700 -0.499036 -0.048614 0 255 255
-0.146477 -0.522580 -0.038656 0 255 255
-0.097737 -0.422792 -0.025670 0 255 255
-0.147556 -0.548558 -0.036236 0 255 255
-0.074408 -0.491073 -0.029670 0 255 255
-0.085141 -0.376848 -0.036673 0 255 255
-0.136066 -0.396143 -0.037670 0 255 255
-0.077861 -0.479547 0.060209 0 255 255
-0.065632 -0.566899 -0.054499 0 255 255
-0.086089 -0.440402 -0.001556 0 255 255
-0.089084 -0.463280 0.076330 0 255 255
-0.188971 -0.474077 -0.041670 0 255 255
-0.164701 -0.429156 -0.035670 0 255 255
-0.122110 -0.489254 0.044330 0 255 255
-0.107641 -0.498762 0.020330 0 255 255
-0.134001 -0.466609 0.042330 0 255 255
-0.056803 -0.564396 -0.053670 0 255 255
-0.098636 -0.505168 -0.028638 0 255 255
-0.070882 -0.464580 -0.015670 0 255 255
-0.093920 -0.496333 0.014330 0 255 255
-0.082932 -0.490422 -0.026639 0 255 255
-0.190815 -0.537213 -0.041662 0 255 255
-0.174569 -0.507106 -0.029670 0 255 255
-0.159409 -0.507723 -0.026114 0 255 255
-0.113777 -0.476120 0.068330 0 255 255
-0.150169 -0.369598 -0.041670 0 255 255
-0.115824 -0.446397 0.046330 0 255 255
-0.119703 -0.356319 -0.044246 0 255 255
-0.127485 -0.368276 -0.039670 0 255 255
-0.107014 -0.442685 0.036330 0 255 255
-0.102608 -0.556277 -0.036664 0 255 255
-0.075334 -0.441003 -0.018803 0 255 255
-0.001834 -0.467941 -0.051670 0 255 255
-0.090536 -0.431009 -0.011670 0 255 255
-0.048889 -0.393753 -0.046607 0 255 255
-0.043939 -0.378407 -0.050482 0 255 255
-0.083437 -0.465913 0.056330 0 255 255
-0.002117 -0.492800 -0.047670 0 255 255
-0.052841 -0.511075 -0.030633 0 255 255
-0.040895 -0.457062 -0.030094 0 255 255
-0.083352 -0.410872 -0.025670 0 255 255
-0.079014 -0.450321 0.000330 0 255 255
-0.164397 -0.390645 -0.036988 0 255 255
-0.052597 -0.520016 -0.032595 0 255 255
-0.075194 -0.471964 0.072330 0 255 255
-0.143613 -0.398131 -0.030060 0 255 255
-0.162492 -0.571124 -0.049670 0 255 255
-0.194929 -0.517641 -0.038750 0 255 255
-0.029428 -0.418275 -0.038728 0 255 255
-0.137575 -0.389912 -0.032570 0 255 255
-0.211140 -0.448292 -0.050599 0 255 255
-0.183950 -0.460971 -0.040652 0 255 255
-0.131423 -0.353060 -0.054617 0 255 255
-0.189877 -0.440554 -0.042581 0 255 255
-0.073625 -0.485936 0.088330 0 255 255
-0.041374 -0.472287 -0.038588 0 255 255
-0.186833 -0.519210 -0.046599 0 255 255
-0.113736 -0.509159 -0.028577 0 255 255
-0.113361 -0.555677 -0.046559 0 255 255
-0.089471 -0.478547 0.034330 0 255 255
-0.147913 -0.568253 -0.050550 0 255 255
-0.070621 -0.449822 -0.028659 0 255 255
-0.130681 -0.412989 -0.030598 0 255 255
-0.028574 -0.449568 -0.044631 0 255 255
-0.138635 -0.482102 0.023248 0 255 255
-0.076331 -0.452604 -0.007670 0 255 255
-0.138815 -0.376094 -0.037670 0 255 255
-0.098317 -0.353050 -0.052648 0 255 255
-0.034110 -0.548497 -0.051670 0 255 255
-0.052279 -0.367897 -0.045435 0 255 255
-0.085541 -0.481819 0.102330 0 255 255
-0.122810 -0.471827 0.037346 0 255 255
-0.133346 -0.429400 -0.011670 0 255 255
-0.165108 -0.474171 -0.021670 0 255 255
-0.030875 -0.430841 -0.036472 0 255 255
-0.127335 -0.441029 0.004330 0 255 255
-0.221535 -0.430204 -0.053670 0 255 255
-0.196041 -0.424439 -0.037670 0 255 255
-0.207392 -0.454454 -0.038593 0 255 255
-0.088497 -0.492241 0.020330 0 255 255
-0.148389 -0.488821 -0.011670 0 255 255
-0.101029 -0.581288 -0.046536 0 255 255
0.000745 -0.480893 -0.047670 0 255 255
-0.017200 -0.505627 -0.052605 0 255 255
-0.109174 -0.414190 -0.028608 0 255 255
-0.088043 -0.368874 -0.046660 0 255 255
-0.022911 -0.394833 -0.045396 0 255 255
-0.145031 -0.441605 -0.007670 0 255 255
-0.038298 -0.536674 -0.051670 0 255 255
-0.064317 -0.386559 -0.043670 0 255 255
-0.137156 -0.488397 -0.009670 0 255 255
-0.194195 -0.544464 -0.052302 0 255 255
-0.168031 -0.527977 -0.033670 0 255 255
-0.087456 -0.455212 0.022330 0 255 255
-0.082985 -0.471606 0.066330 0 255 255
-0.077675 -0.502810 -0.031670 0 255 255
-0.153705 -0.438701 -0.029670 0 255 255
-0.155466 -0.357296 -0.047032 0 255 255
-0.100869 -0.490885 0.060330 0 255 255
-0.198635 -0.464067 -0.045670 0 255 255
-0.091038 -0.455748 0.074480 0 255 255
-0.097830 -0.370932 -0.038787 0 255 255
-0.145355 -0.474556 0.012330 0 255 255
-0.024563 -0.530882 -0.043286 0 255 255
-0.084775 -0.390260 -0.032227 0 255 255
-0.107176 -0.348385 -0.047670 0 255 255
-0.072654 -0.488594 -0.019670 0 255 255
-0.142319 -0.511279 -0.033670 0 255 255
-0.007799 -0.423947 -0.052656 0 255 255
-0.134155 -0.515086 -0.034664 0 255 255
-0.062627 -0.513132 -0.038657 0 255 255
-0.176894 -0.523844 -0.045670 0 255 255
-0.078910 -0.483471 0.066330 0 255 255
-0.137370 -0.495933 -0.027670 0 255 255
-0.123346 -0.501372 -0.025670 0 255 255
-0.094061 -0.412411 -0.029670 0 255 255
-0.057058 -0.553244 -0.052649 0 255 255
-0.029438 -0.385169 -0.047113 0 255 255
-0.103370 -0.430137 -0.004346 0 255 255
-0.125127 -0.508262 -0.015670 0 255 255
-0.052157 -0.372367 -0.052632 0 255 255
-0.082058 -0.457729 0.068330 0 255 255
-0.114088 -0.431759 -0.003670 0 255 255
-0.115912 -0.419175 -0.019670 0 255 255
0.018562 -0.407552 -0.051670 0 255 255
-0.054408 -0.490772 -0.025670 0 255 255
-0.162047 -0.477805 -0.031670 0 255 255
-0.150336 -0.545055 -0.042502 0 255 255
-0.218136 -0.486958 -0.042771 0 255 255
-0.189745 -0.478130 -0.032069 0 255 255
-0.016862 -0.419721 -0.050551 0 255 255
-0.011032 -0.484229 -0.041670 0 255 255
-0.076269 -0.428809 -0.021670 0 255 255
-0.106372 -0.408182 -0.023670 0 255 255
-0.179330 -0.451063 -0.037670 0 255 255
-0.224429 -0.453130 -0.052409 0 255 255
-0.157500 -0.536757 -0.033670 0 255 255
-0.009077 -0.418938 -0.045670 0 255 255
-0.096025 -0.415907 -0.021670 0 255 255
-0.149857 -0.529831 -0.040599 0 255 255
-0.161065 -0.442955 -0.021670 0 255 255
-0.084557 -0.446584 -0.009670 0 255 255
-0.063289 -0.486157 0.112330 0 255 255
-0.170244 -0.491637 -0.025670 0 255 255
-0.085809 -0.489081 0.086330 0 255 255
-0.096519 -0.484086 0.054330 0 255 255
-0.099699 -0.467156 0.068330 0 255 255
-0.077250 -0.501900 -0.021063 0 255 255
-0.176333 -0.477763 -0.026522 0 255 255
-0.104816 -0.442704 0.044926 0 255 255
-0.166098 -0.361165 -0.052645 0 255 255
-0.151107 -0.467459 0.000330 0 255 255
-0.134299 -0.444402 0.018330 0 255 255
-0.122358 -0.433000 0.012330 0 255 255
-0.106183 -0.461927 0.074330 0 255 255
-0.125722 -0.430748 0.002000 0 255 255
-0.081271 -0.387479 -0.040619 0 255 255
-0.100063 -0.404117 -0.025670 0 255 255
-0.179798 -0.532519 -0.037670 0 255 255
-0.076707 -0.472338 0.094330 0 255 255
-0.112422 -0.459017 0.065502 0 255 255
-0.007178 -0.479405 -0.054668 0 255 255
-0.079346 -0.359689 -0.050564 0 255 255
-0.081404 -0.454017 0.028330 0 255 255
-0.166108 -0.536287 -0.035670 0 255 255
-0.140936 -0.349796 -0.051670 0 255 255
-0.080827 -0.460509 0.082330 0 255 255
-0.234093 -0.459657 -0.052580 0 255 255
-0.044422 -0.444384 -0.029670 0 255 255
-0.127769 -0.454067 0.045216 0 255 255
-0.015163 -0.449202 -0.040204 0 255 255
-0.113817 -0.532993 -0.027670 0 255 255
-0.028705 -0.411992 -0.046517 0 255 255
-0.100602 -0.508664 -0.017670 0 255 255
-0.086445 -0.460097 0.047292 0 255 255
-0.078912 -0.470230 -0.017670 0 255 255
-0.179235 -0.469790 -0.036569 0 255 255
-0.046375 -0.501939 -0.041670 0 255 255
-0.021690 -0.439538 -0.038548 0 255 255
0.002173 -0.449885 -0.049670 0 255 255
-0.153775 -0.353670 -0.052553 0 255 255
-0.187042 -0.377686 -0.045670 0 255 255
-0.102368 -0.481360 0.082330 0 255 255
-0.111558 -0.523416 -0.034612 0 255 255
-0.175234 -0.517998 -0.032866 0 255 255
-0.184204 -0.418925 -0.033445 0 255 255
-0.143655 -0.478670 -0.017670 0 255 255
-0.157719 -0.373899 -0.049670 0 255 255
-0.226141 -0.483226 -0.051670 0 255 255
-0.115904 -0.464013 0.048330 0 255 255
-0.099754 -0.398722 -0.032465 0 255 255
-0.107362 -0.512132 -0.029670 0 255 255
-0.072102 -0.358351 -0.045670 0 255 255
-0.066807 -0.507898 -0.035670 0 255 255
-0.118632 -0.484809 0.056330 0 255 255
-0.057792 -0.507494 -0.027670 0 255 255
-0.086848 -0.550876 -0.035670 0 255 255
-0.089484 -0.428754 -0.023670 0 255 255
-0.045190 -0.513596 -0.043670 0 255 255
-0.070801 -0.469139 0.102330 0 255 255
-0.118574 -0.495870 -0.004638 0 255 255
-0.076451 -0.471377 0.016330 0 255 255
-0.022486 -0.488570 -0.037670 0 255 255
-0.135593 -0.463659 0.008330 0 255 255
-0.118677 -0.557612 -0.036772 0 255 255
-0.075499 -0.462994 -0.023670 0 255 255
-0.028047 -0.543086 -0.051670 0 255 255
-0.131205 -0.492187 -0.009670 0 255 255
-0.132342 -0.426014 -0.017670 0 255 255
-0.169656 -0.394814 -0.045670 0 255 255
-0.046232 -0.423679 -0.039670 0 255 255
-0.107996 -0.489770 0.028330 0 255 255
-0.217535 -0.476205 -0.052652 0 255 255
-0.089557 -0.507194 -0.019670 0 255 255
-0.099021 -0.382953 -0.033670 0 255 255
-0.073184 -0.470695 -0.007670 0 255 255
-0.121178 -0.449398 0.028330 0 255 255
-0.158389 -0.496070 -0.033670 0 255 255
-0.183429 -0.414872 -0.045670 0 255 255
-0.107173 -0.388642 -0.037670 0 255 255
-0.095000 -0.539964 -0.031305 0 255 255
-0.165261 -0.401960 -0.033670 0 255 255
-0.198629 -0.430929 -0.047670 0 255 255
-0.061255 -0.399020 -0.041670 0 255 255
-0.012983 -0.463458 -0.050613 0 255 255
-0.141016 -0.411490 -0.033670 0 255 255
-0.146915 -0.391013 -0.041670 0 255 255
-0.162576 -0.538176 -0.045670 0 255 255
-0.030452 -0.463061 -0.043670 0 255 255
-0.014341 -0.445171 -0.049670 0 255 255
-0.006800 -0.412340 -0.051670 0 255 255
-0.135374 -0.459348 0.036330 0 255 255
-0.128606 -0.474791 0.048330 0 255 255
-0.018562 -0.390240 -0.052643 0 255 255
-0.103962 -0.476203 0.064330 0 255 255
-0.055762 -0.436889 -0.025896 0 255 255
-0.157035 -0.365391 -0.052599 0 255 255
-0.116434 -0.377703 -0.035317 0 255 255
-0.089250 -0.447183 0.034330 0 255 255
-0.121486 -0.497383 0.022330 0 255 255
-0.120997 -0.472673 0.060716 0 255 255
-0.107253 -0.454808 0.052330 0 255 255
-0.084607 -0.491848 -0.003670 0 255 255
-0.056533 -0.407842 -0.039670 0 255 255
-0.012485 -0.514446 -0.044190 0 255 255
-0.182217 -0.485650 -0.029670 0 255 255
-0.059371 -0.364176 -0.045670 0 255 255
-0.170885 -0.513405 -0.030537 0 255 255
-0.086809 -0.489271 0.058330 0 255 255
-0.069183 -0.371021 -0.041670 0 255 255
-0.153832 -0.462636 -0.007670 0 255 255
-0.080368 -0.458517 0.036330 0 255 255
-0.147970 -0.454798 0.002330 0 255 255
-0.157269 -0.389556 -0.035157 0 255 255
-0.174080 -0.543918 -0.049670 0 255 255
-0.066374 -0.488041 0.102330 0 255 255
-0.221282 -0.470044 -0.042953 0 255 255
-0.039704 -0.402450 -0.046647 0 255 255
-0.032302 -0.509619 -0.036825 0 255 255
-0.202331 -0.410472 -0.052636 0 255 255
-0.079102 -0.368630 -0.046555 0 255 255
-0.152911 -0.418069 -0.025733 0 255 255
-0.108704 -0.365860 -0.046587 0 255 255
-0.180711 -0.383039 -0.050564 0 255 255
-0.114421 -0.434909 0.004330 0 255 255
-0.039225 -0.387225 -0.050587 0 255 255
-0.121701 -0.545167 -0.044663 0 255 255
-0.108544 -0.502754 -0.022642 0 255 255
-0.050418 -0.534272 -0.046600 0 255 255
-0.090107 -0.463217 0.088330 0 255 255
-0.139245 -0.459749 -0.002665 0 255 255
-0.100071 -0.550840 -0.046658 0 255 255
-0.140464 -0.450354 -0.009670 0 255 255
-0.048962 -0.554812 -0.043280 0 255 255
-0.105988 -0.563529 -0.039366 0 255 255
-0.057941 -0.422633 -0.036624 0 255 255
-0.058343 -0.373897 -0.049670 0 255 255
-0.025183 -0.475424 -0.046668 0 255 255
-0.129000 -0.376257 -0.044638 0 255 255
-0.105998 -0.530422 -0.038649 0 255 255
-0.078848 -0.410677 -0.034643 0 255 255
-0.165599 -0.412153 -0.030411 0 255 255
-0.126680 -0.441335 0.026330 0 255 255
-0.069267 -0.532103 -0.042616 0 255 255
-0.096813 -0.539119 -0.042640 0 255 255
-0.212765 -0.503835 -0.053670 0 255 255
-0.133535 -0.570544 -0.050626 0 255 255
-0.074349 -0.509873 -0.034648 0 255 255
-0.178870 -0.483201 -0.038636 0 255 255
-0.146365 -0.493945 -0.028621 0 255 255
-0.138738 -0.543843 -0.044637 0 255 255
-0.068666 -0.521349 -0.038596 0 255 255
-0.187200 -0.505798 -0.044629 0 255 255
-0.125406 -0.491593 -0.001670 0 255 255
-0.153043 -0.380493 -0.046647 0 255 255
-0.089245 -0.390382 -0.038640 0 255 255
-0.051075 -0.443489 -0.035670 0 255 255
-0.059175 -0.441918 -0.033670 0 255 255
-0.052060 -0.473924 -0.035670 0 255 255
-0.168135 -0.417590 -0.040646 0 255 255
-0.071404 -0.470433 -0.027670 0 255 255
-0.135067 -0.531240 -0.039670 0 255 255
-0.014684 -0.433977 -0.050655 0 255 255
-0.068207 -0.439913 -0.030651 0 255 255
-0.093412 -0.467882 0.074330 0 255 255
-0.179470 -0.493955 -0.040638 0 255 255
-0.168990 -0.386297 -0.048623 0 255 255
-0.187810 -0.483446 -0.042618 0 255 255
-0.200367 -0.515105 -0.050593 0 255 255
-0.038369 -0.418519 -0.044618 0 255 255
-0.076884 -0.515311 -0.024884 0 255 255
-0.213534 -0.524413 -0.046492 0 255 255
-0.161251 -0.407559 -0.040623 0 255 255
-0.026131 -0.538977 -0.044998 0 255 255
-0.100252 -0.499168 0.026330 0 255 255
-0.013584 -0.474212 -0.050613 0 255 255
-0.145534 -0.361927 -0.051670 0 255 255
-0.050916 -0.483284 -0.036616 0 255 255
-0.025315 -0.437847 -0.046600 0 255 255
-0.127628 -0.524750 -0.036601 0 255 255
-0.118837 -0.544296 -0.031670 0 255 255
-0.086241 -0.417067 -0.029670 0 255 255
-0.076415 -0.460361 0.004330 0 255 255
-0.141570 -0.449839 0.014330 0 255 255
-0.120493 -0.430979 0.006330 0 255 255
-0.096222 -0.495260 0.041453 0 255 255
-0.084687 -0.425608 -0.027670 0 255 255
-0.076903 -0.449099 -0.024532 0 255 255
-0.140722 -0.372998 -0.046521 0 255 255
-0.202547 -0.412578 -0.041670 0 255 255
-0.216089 -0.463639 -0.041393 0 255 255
-0.194328 -0.506888 -0.036673 0 255 255
-0.091449 -0.451897 0.046330 0 255 255
-0.097355 -0.483494 0.086330 0 255 255
-0.208716 -0.471490 -0.038991 0 255 255
-0.090764 -0.564007 -0.039922 0 255 255
-0.009246 -0.436513 -0.043118 0 255 255
-0.112249 -0.494407 0.008330 0 255 255
-0.061501 -0.478349 0.106330 0 255 255
-0.200549 -0.397187 -0.053670 0 255 255
-0.082960 -0.438427 -0.023670 0 255 255
-0.205794 -0.484152 -0.037670 0 255 255
-0.188168 -0.523000 -0.037670 0 255 255
-0.142880 -0.424953 -0.021072 0 255 255
-0.114518 -0.427145 -0.009670 0 255 255
-0.207536 -0.492621 -0.039670 0 255 255
-0.180326 -0.462661 -0.027836 0 255 255
-0.091913 -0.358243 -0.043798 0 255 255
-0.015156 -0.401864 -0.049670 0 255 255
-0.162575 -0.424596 -0.026658 0 255 255
-0.079224 -0.573801 -0.051670 0 255 255
-0.174145 -0.525126 -0.033838 0 255 255
-0.139101 -0.462024 0.030330 0 255 255
-0.135757 -0.434895 -0.001670 0 255 255
-0.044784 -0.380219 -0.044077 0 255 255
-0.165167 -0.467524 -0.021670 0 255 255
-0.128390 -0.398609 -0.027870 0 255 255
-0.074094 -0.551920 -0.038427 0 255 255
-0.034714 -0.519527 -0.048599 0 255 255
-0.083444 -0.429999 -0.019670 0 255 255
-0.105659 -0.425583 -0.015670 0 255 255
-0.078227 -0.466135 0.066662 0 255 255
-0.055490 -0.545148 -0.039145 0 255 255
-0.136175 -0.441321 -0.017670 0 255 255
-0.103595 -0.487408 0.070804 0 255 255
-0.108279 -0.577907 -0.044349 0 255 255
-0.058533 -0.466493 -0.023044 0 255 255
-0.099527 -0.376760 -0.041670 0 255 255
-0.205467 -0.426664 -0.039943 0 255 255
-0.162781 -0.548079 -0.037824 0 255 255
-0.094714 -0.484929 0.020330 0 255 255
-0.007667 -0.461524 -0.042182 0 255 255
-0.010804 -0.477715 -0.040698 0 255 255
-0.127711 -0.472872 0.028330 0 255 255
-0.083062 -0.448110 0.016330 0 255 255
-0.078360 -0.470487 0.046330 0 255 255
-0.186364 -0.470879 -0.029842 0 255 255
-0.107088 -0.523294 -0.023394 0 255 255
-0.054856 -0.399797 -0.035670 0 255 255
-0.166355 -0.532082 -0.045670 0 255 255
-0.145365 -0.381867 -0.035670 0 255 255
-0.122260 -0.451718 0.048330 0 255 255
-0.158207 -0.486216 -0.020323 0 255 255
-0.059622 -0.459364 -0.022018 0 255 255
-0.127099 -0.495224 -0.013670 0 255 255
-0.007911 -0.452583 -0.042107 0 255 255
-0.072902 -0.497307 -0.030629 0 255 255
-0.100609 -0.367429 -0.046599 0 255 255
-0.185228 -0.430584 -0.043670 0 255 255
-0.131873 -0.467601 0.019352 0 255 255
-0.067095 -0.418599 -0.027670 0 255 255
-0.129186 -0.565951 -0.040646 0 255 255
-0.066365 -0.540077 -0.035373 0 255 255
-0.175142 -0.423151 -0.040644 0 255 255
-0.062646 -0.446920 -0.022094 0 255 255
-0.092194 -0.496087 -0.023670 0 255 255
-0.108309 -0.478590 0.077159 0 255 255
-0.124762 -0.537534 -0.029670 0 255 255
-0.182880 -0.401888 -0.046569 0 255 255
-0.117465 -0.569211 -0.050638 0 255 255
-0.108136 -0.468753 0.058330 0 255 255
-0.102279 -0.543190 -0.031670 0 255 255
-0.152178 -0.444892 -0.028655 0 255 255
-0.227321 -0.478262 -0.045512 0 255 255
-0.059153 -0.411034 -0.030953 0 255 255
-0.075413 -0.488495 0.096330 0 255 255
-0.086015 -0.459173 0.030330 0 255 255
-0.110639 -0.360545 -0.042557 0 255 255
-0.152746 -0.457867 -0.027670 0 255 255
-0.120813 -0.529065 -0.037670 0 255 255
-0.097724 -0.439390 0.026330 0 255 255
-0.039186 -0.519649 -0.036960 0 255 255
-0.117896 -0.425570 -0.019670 0 255 255
-0.192036 -0.492509 -0.034053 0 255 255
-0.178503 -0.496612 -0.028999 0 255 255
-0.156995 -0.497815 -0.022731 0 255 255
-0.107564 -0.467903 0.076330 0 255 255
-0.047477 -0.542264 -0.039670 0 255 255
-0.023146 -0.418998 -0.040825 0 255 255
-0.119674 -0.455636 0.054567 0 255 255
-0.088922 -0.498535 -0.007670 0 255 255
-0.013806 -0.527071 -0.047670 0 255 255
-0.087310 -0.395698 -0.029556 0 255 255
-0.087393 -0.523650 -0.025915 0 255 255
-0.083460 -0.453695 -0.003670 0 255 255
-0.127872 -0.515809 -0.021599 0 255 255
-0.004794 -0.438589 -0.053670 0 255 255
-0.049368 -0.408977 -0.034598 0 255 255
-0.186082 -0.399290 -0.039670 0 255 255
-0.005644 -0.502188 -0.053670 0 255 255
-0.135112 -0.545534 -0.032913 0 255 255
-0.099040 -0.359333 -0.042920 0 255 255
-0.048737 -0.497541 -0.029519 0 255 255
-0.202424 -0.505319 -0.039386 0 255 255
-0.125317 -0.576583 -0.044592 0 255 255
-0.149804 -0.441586 -0.015670 0 255 255
-0.094429 -0.429893 -0.016630 0 255 255
-0.169816 -0.454321 -0.023759 0 255 255
-0.067127 -0.413936 -0.034464 0 255 255
-0.157015 -0.431603 -0.022329 0 255 255
-0.199033 -0.531175 -0.043251 0 255 255
-0.116771 -0.463610 0.064692 0 255 255
-0.001619 -0.486411 -0.045524 0 255 255
-0.129592 -0.420116 -0.018990 0 255 255
-0.076292 -0.471451 0.106472 0 255 255
-0.134417 -0.496717 0.004330 0 255 255
-0.075203 -0.478579 0.111765 0 255 255
-0.051298 -0.467659 -0.025670 0 255 255
-0.179001 -0.445625 -0.028398 0 255 255
-0.110813 -0.446526 0.050330 0 255 255
-0.047159 -0.522551 -0.035160 0 255 255
-0.141385 -0.443305 0.004330 0 255 255
-0.071607 -0.380952 -0.044475 0 255 255
-0.053959 -0.446558 -0.025670 0 255 255
-0.136934 -0.511583 -0.021131 0 255 255
-0.201887 -0.442648 -0.047670 0 255 255
-0.094062 -0.443304 0.038812 0 255 255
-0.210936 -0.533039 -0.049670 0 255 255
-0.102466 -0.499186 0.016330 0 255 255
-0.108550 -0.427050 -0.001670 0 255 255
-0.095976 -0.435792 0.002330 0 255 255
-0.154123 -0.406470 -0.029763 0 255 255
-0.119364 -0.507029 -0.009670 0 255 255
-0.036710 -0.556932 -0.049670 0 255 255
-0.135296 -0.579056 -0.047670 0 255 255
-0.083646 -0.529811 -0.029066 0 255 255
-0.127664 -0.460737 0.030330 0 255 255
-0.089321 -0.483030 0.064330 0 255 255
-0.036689 -0.381788 -0.052649 0 255 255
-0.141486 -0.443258 -0.025670 0 255 255
-0.079520 -0.478773 0.050330 0 255 255
-0.169479 -0.368416 -0.044645 0 255 255
-0.085988 -0.459116 0.054330 0 255 255
-0.142485 -0.537682 -0.042607 0 255 255
-0.136954 -0.445371 -0.006607 0 255 255
-0.041731 -0.491981 -0.031459 0 255 255
-0.192769 -0.465686 -0.032010 0 255 255
-0.178175 -0.377601 -0.044599 0 255 255
-0.023736 -0.462857 -0.046648 0 255 255
-0.035072 -0.539221 -0.042670 0 255 255
-0.229203 -0.437662 -0.049670 0 255 255
-0.078765 -0.459264 0.024330 0 255 255
-0.037024 -0.498590 -0.043670 0 255 255
-0.106189 -0.502436 0.006330 0 255 255
-0.188636 -0.551470 -0.050465 0 255 255
-0.078690 -0.490791 -0.013670 0 255 255
-0.034979 -0.444374 -0.032629 0 255 255
-0.150713 -0.498538 -0.020199 0 255 255
-0.221649 -0.456633 -0.043567 0 255 255
-0.107884 -0.378296 -0.041670 0 255 255
-0.154377 -0.364423 -0.044029 0 255 255
-0.063633 -0.378050 -0.040621 0 255 255
-0.113291 -0.441948 0.028330 0 255 255
-0.042708 -0.456217 -0.038627 0 255 255
-0.080377 -0.551197 -0.048659 0 255 255
-0.083892 -0.454620 0.044330 0 255 255
0.004141 -0.471443 -0.051670 0 255 255
-0.032922 -0.454161 -0.042651 0 255 255
-0.124841 -0.499846 0.008330 0 255 255
-0.064694 -0.470240 -0.019836 0 255 255
-0.201354 -0.446236 -0.036708 0 255 255
-0.080835 -0.482574 0.022330 0 255 255
-0.203675 -0.536399 -0.045670 0 255 255
-0.029776 -0.471075 -0.033729 0 255 255
-0.125140 -0.408952 -0.023670 0 255 255
-0.028828 -0.407521 -0.041182 0 255 255
-0.084378 -0.502989 -0.028583 0 255 255
-0.119459 -0.365259 -0.046575 0 255 255
-0.189652 -0.383283 -0.052546 0 255 255
-0.214286 -0.431378 -0.042980 0 255 255
-0.074140 -0.479075 0.090330 0 255 255
-0.035345 -0.430963 -0.042539 0 255 255
-0.146159 -0.370463 -0.048642 0 255 255
-0.209429 -0.510879 -0.054670 0 255 255
-0.083618 -0.461416 0.008330 0 255 255
-0.176069 -0.552917 -0.042376 0 255 255
-0.089724 -0.405606 -0.032541 0 255 255
-0.030621 -0.472887 -0.042579 0 255 255
-0.204593 -0.524169 -0.043285 0 255 255
-0.079297 -0.525219 -0.038637 0 255 255
-0.084145 -0.476617 -0.009670 0 255 255
-0.100547 -0.485604 0.048330 0 255 255
-0.084326 -0.467706 0.028330 0 255 255
-0.153596 -0.556776 -0.048653 0 255 255
-0.082323 -0.486294 0.008330 0 255 255
-0.085242 -0.469485 0.014330 0 255 255
-0.036161 -0.532093 -0.040283 0 255 255
-0.125539 -0.487146 0.012330 0 255 255
-0.085250 -0.469481 0.042330 0 255 255
-0.003206 -0.428295 -0.052659 0 255 255
-0.131536 -0.381695 -0.042638 0 255 255
-0.134023 -0.552663 -0.044609 0 255 255
-0.090266 -0.480382 0.042330 0 255 255
-0.041975 -0.483040 -0.040608 0 255 255
-0.066619 -0.498030 -0.034654 0 255 255
-0.080563 -0.478287 -0.023670 0 255 255
-0.154939 -0.507601 -0.036670 0 255 255
-0.089929 -0.529088 -0.038626 0 255 255
-0.059256 -0.472775 -0.032624 0 255 255
-0.208848 -0.433914 -0.050637 0 255 255
-0.035966 -0.375505 -0.052613 0 255 255
