ply
format ascii 1.0
element vertex 1228
property float x
property float y
property float z
property uchar red
property uchar green
property uchar blue
end_header
0.108524 0.545162 0.760601 215 198 190
0.081977 0.544567 0.750809 215 197 192
0.097058 0.544354 0.752685 210 197 184
0.107941 0.541297 0.730211 213 195 187
-0.010373 0.543759 0.697275 208 198 204
0.184926 0.548378 0.797183 211 191 185
0.202341 0.549707 0.789180 187 167 157
0.168379 0.545717 0.783601 214 196 193
0.158036 0.545726 0.796755 215 196 194
0.168191 0.544554 0.748386 216 196 189
0.185191 0.548506 0.778809 179 160 148
0.040268 0.549736 0.817559 199 191 188
0.056161 0.549965 0.814913 200 195 189
-0.014450 0.545035 0.736809 206 199 199
-0.023923 0.543909 0.709310 203 196 194
0.353644 0.549790 0.725164 192 171 146
0.137357 0.539085 0.665748 216 199 194
0.150673 0.539571 0.669908 217 199 196
0.162137 0.538736 0.637412 215 200 193
-0.186178 0.547413 0.689059 173 164 159
-0.161471 0.546794 0.676364 179 173 176
0.329862 0.545028 0.731904 175 154 139
0.342472 0.549256 0.721809 181 168 155
0.107433 0.546384 0.790060 214 194 192
0.124636 0.545736 0.781560 214 195 192
0.094685 0.546003 0.774185 211 196 191
0.113772 0.546298 0.779289 214 197 191
-0.064594 0.549331 0.807810 204 194 194
-0.074144 0.550127 0.822486 204 191 193
-0.096941 0.550244 0.816613 205 193 196
0.333464 0.548349 0.669810 188 174 155
0.350768 0.551712 0.674309 201 183 169
0.330846 0.546233 0.704809 180 162 149
0.350558 0.550563 0.717248 202 183 170
0.344094 0.551242 0.682810 200 180 165
0.339122 0.549834 0.689810 182 165 151
0.198822 0.549309 0.678434 208 187 174
0.204954 0.549725 0.674717 213 189 178
0.211808 0.551070 0.652777 213 188 180
0.488837 0.551199 0.674679 208 187 177
0.139826 0.545490 0.788434 215 197 192
-0.413266 0.549195 0.655330 198 192 179
-0.425211 0.550195 0.661779 198 192 187
-0.411861 0.549387 0.673925 204 190 182
-0.263098 0.551151 0.646844 197 188 173
-0.246063 0.552068 0.665618 197 183 171
-0.255322 0.551606 0.674836 193 182 172
-0.285296 0.551297 0.741309 195 187 183
-0.273590 0.552014 0.763445 195 186 176
-0.049202 0.549683 0.804810 179 171 173
0.401827 0.552398 0.651332 208 189 170
0.413783 0.550691 0.662484 208 189 175
0.232278 0.549249 0.755215 207 187 177
0.051065 0.543708 0.713728 203 195 197
0.276411 0.540258 0.732809 209 195 187
0.262927 0.544290 0.718654 210 193 177
0.099605 0.541645 0.705810 217 196 190
-0.097186 0.547996 0.793624 197 186 190
-0.065678 0.548777 0.783809 202 192 196
-0.067053 0.549620 0.796560 171 162 164
-0.089193 0.549572 0.784934 199 192 190
0.461914 0.551267 0.645559 210 189 172
0.479373 0.552096 0.643809 209 189 170
0.456442 0.550979 0.680435 207 189 172
0.504538 0.551275 0.611221 209 187 174
0.277099 0.539502 0.645416 212 195 190
-0.382330 0.549619 0.669375 199 190 182
-0.363069 0.549731 0.666831 199 189 182
-0.372843 0.548917 0.658051 199 189 184
-0.116754 0.544168 0.660927 199 188 185
-0.090138 0.543175 0.657916 124 112 113
-0.121813 0.543523 0.644297 194 185 184
0.001428 0.545681 0.748278 169 165 166
-0.028145 0.547701 0.764302 202 194 198
-0.087132 0.542670 0.681158 195 187 187
-0.079778 0.544556 0.675809 196 195 190
-0.081241 0.545474 0.693832 200 192 199
-0.064906 0.544750 0.706254 184 179 178
-0.090263 0.544524 0.694943 189 174 176
-0.025038 0.539864 0.648678 205 202 202
-0.010970 0.540100 0.660901 204 201 200
0.422145 0.550036 0.706291 204 190 173
0.393789 0.551043 0.704215 205 191 171
0.267981 0.543787 0.770310 210 188 179
0.252036 0.546581 0.761936 210 188 179
0.346160 0.551143 0.646434 199 181 165
0.336763 0.549662 0.639559 195 177 165
0.329558 0.547468 0.631810 184 162 150
-0.113743 0.550930 0.807738 197 182 186
-0.104127 0.549150 0.778624 196 185 187
-0.115922 0.549883 0.776708 195 185 183
0.030671 0.544382 0.714809 202 196 196
0.027007 0.543555 0.687559 205 199 199
-0.199994 0.549840 0.743213 178 163 166
-0.225822 0.549527 0.756356 199 191 194
0.484573 0.551936 0.659684 206 188 176
0.506849 0.552171 0.649185 209 189 179
0.273768 0.541579 0.680868 209 195 177
-0.237735 0.551641 0.755692 192 184 174
-0.246860 0.552766 0.777130 195 183 177
0.098246 0.547616 0.807185 213 195 192
0.060667 0.548867 0.805520 212 197 188
0.079562 0.547639 0.819809 215 193 187
0.066068 0.541611 0.673042 215 201 196
-0.338297 0.549771 0.727138 198 191 183
-0.347814 0.548962 0.715082 196 191 181
-0.324716 0.550927 0.718448 197 193 179
-0.360970 0.549974 0.731235 196 191 175
-0.094441 0.547247 0.772116 179 168 168
-0.073454 0.548472 0.767809 184 180 174
-0.091738 0.547334 0.751244 196 186 189
-0.066756 0.548264 0.752822 192 185 183
0.236333 0.548389 0.785559 210 191 176
0.335638 0.547737 0.731435 176 153 142
0.367294 0.552003 0.675559 208 188 178
0.375252 0.551355 0.695809 206 187 174
0.159967 0.542120 0.726059 215 197 194
0.142492 0.542568 0.743059 216 197 190
0.126152 0.542186 0.736809 216 197 191
0.246651 0.547940 0.690809 211 190 179
0.226903 0.550119 0.694895 211 191 172
-0.331692 0.550326 0.672193 198 189 177
-0.340157 0.549729 0.698202 201 187 181
-0.194673 0.546426 0.671004 199 192 192
-0.223200 0.546927 0.681527 205 193 195
-0.210134 0.546833 0.695427 202 189 192
-0.299959 0.549706 0.683748 198 186 183
-0.315672 0.550410 0.698755 191 186 173
-0.175652 0.545795 0.664808 185 178 171
-0.161771 0.545446 0.651560 190 179 177
-0.282297 0.552538 0.782368 196 187 178
0.000826 0.545990 0.760675 177 173 169
0.026961 0.545765 0.756559 203 194 197
0.013940 0.545015 0.738813 203 195 194
-0.354772 0.550642 0.683464 198 190 182
-0.383881 0.548998 0.676912 198 188 178
-0.388588 0.549595 0.687689 196 190 181
-0.359154 0.550061 0.692380 198 191 177
-0.407090 0.550607 0.730545 201 193 189
-0.395545 0.550056 0.724047 199 193 186
-0.432665 0.550621 0.717676 201 196 184
-0.445736 0.551249 0.703638 199 193 186
0.456432 0.551187 0.697820 208 190 176
-0.235858 0.550817 0.715566 209 199 195
-0.238605 0.551077 0.733810 193 183 176
-0.263205 0.552572 0.725978 195 186 178
-0.249071 0.552217 0.740309 192 185 176
-0.120283 0.546988 0.735062 198 190 189
-0.305827 0.550980 0.755884 196 186 181
-0.048035 0.549127 0.782809 178 172 175
-0.041271 0.547993 0.752096 200 190 191
-0.043396 0.546543 0.724809 196 189 189
-0.060337 0.545872 0.734098 195 192 186
-0.039603 0.546786 0.738810 198 195 190
-0.045507 0.545525 0.680812 171 166 166
-0.067523 0.544618 0.678809 177 173 171
-0.030742 0.543850 0.688205 203 196 197
-0.040116 0.545537 0.700309 196 187 187
-0.047672 0.545853 0.703059 196 187 187
0.933146 0.087436 -0.431917 112 110 97
0.934045 0.070776 -0.424269 108 93 92
0.939206 0.059867 -0.436655 115 113 102
0.816435 0.109377 -0.621882 91 90 76
0.830112 0.104845 -0.615992 86 85 70
0.659372 0.246939 -0.801719 55 55 41
0.672595 0.239249 -0.807581 44 40 36
0.691752 0.240405 -0.811258 66 56 59
0.676646 0.235081 -0.820260 31 26 24
0.668441 0.235279 -0.815710 36 32 22
0.765581 0.036949 -0.685440 71 66 53
0.781026 0.032925 -0.692591 73 70 57
0.935909 0.078896 -0.363441 107 105 100
0.623463 0.205382 -0.809900 67 62 44
0.747940 0.079635 -0.675762 70 65 52
0.739426 0.049488 -0.666418 78 72 55
0.751408 0.058290 -0.677887 82 78 63
0.717289 0.179562 -0.804248 70 63 49
0.715341 0.147832 -0.803464 81 70 60
0.720720 0.161302 -0.802455 71 63 49
0.940464 0.049663 -0.410441 122 112 104
0.937368 0.038118 -0.435419 109 105 99
0.777430 0.098556 -0.624692 106 108 99
0.764004 0.091835 -0.613143 110 106 102
0.807386 0.010259 -0.620923 118 117 112
0.777966 0.016336 -0.620845 113 109 99
0.780547 0.008919 -0.624072 122 123 111
0.783091 0.000985 -0.630482 125 123 110
0.803792 0.002902 -0.625598 128 124 116
0.827055 0.085014 -0.609877 67 68 55
0.818034 0.089363 -0.615811 77 71 58
0.833623 0.096832 -0.612790 77 75 59
0.847204 0.099508 -0.608563 73 73 63
0.944670 0.266313 -0.372690 113 106 100
0.731906 0.011267 -0.636387 129 131 121
0.736379 -0.000666 -0.659678 134 128 120
0.736237 0.001684 -0.643369 132 125 116
0.740244 -0.013601 -0.658314 135 126 119
0.743904 -0.008620 -0.642702 134 126 116
0.821707 -0.044628 -0.639506 139 138 135
0.815491 -0.050582 -0.644105 146 145 132
0.719429 0.085419 -0.609180 65 53 43
0.666567 0.209353 -0.797718 56 56 40
0.853343 0.041405 -0.544537 101 90 81
0.721765 0.063631 -0.571481 107 109 99
0.943325 -0.017988 -0.393019 138 127 122
0.944318 -0.020018 -0.342066 135 133 121
0.771010 0.013547 -0.688057 74 70 55
0.758925 -0.019665 -0.681349 143 139 131
0.751233 -0.002665 -0.678075 138 137 131
0.772497 -0.001184 -0.688901 70 64 44
0.765479 0.009985 -0.684791 82 80 69
0.745723 -0.026603 -0.667076 140 139 131
0.756092 -0.046150 -0.661806 138 133 117
0.771903 -0.040155 -0.680723 142 135 125
0.687899 0.242288 -0.803204 67 62 59
0.695614 0.248027 -0.802934 58 53 39
0.705736 0.245759 -0.806709 64 56 46
0.636753 0.206749 -0.809815 58 53 42
0.640462 0.213868 -0.801943 45 44 32
0.648092 0.207585 -0.800982 44 41 27
0.641914 0.196131 -0.802074 57 51 43
0.655663 0.207060 -0.795890 44 39 39
0.657451 0.214971 -0.805442 43 34 26
0.631442 0.212245 -0.805481 67 59 44
0.708141 0.045396 -0.585429 82 81 68
0.712224 0.070987 -0.599317 67 64 34
0.703313 0.066853 -0.575761 61 60 44
0.704730 0.058155 -0.582963 85 76 59
0.711926 0.054824 -0.597889 78 75 58
0.714405 0.042170 -0.579315 110 110 101
0.706861 0.059975 -0.572985 106 102 97
0.722616 0.053909 -0.576647 108 110 101
0.708886 0.073496 -0.588324 69 64 48
0.938641 0.002290 -0.373191 138 130 127
0.792350 0.080025 -0.618272 97 98 83
0.806121 0.073241 -0.614055 87 85 76
0.816589 0.073213 -0.610665 78 70 57
0.765049 0.023854 -0.685317 80 74 63
0.755543 0.041276 -0.681276 87 79 65
0.742422 0.011397 -0.671063 114 108 99
0.741901 0.034161 -0.670886 97 94 79
0.752164 0.024021 -0.678424 83 76 70
0.944510 0.238876 -0.391349 108 104 104
0.729941 0.053291 -0.634069 81 77 60
0.704079 0.216806 -0.815426 69 62 52
0.711600 0.216963 -0.808973 68 56 42
0.710310 0.237293 -0.807820 63 59 44
0.696265 0.227991 -0.816729 71 70 67
0.687611 0.214604 -0.812526 71 67 67
0.815140 -0.026086 -0.637720 129 129 121
0.827890 -0.004479 -0.623701 114 115 98
0.784872 -0.015743 -0.644290 140 135 126
0.783631 -0.007737 -0.640644 129 127 119
0.786422 -0.028281 -0.646567 139 138 130
0.841459 0.084430 -0.599593 83 80 69
0.825247 0.075876 -0.604499 73 70 55
0.939288 0.124831 -0.442999 107 97 98
0.771120 0.029501 -0.615546 110 103 97
0.773520 -0.016597 -0.689282 142 139 138
0.769025 -0.027103 -0.686827 148 146 138
0.778917 -0.038292 -0.685056 151 148 140
0.762637 -0.007198 -0.685643 146 143 135
0.761033 0.044135 -0.604684 101 103 87
0.733494 0.017488 -0.596564 110 104 93
0.741233 0.025467 -0.593725 109 102 96
0.738054 0.045185 -0.586109 112 110 94
0.684779 -0.029989 -0.813880 153 145 126
0.729787 0.077447 -0.632551 71 66 66
0.737644 0.072803 -0.664341 65 59 39
0.732719 0.073624 -0.654501 71 66 50
0.731739 0.064248 -0.643390 74 73 61
0.759412 -0.045907 -0.657252 159 148 147
0.779482 -0.048006 -0.674663 104 99 85
0.771166 -0.052262 -0.658198 136 131 116
0.786997 -0.021718 -0.692002 93 94 88
0.937128 0.141069 -0.392690 117 108 105
0.936426 0.147424 -0.405191 110 103 102
0.939567 -0.038187 -0.397873 127 125 104
0.731436 0.046047 -0.653840 90 86 75
0.735249 0.028339 -0.640950 93 85 62
0.730705 0.045581 -0.649043 86 78 59
0.940848 0.125440 -0.382191 121 120 109
0.938401 0.133098 -0.397191 122 120 109
0.946088 0.226743 -0.369191 120 114 107
0.946563 0.186972 -0.349441 117 116 113
0.913382 0.066041 -0.502207 112 109 101
0.854630 0.035486 -0.584680 82 72 64
0.859269 0.031575 -0.601247 79 74 69
0.838778 0.034827 -0.582452 82 76 66
0.845026 0.029574 -0.602016 81 77 71
0.664135 0.106534 -0.810813 100 91 75
0.658838 0.086343 -0.811690 94 89 72
0.645959 0.121317 -0.806320 93 86 76
0.670120 0.124085 -0.808461 92 85 68
0.710885 0.036731 -0.593445 117 112 92
0.713028 0.017712 -0.592440 121 118 112
0.720461 0.017924 -0.587400 117 117 100
0.711926 0.029236 -0.586433 118 113 97
0.716993 0.033990 -0.607964 112 110 89
0.725854 0.036154 -0.581479 108 109 110
0.683402 0.104229 -0.812743 94 89 62
0.695627 0.111195 -0.811345 92 84 63
0.698586 0.137990 -0.802875 84 78 62
0.698428 0.123604 -0.808924 87 78 70
0.688158 0.139121 -0.802683 91 81 69
0.851120 0.059511 -0.555126 93 89 79
0.841862 0.055094 -0.563543 91 81 76
0.831179 0.042212 -0.567777 84 82 73
0.836152 0.046507 -0.562078 94 81 71
0.844098 0.044637 -0.555099 101 98 86
0.839275 0.038309 -0.564671 100 95 86
0.673444 0.199792 -0.801410 62 49 40
0.667578 0.221039 -0.812337 42 35 32
0.681266 0.230669 -0.812113 57 53 43
0.678165 0.221793 -0.810022 60 53 48
0.934569 0.016372 -0.413943 113 111 99
0.936351 0.024799 -0.402191 121 109 111
0.936907 0.016225 -0.361691 118 114 105
0.937101 0.003838 -0.399185 126 127 121
0.937056 0.008598 -0.374316 122 116 107
0.732246 0.032949 -0.658513 97 89 80
0.730270 0.021641 -0.649565 96 89 80
0.722182 0.007484 -0.598054 122 119 116
0.730453 0.007902 -0.599659 106 109 100
0.706104 0.178258 -0.807145 74 64 44
0.675771 0.147916 -0.801906 72 61 42
0.698686 0.159744 -0.803252 72 66 54
0.696697 0.149617 -0.801807 82 69 62
0.941959 0.166871 -0.381691 119 115 110
0.944642 0.175318 -0.356191 122 115 110
0.801806 0.062904 -0.608931 97 95 89
0.812779 0.062670 -0.606180 76 72 67
0.804404 0.045907 -0.608854 87 82 73
0.815930 0.040639 -0.601772 86 84 70
0.938026 0.161005 -0.415504 109 105 99
0.942657 0.230614 -0.428191 107 95 95
0.850197 0.037009 -0.557736 102 95 83
0.647263 0.064145 -0.808711 121 107 96
0.943294 -0.013990 -0.399170 130 118 111
0.941838 -0.005193 -0.394025 126 126 116
0.944966 -0.010679 -0.352441 131 129 120
0.748262 -0.004296 -0.626437 129 124 118
0.752131 0.019957 -0.607698 116 116 105
0.751756 0.010463 -0.612381 113 118 106
0.765948 -0.000786 -0.627638 118 115 105
0.757031 0.084239 -0.681397 60 54 41
0.770217 0.083544 -0.687182 75 67 55
0.772468 0.059528 -0.686637 61 61 49
0.769205 0.046946 -0.687064 72 68 60
0.759462 0.064459 -0.682747 84 76 62
0.771331 0.070406 -0.686719 52 47 42
0.943970 0.269163 -0.392690 102 102 99
0.741888 0.073119 -0.589073 107 113 100
0.735558 0.063500 -0.583867 107 113 99
0.748543 0.076866 -0.596175 108 108 98
0.763647 0.055886 -0.605848 110 110 94
0.729378 0.064572 -0.576474 106 111 97
0.745004 0.061167 -0.592653 113 107 96
0.854528 0.020842 -0.611865 93 84 75
0.839479 0.004619 -0.617193 111 107 98
0.839122 0.025575 -0.611401 88 87 82
0.755039 -0.013860 -0.644177 125 122 117
0.752157 -0.039002 -0.666300 149 144 139
0.744009 -0.025111 -0.660821 140 139 136
0.770607 -0.038642 -0.652295 146 149 135
0.768772 -0.011229 -0.641885 136 135 126
0.749954 -0.015892 -0.651775 141 142 134
0.763978 -0.022514 -0.650756 142 141 136
0.856651 0.128544 -0.625307 37 39 29
0.856249 0.116178 -0.620184 60 52 44
0.853607 0.166031 -0.628014 77 68 53
0.709583 0.088708 -0.812643 89 77 70
0.651748 0.031090 -0.811198 147 139 116
0.670233 0.036046 -0.813944 142 130 116
0.671393 0.063473 -0.812143 113 104 86
0.678550 0.181534 -0.805198 68 61 52
0.691713 0.172953 -0.806940 66 62 53
0.688679 0.196825 -0.805861 62 57 40
0.732039 0.091564 -0.641164 65 58 39
0.743231 0.109383 -0.658919 59 55 36
0.740682 0.091114 -0.663804 66 57 40
0.730706 0.102637 -0.631036 64 53 45
0.735302 0.094811 -0.652085 65 56 49
0.730956 0.112467 -0.637109 28 23 17
0.737399 0.107090 -0.646721 34 31 17
0.632855 0.176816 -0.806281 45 37 34
0.644047 0.196235 -0.795847 48 36 30
0.651207 0.199254 -0.792395 54 45 40
0.647402 0.135587 -0.802126 91 81 71
0.790092 0.106204 -0.630639 97 96 83
0.798013 0.097338 -0.625256 99 91 81
0.804762 0.106898 -0.626560 97 89 84
0.937645 0.073642 -0.449191 104 94 81
0.945573 0.322211 -0.369191 109 105 95
0.648189 0.188676 -0.796516 35 42 25
0.659054 0.238945 -0.805242 43 37 35
0.651118 0.246311 -0.807385 43 37 35
0.663432 0.187299 -0.801730 57 50 34
0.632076 0.183028 -0.804444 52 43 32
0.642228 0.172478 -0.801812 64 62 41
0.668417 0.169861 -0.806935 67 60 45
0.638775 0.183143 -0.797732 49 45 43
0.700363 0.195678 -0.807351 68 65 51
0.717197 0.198177 -0.804429 66 58 47
0.938361 0.116732 -0.433191 110 102 89
0.693866 -0.007978 -0.812061 153 142 126
0.943524 0.224600 -0.406191 117 112 96
0.944580 0.196248 -0.407589 119 115 107
0.944860 0.194480 -0.380191 115 113 100
0.934969 0.073073 -0.393191 106 96 90
0.937227 0.069464 -0.364439 106 100 96
0.934364 0.080157 -0.396191 118 104 110
0.935410 0.088037 -0.376779 115 103 93
0.934562 0.092228 -0.411816 115 109 101
0.939143 0.059647 -0.408191 114 113 109
0.936548 0.067162 -0.395101 107 102 106
0.933632 0.075282 -0.418500 102 94 92
0.829090 0.034129 -0.589168 96 90 81
0.829169 0.066559 -0.589718 82 81 62
0.850244 0.073191 -0.575606 89 81 66
0.945233 0.250458 -0.375191 114 113 104
0.878833 0.060716 -0.531913 104 100 87
0.893640 0.052520 -0.519625 102 100 86
0.827976 0.019555 -0.615799 99 98 96
0.816825 0.021936 -0.616705 103 98 91
0.814402 0.034568 -0.607927 99 98 86
0.824066 0.029593 -0.608324 93 89 84
0.937756 0.027660 -0.363691 133 126 115
0.942046 0.048333 -0.353685 130 126 119
0.939730 0.041325 -0.387441 123 122 114
0.941401 0.058771 -0.360785 127 126 118
0.878358 0.079249 -0.560764 96 95 84
0.938544 0.127845 -0.432083 110 106 97
0.934697 0.142712 -0.432823 109 105 91
0.702067 0.054035 -0.814107 108 99 79
0.697007 0.042214 -0.813590 102 96 88
0.783950 0.056991 -0.613023 98 94 79
0.771825 0.075206 -0.616911 99 99 86
0.782845 0.069348 -0.618243 102 100 93
0.760711 0.082612 -0.609054 106 103 94
0.783147 0.086443 -0.624396 95 96 84
0.776059 0.062562 -0.617881 99 100 89
0.940533 0.055638 -0.401191 129 117 107
0.725702 0.067045 -0.620009 77 71 59
0.670130 0.019081 -0.812967 144 140 123
0.884587 0.087354 -0.570457 86 79 64
0.796672 -0.009894 -0.639499 127 127 121
0.864508 0.079873 -0.570396 107 87 84
0.877871 0.049442 -0.534313 100 94 86
0.857925 0.060712 -0.553291 96 88 76
0.870299 0.061823 -0.542468 95 91 81
0.866779 0.070501 -0.556088 99 96 78
0.880595 0.072262 -0.547447 101 96 81
0.722809 0.046558 -0.617974 90 84 73
0.719557 0.023481 -0.613514 129 125 111
0.725574 0.031348 -0.619774 127 118 112
0.728592 0.008613 -0.619139 124 122 110
0.734443 0.022125 -0.632676 131 124 113
0.726270 0.016005 -0.620923 128 122 112
0.723381 0.096022 -0.616072 59 53 43
0.728767 0.083940 -0.629614 68 58 44
0.943614 0.181234 -0.400191 110 106 102
0.711678 0.082298 -0.594396 68 61 55
0.936883 0.155802 -0.457019 105 94 82
0.935034 0.151671 -0.442354 100 99 86
0.830465 -0.013831 -0.627865 116 113 106
0.640285 0.159642 -0.802702 60 54 44
0.674285 0.136152 -0.801626 89 83 56
0.651601 0.145699 -0.802005 84 73 55
0.675046 0.089294 -0.813381 106 96 81
0.693916 0.070067 -0.813471 108 98 88
0.784739 0.028560 -0.617608 112 109 102
0.773407 0.050039 -0.610128 100 97 89
0.783564 0.049317 -0.611072 106 102 96
0.773128 0.033888 -0.613792 108 104 100
0.793701 0.036759 -0.612999 104 103 95
0.783551 0.023015 -0.694272 42 41 19
0.782139 0.001824 -0.692522 57 52 32
0.936052 0.001800 -0.419559 119 113 100
0.934801 0.018728 -0.434097 119 113 109
0.890603 0.060237 -0.519146 103 98 88
0.904784 0.060316 -0.510786 114 107 96
0.896860 0.033564 -0.522064 93 83 74
0.892145 0.041568 -0.523269 93 86 73
0.910704 0.046334 -0.505409 104 99 84
0.909596 0.039751 -0.509376 71 68 60
0.881093 0.036384 -0.529015 100 93 86
0.882841 0.034006 -0.531924 68 69 44
0.858846 0.037825 -0.539742 77 66 58
0.866428 0.039317 -0.533111 98 92 75
0.780549 -0.051008 -0.652752 150 150 142
0.802163 -0.053362 -0.650747 143 137 131
0.802270 -0.043963 -0.644517 143 145 140
0.796733 -0.056175 -0.664324 114 111 95
0.788535 -0.056179 -0.658245 130 129 116
0.934627 0.100768 -0.440131 108 103 94
0.939284 0.150645 -0.369691 115 115 111
0.939239 0.137366 -0.367564 117 116 109
0.939136 -0.038225 -0.383974 137 128 116
0.819748 0.064611 -0.600760 80 80 62
0.821772 0.046689 -0.583213 93 90 80
0.826523 0.052419 -0.576682 81 78 64
0.816648 0.053127 -0.600601 66 63 58
0.821340 0.038366 -0.593676 80 78 65
0.735273 0.002199 -0.629591 127 127 113
0.735038 0.001375 -0.616275 125 121 114
0.741366 0.001522 -0.615544 121 119 105
0.852979 0.087900 -0.593913 88 81 68
0.874385 0.086788 -0.574786 90 81 61
0.863244 0.082948 -0.577636 88 78 73
0.861555 0.100567 -0.604557 79 79 63
0.867813 0.093990 -0.590850 81 80 70
0.676990 0.243836 -0.789805 55 50 36
0.672070 0.241093 -0.792051 66 54 55
0.940208 0.119127 -0.392440 123 114 106
0.942116 0.121741 -0.366566 126 116 112
0.937300 0.101207 -0.385191 126 115 112
0.943130 0.191740 -0.424941 105 102 106
0.939828 0.179205 -0.446814 104 96 88
0.941063 -0.047436 -0.374128 142 139 125
0.936614 0.089541 -0.360191 126 119 115
0.870488 0.034916 -0.544330 67 65 55
0.884601 0.036547 -0.548664 73 66 52
0.863558 0.036875 -0.567563 69 63 63
0.906254 -0.016285 0.105237 192 178 177
0.904392 -0.019900 0.122316 193 179 176
0.925291 0.218977 -0.137008 33 39 29
0.931590 0.234076 -0.151144 32 35 28
0.859723 0.112952 -0.112537 66 65 61
0.884107 0.079030 -0.123208 96 91 80
0.844324 0.129226 0.166836 191 181 174
0.848006 0.140415 0.162817 194 181 180
0.862406 0.091116 -0.113959 83 80 76
0.938219 -0.153196 -0.023190 173 163 152
0.931782 -0.135665 -0.027107 172 165 158
0.934525 -0.141713 -0.005191 170 165 160
0.956825 0.260123 0.142502 199 193 186
0.942207 0.267586 0.139818 205 200 192
0.952370 0.296071 0.139007 205 198 189
0.947664 0.249569 -0.333191 69 68 63
0.771702 0.145892 0.202262 193 178 175
0.764303 0.118982 0.208742 187 182 174
0.766939 0.128991 0.211222 192 178 175
0.766866 0.141677 0.211474 191 178 172
0.773723 0.132210 0.202008 193 179 170
0.766935 0.137300 0.207331 193 177 174
0.861637 0.159615 0.132220 190 178 170
0.913620 -0.152767 -0.132941 152 142 132
0.905833 -0.150622 -0.144093 138 131 127
0.930076 -0.151240 -0.153673 139 131 120
0.782416 -0.119381 0.012793 181 175 166
0.796461 -0.120619 0.002553 183 171 168
0.833462 -0.093965 -0.070996 57 55 44
0.838105 -0.083514 -0.089328 57 61 43
0.834007 -0.073130 -0.068018 60 52 44
0.827418 -0.080681 -0.071173 56 58 46
0.824192 -0.089362 -0.064238 64 61 50
0.837356 -0.089218 -0.082725 69 73 53
0.921077 0.226733 0.086046 186 183 174
0.918180 -0.095859 -0.070765 113 104 100
0.899744 -0.089439 -0.068894 163 156 155
0.926160 -0.120797 -0.073491 115 108 103
0.941396 -0.136647 -0.084280 128 118 111
0.913967 -0.129662 -0.067951 175 167 162
0.910412 -0.140728 -0.070186 171 164 157
0.730902 0.216884 0.007860 100 100 83
0.909583 -0.113453 -0.136948 106 109 98
0.892904 -0.116673 -0.129425 71 71 65
0.894530 -0.097204 -0.125038 77 73 67
0.911039 -0.105141 -0.133331 74 73 65
0.907057 -0.085413 -0.128265 64 65 53
0.946213 0.114312 -0.274191 123 121 114
0.926974 -0.089013 -0.137727 77 76 72
0.787534 0.192808 -0.032934 89 87 73
0.782429 0.181139 0.000923 101 98 89
0.789459 0.184922 -0.000684 127 121 109
0.937362 -0.148362 0.005309 164 156 145
0.943424 -0.160268 0.014809 168 163 155
0.935898 -0.142444 0.033059 156 145 142
0.795332 0.236800 -0.051740 109 105 91
0.791044 0.245466 -0.048749 98 97 86
0.801155 0.256041 -0.050041 87 85 72
0.932913 0.011844 0.006799 149 148 143
0.937522 -0.011382 0.046559 156 154 150
0.872511 -0.016681 0.148156 193 184 172
0.856531 -0.012237 0.157624 198 187 183
0.862300 -0.011331 0.163251 189 177 169
0.853272 0.007792 0.158558 190 178 168
0.864315 0.000056 0.162383 191 178 167
0.866914 -0.002459 0.143496 194 185 174
0.863314 0.010421 0.147513 193 179 171
0.746106 0.019959 0.036051 142 137 127
0.779766 0.258535 -0.030040 118 119 116
0.755232 0.248193 -0.022041 100 100 89
0.753781 0.254764 -0.012730 91 91 76
0.773481 0.261952 -0.009091 101 101 89
0.763021 0.260595 -0.002011 86 90 77
0.779510 -0.064742 -0.000175 177 170 165
0.946606 0.322177 0.130555 204 199 190
0.800246 0.125026 0.163989 189 178 173
0.806538 0.149204 0.159877 188 178 176
0.930000 0.128372 0.078092 138 138 127
0.922599 0.122094 0.086315 140 138 132
0.914072 0.136934 0.097227 192 184 179
0.927234 0.131771 0.082703 165 159 147
0.934649 0.119969 0.068379 137 137 137
0.828517 -0.078165 -0.023621 172 167 167
0.809461 -0.077814 -0.009536 164 167 154
0.790070 -0.082928 -0.024220 106 98 85
0.800878 -0.067484 -0.018647 171 160 164
0.782670 -0.075761 -0.010709 178 170 166
0.804079 -0.060992 0.207272 184 186 186
0.810998 -0.035188 0.203054 184 183 182
0.792867 -0.055414 0.212079 193 193 192
0.779898 -0.033038 0.215360 190 192 186
0.804758 0.188168 -0.014199 125 123 111
0.796624 0.187148 -0.015714 120 116 105
0.810135 0.188886 -0.023796 123 121 111
0.814673 0.191135 -0.016765 128 119 112
0.824529 0.185378 -0.021886 125 115 107
0.872709 0.018257 -0.040986 92 88 88
0.865412 0.036876 -0.035226 102 92 93
0.906536 0.024678 -0.060868 88 84 78
0.747806 -0.113283 -0.015096 165 155 153
0.736065 -0.112520 -0.006968 165 157 150
0.747298 -0.103797 -0.000616 150 145 138
0.757981 -0.106444 -0.007574 105 99 90
0.846776 -0.062500 -0.078609 71 62 58
0.891326 -0.070222 -0.069293 156 149 147
0.870213 -0.096685 -0.060080 162 159 157
0.901145 0.099788 0.097508 189 179 169
0.854224 -0.082893 0.163711 171 169 169
0.836689 -0.081632 0.166032 151 147 140
0.836044 -0.085662 0.173593 173 167 163
0.846414 -0.071424 0.177290 194 181 177
0.817476 -0.063399 0.176615 174 167 161
0.845342 -0.074086 0.158648 151 145 138
0.829035 -0.076706 0.188690 181 177 173
0.831328 -0.084997 0.183266 172 169 172
0.821508 -0.085046 0.179820 149 147 139
0.851322 -0.076721 0.171344 178 173 172
0.824279 -0.067188 0.171647 152 151 144
0.847948 -0.058095 0.170102 192 180 177
0.838925 -0.059641 0.168958 171 170 167
0.823371 -0.067313 0.195108 187 186 180
0.892250 -0.132363 -0.064448 188 174 171
0.887131 -0.117488 -0.067293 183 176 173
0.974069 0.071000 0.087129 209 198 193
0.964005 0.046669 0.092807 208 192 192
0.926014 -0.144049 -0.079432 145 137 128
0.925111 -0.151619 -0.086530 165 155 141
0.905215 -0.155094 -0.090103 158 149 145
0.975405 0.084547 0.088224 210 195 190
0.951212 0.082397 0.097910 207 192 186
0.961292 0.063399 0.095077 209 194 188
0.973717 0.099939 0.093842 207 192 189
0.935616 0.096980 0.042434 147 146 133
0.935941 0.078940 0.066767 141 143 131
0.849461 -0.009963 -0.053681 121 119 105
0.856643 0.000590 -0.054888 101 97 85
0.856220 -0.011208 -0.032912 135 130 125
0.837425 -0.010222 -0.030686 132 127 119
0.846557 -0.001204 -0.041158 146 138 127
0.846789 -0.006362 -0.032198 145 134 128
0.847783 -0.021413 -0.047770 122 118 112
0.856058 0.003095 -0.036667 114 113 96
0.861930 -0.020728 -0.033948 128 126 115
0.870936 -0.007397 -0.039827 110 105 100
0.853782 -0.029408 -0.040413 120 117 106
0.942837 0.002913 -0.285191 145 138 131
0.731731 0.251604 0.026543 144 136 124
0.744060 0.255710 0.019726 139 134 118
0.735235 0.254547 0.006316 108 106 93
0.959263 -0.064328 -0.031924 87 89 95
0.958002 -0.055259 -0.025131 42 45 43
0.873783 0.068695 -0.119099 85 86 74
0.955915 -0.062067 -0.151955 73 73 63
0.949602 -0.046808 -0.149348 73 73 63
0.943269 -0.035426 -0.149290 67 67 58
0.876261 0.239268 -0.129863 107 101 95
0.862946 0.235712 -0.125612 105 105 91
0.945461 0.262768 -0.055672 141 129 125
0.937602 0.278778 -0.036353 128 131 126
0.928870 0.252065 -0.027574 126 123 119
0.936151 0.263085 -0.041839 112 112 105
0.932520 0.268900 -0.032825 140 141 137
0.846618 0.251808 -0.051498 122 110 108
0.850958 0.240695 -0.048642 88 78 79
0.865574 0.248722 -0.058516 121 111 105
0.944163 0.111832 -0.310190 128 126 113
0.938872 0.088727 -0.320691 125 128 125
0.943423 0.106051 -0.289441 126 122 114
0.933510 0.178445 -0.143818 66 69 55
0.935223 0.186187 -0.138949 70 71 51
0.933607 0.012547 0.001534 153 150 144
0.955536 -0.121237 -0.218469 147 139 138
0.955263 -0.123290 -0.207704 141 136 123
0.957398 -0.109767 -0.213322 136 135 125
0.950601 0.255394 -0.197644 81 76 72
0.953188 0.123648 -0.059148 55 63 58
0.953467 0.130875 -0.044113 25 31 29
0.957832 0.143854 -0.031398 122 130 128
0.956009 0.152500 -0.038383 145 145 142
0.956328 0.202706 -0.070414 116 115 110
0.951162 0.219365 -0.050148 140 141 131
0.947773 0.231901 -0.046436 138 139 133
0.951851 0.203104 -0.051487 57 64 65
0.955150 0.211497 -0.034458 93 93 89
0.894373 0.164488 -0.059910 106 103 90
0.872861 0.166470 -0.047594 107 101 90
0.860359 0.154645 -0.038221 107 105 94
0.961211 0.098130 0.100676 196 181 178
0.953996 0.375320 -0.038618 132 129 124
0.959971 0.383063 -0.029214 109 107 97
0.958271 0.382633 -0.053329 142 139 132
0.956213 0.380280 -0.070303 137 140 128
0.962786 0.386676 -0.045222 143 139 128
0.948968 0.049723 -0.176244 112 113 106
0.946832 0.029182 -0.169783 62 61 48
0.949137 0.054989 -0.193696 115 108 105
0.943138 0.042288 -0.161164 58 53 46
0.949804 0.206191 -0.272566 116 115 100
0.883656 0.221473 -0.127371 56 49 42
0.877428 0.199379 -0.121760 33 34 28
0.953882 -0.079948 -0.252400 139 135 133
0.690965 0.055903 0.064012 169 169 161
0.693341 0.073853 0.061720 141 140 135
0.690272 0.057060 0.052715 170 168 165
0.687094 0.065869 0.058994 153 153 147
0.949674 -0.018996 -0.153027 71 71 58
0.944892 -0.017251 -0.148240 79 81 69
0.949825 -0.034661 -0.160564 70 69 58
0.829107 0.195043 -0.078521 53 49 43
0.940071 0.297604 0.003309 146 142 136
0.940655 0.301497 0.016809 147 145 138
0.726729 0.033338 0.031080 101 101 88
0.715319 0.038896 0.041457 103 102 91
0.724539 0.007039 0.031147 100 95 87
0.933581 0.120828 0.016309 146 143 141
0.932635 0.130833 0.006811 145 147 138
0.935154 0.088052 0.031747 144 148 138
0.731572 0.160305 0.043562 135 129 116
0.942866 0.301938 0.074969 146 141 132
0.942004 0.305477 0.035934 144 146 133
0.723760 -0.124568 0.010314 166 158 149
0.712669 -0.126162 0.027892 174 155 151
0.730822 -0.131271 0.011683 169 156 151
0.887470 -0.150131 -0.134314 140 122 126
0.761356 0.055047 0.215047 192 179 177
0.767855 0.070970 0.217040 193 178 177
0.777906 0.065960 0.215869 194 178 177
0.765688 0.078271 0.203808 190 181 170
0.777168 0.064946 0.201317 193 181 179
0.760071 0.078406 0.210715 192 180 176
0.787257 0.075939 0.211397 192 180 172
0.932363 0.211397 0.064810 140 141 136
0.933800 0.198700 0.050810 146 145 135
0.873645 -0.092754 0.153190 192 182 183
0.871604 -0.106939 0.137167 149 149 145
0.880461 -0.085996 0.160462 190 180 181
0.879682 -0.112671 0.155330 176 170 173
0.869274 -0.104608 0.143139 188 183 182
0.598589 0.352735 -0.140048 126 94 73
0.951982 0.351099 -0.238690 106 101 91
0.950709 0.321154 0.093023 163 159 154
0.944713 0.301043 0.088479 142 141 132
0.949646 0.369108 -0.186415 91 86 71
0.949538 0.371495 -0.173431 80 77 68
0.949852 0.353156 -0.190259 100 95 82
0.952346 0.362141 -0.163906 102 96 85
0.949942 0.376574 -0.175439 80 79 70
0.855277 0.253593 -0.122024 97 98 89
0.847578 0.261092 -0.107177 104 104 94
0.860424 0.262349 -0.105913 106 107 97
0.881750 0.275500 -0.093772 104 107 94
0.863181 0.259584 -0.115668 101 103 93
0.849111 0.257624 -0.118154 97 99 90
0.924644 -0.132241 0.101186 166 161 153
0.928273 -0.134462 0.118327 170 164 163
0.913710 -0.132530 0.121228 170 166 160
0.914005 -0.125439 0.106651 163 156 151
0.933233 -0.136320 0.103445 157 147 145
0.900885 -0.127659 0.122938 161 158 152
0.953875 0.372942 -0.094932 133 132 116
0.955629 0.351723 -0.116183 131 128 127
0.954614 0.378296 -0.110689 134 129 114
0.955234 0.366072 -0.112750 135 133 123
0.945427 0.139822 -0.180681 113 111 104
0.946227 0.134238 -0.168238 63 66 51
0.946740 0.148127 -0.168392 62 60 52
0.945922 0.123081 -0.163115 63 61 48
0.895944 0.011892 0.118275 194 181 175
0.902864 -0.010725 0.111523 198 185 180
0.894326 -0.001989 0.121836 191 182 178
0.880857 0.005119 0.130740 197 180 176
0.855382 0.006401 0.163943 191 178 170
0.945852 0.280666 -0.337566 112 107 101
0.847961 0.009651 -0.042870 89 81 65
0.851164 0.025401 -0.052046 117 112 100
0.851786 0.017176 -0.052257 120 116 106
0.846285 0.015612 -0.033769 117 114 114
0.856880 0.011035 -0.036129 112 109 97
0.841881 0.019239 -0.036831 117 120 102
0.843592 0.027970 -0.032102 114 111 98
0.856525 0.023439 -0.032768 111 106 101
0.848775 0.044365 -0.031256 107 103 95
0.670991 0.193189 0.067054 175 169 170
0.949882 0.042308 -0.191685 118 115 109
0.949429 0.056115 -0.222175 121 121 109
0.946197 0.029454 -0.208191 122 119 110
0.946430 0.039078 -0.233191 120 122 112
0.952368 0.267133 -0.069502 138 131 128
0.955707 0.285288 -0.077036 134 135 126
0.595388 0.385769 -0.138949 136 108 87
0.597579 0.406994 -0.141136 129 104 73
0.592101 0.404697 -0.133256 131 105 78
0.947968 0.172211 0.106838 190 179 166
0.934689 0.169568 0.113184 188 175 166
0.954660 0.154327 0.100504 200 188 183
0.950082 0.180999 0.104018 183 179 176
0.910862 0.129602 -0.133205 70 67 60
0.915530 0.148451 -0.133494 64 62 51
0.901022 0.118859 -0.128213 70 69 56
0.888818 0.119316 -0.125591 67 65 51
0.898482 0.134326 -0.127751 67 67 56
0.898244 0.145420 -0.126493 63 60 49
0.686132 0.001421 0.054926 149 147 143
0.691233 -0.019131 0.052696 176 174 172
0.696790 -0.004857 0.044243 164 162 159
0.691011 -0.017498 0.060166 162 160 156
0.684375 -0.004940 0.059576 152 150 145
0.698771 -0.012248 0.062364 180 177 176
0.851623 -0.100758 -0.047845 165 160 148
0.937938 0.100761 0.116209 194 182 174
0.924690 0.116040 0.127717 193 182 178
0.803787 -0.007218 0.191117 195 182 174
0.763008 0.167834 0.191227 191 179 174
0.766881 0.184321 0.187555 189 180 173
0.768008 0.177551 0.194812 186 179 171
0.764000 0.168729 0.186943 191 177 170
0.859525 -0.072142 -0.055611 159 157 152
0.872218 -0.066430 -0.062179 162 157 149
0.851116 -0.075428 -0.049194 154 146 144
0.895628 0.280427 -0.109320 96 100 93
0.895608 0.274242 -0.125192 103 104 98
0.854648 0.071355 -0.060135 110 109 97
0.855868 0.058760 -0.033539 111 101 95
0.844465 0.063381 -0.030139 116 104 94
0.847124 0.073641 -0.029290 104 100 96
0.846061 0.045065 -0.034756 103 102 92
0.849674 0.046524 -0.044583 112 104 104
0.849200 0.060379 -0.043031 109 104 96
0.842041 0.062666 -0.033274 112 112 102
0.849383 0.071717 -0.038620 110 105 95
0.855592 0.051961 -0.054783 102 94 87
0.889692 0.153845 -0.125793 63 65 55
0.896573 0.165136 -0.127904 62 60 53
0.895060 -0.122812 0.122822 152 152 150
0.851734 -0.103050 -0.084614 63 61 42
0.846422 -0.099442 -0.079195 63 61 42
0.848865 -0.115828 -0.078621 63 60 52
0.844600 -0.121815 -0.089021 57 54 47
0.838859 -0.120782 -0.066893 128 120 109
0.963582 0.389510 -0.170548 65 60 50
0.942296 -0.034207 -0.300229 136 127 122
0.936834 -0.056651 -0.001043 122 124 122
0.732387 0.242485 -0.004625 102 101 87
0.750770 0.256132 -0.001745 101 105 96
0.949274 0.272403 -0.253191 108 110 99
0.949110 0.300566 -0.259190 108 109 97
0.898346 0.010034 -0.128829 67 67 56
0.915898 -0.006734 -0.132990 74 72 69
0.917755 0.030405 -0.134949 75 76 63
0.914595 0.005059 -0.134670 69 68 59
0.843875 0.213206 -0.104317 104 102 90
0.850966 0.205592 -0.109960 106 104 92
0.855616 0.219551 -0.116729 98 97 88
0.835540 0.226365 -0.096402 33 33 29
0.840490 0.234925 -0.111325 105 104 93
0.910566 0.181206 0.094811 188 177 171
0.927460 0.154993 0.081903 177 170 163
0.928852 0.178573 0.077118 165 159 152
0.924853 0.167308 0.083341 189 177 174
0.939506 -0.042518 -0.081483 104 97 95
0.950966 -0.055991 -0.089302 103 104 91
0.919233 -0.056074 -0.071919 98 100 93
0.931712 -0.059761 -0.078507 99 96 90
0.945700 0.266984 -0.095534 108 102 92
0.950254 0.181623 -0.277941 119 118 105
0.948540 0.170013 -0.276191 115 114 106
0.950956 0.177617 -0.245191 112 116 102
0.950615 0.256842 -0.234191 91 88 84
0.951339 0.256334 -0.208014 97 95 86
0.951623 0.292051 -0.207488 112 109 97
0.949479 0.184506 -0.299191 119 119 111
0.942308 0.150286 -0.299191 120 126 112
0.948045 0.175019 -0.302941 120 120 114
0.773661 0.180541 0.182077 190 180 172
0.777950 0.157092 0.183055 192 178 171
0.770153 0.163023 0.183233 192 178 170
0.786463 0.163322 0.183255 188 178 167
0.796815 0.172694 0.165112 192 179 175
0.792307 0.192435 0.169836 192 177 178
0.784794 0.162025 0.174133 188 181 170
0.782650 0.175474 0.176673 189 179 173
0.796263 0.162699 0.193680 191 178 173
0.790819 0.159005 0.194393 188 179 170
0.781732 0.166370 0.190479 190 180 171
0.799296 0.185976 0.184524 191 180 176
0.767379 0.184666 0.193431 189 179 173
0.771467 0.160968 0.185999 192 179 173
0.763904 0.173582 0.191294 193 181 172
0.862906 0.028383 -0.113330 68 69 58
0.850393 0.020608 -0.103723 53 57 43
0.937690 0.312086 -0.112879 100 102 91
0.922748 0.299631 -0.111291 99 102 88
0.926768 0.304429 -0.106170 101 102 91
0.911039 0.290927 -0.120763 92 94 83
0.906168 0.291446 -0.095767 106 105 94
0.921407 0.295012 -0.098258 139 136 132
0.934014 0.301304 -0.104680 139 138 132
0.944744 0.167074 -0.327441 123 124 109
0.947675 0.183120 -0.326191 118 120 109
0.922144 -0.142493 -0.163603 136 133 128
0.928838 -0.147585 -0.162440 142 141 129
0.912442 -0.004727 0.100891 196 186 183
0.919969 0.022124 0.092034 194 180 176
0.930640 0.033525 0.078598 137 142 133
0.926697 0.001103 0.085225 195 185 185
0.917688 0.155533 0.093883 189 181 172
0.898644 0.166420 0.106411 189 179 171
0.921835 0.180766 0.123346 188 179 172
0.917340 0.168575 0.126740 189 176 172
0.765809 0.192197 0.190320 193 182 169
0.756407 0.192083 0.193789 188 179 170
0.688748 0.015648 0.062730 123 119 115
0.690343 0.035330 0.062895 105 104 100
0.694782 0.016026 0.064382 174 172 164
0.700390 0.021612 0.063607 161 158 148
0.695549 0.012205 0.045696 173 170 167
0.688380 0.029230 0.057974 175 173 168
0.685507 0.009064 0.059196 176 171 168
0.702004 -0.110759 0.054163 196 193 182
0.699904 -0.090704 0.056462 191 185 181
0.710519 -0.092617 0.057526 173 170 165
0.700625 -0.119251 0.039860 165 159 153
0.709771 -0.119593 0.051054 181 173 169
0.725084 -0.103037 0.050846 174 170 163
0.718354 -0.111540 0.053429 175 173 174
0.848325 0.115927 -0.066281 98 96 91
0.948930 0.227347 -0.309191 116 116 102
0.945288 0.375649 -0.241215 69 65 57
0.953093 0.364230 -0.220129 107 103 87
0.945537 0.372141 -0.235834 84 76 71
0.948112 0.380460 -0.266966 78 72 64
0.936363 0.273540 0.061738 147 141 133
0.934022 0.266667 0.071278 147 143 129
0.931832 0.270224 0.093543 143 139 132
0.937935 0.284543 0.087664 142 139 131
0.917560 0.104105 0.130573 191 179 180
0.915389 0.123496 0.134234 190 181 175
0.848999 0.119559 -0.045855 93 89 73
0.852428 0.121089 -0.054897 96 94 82
0.843115 0.131221 -0.031837 109 112 95
0.869394 0.122413 -0.038199 101 102 95
0.856654 0.110384 -0.031810 106 104 98
0.853928 0.125730 -0.032669 108 105 89
0.944717 0.110000 0.113228 194 181 171
0.965310 0.120456 0.102229 204 196 189
0.949516 -0.032008 -0.069138 108 111 101
0.945690 -0.030567 -0.078665 117 111 113
0.946660 -0.013467 -0.085903 136 132 130
0.955248 -0.014315 -0.077473 128 130 121
0.953497 -0.000748 -0.084602 126 128 120
0.932272 0.051513 0.072795 139 140 136
0.932083 0.019848 0.078155 191 180 173
0.943934 0.042842 0.101170 197 180 181
0.951806 0.044835 0.097530 199 185 183
0.936626 0.044995 0.067545 145 144 140
0.939196 -0.148997 0.044309 170 162 158
0.934099 -0.130292 0.053809 170 164 149
0.732530 -0.019754 0.029489 168 163 163
0.739791 -0.014343 0.024616 164 158 150
0.885048 -0.093534 -0.067189 176 171 164
0.951053 0.381072 -0.230991 77 76 60
0.953929 0.357584 -0.203374 104 103 92
0.948312 0.372465 -0.216202 86 86 76
0.948533 0.376528 -0.220338 64 65 54
0.948614 0.373330 -0.200743 83 84 73
0.880932 0.163711 -0.122910 58 53 36
0.877690 0.182556 -0.120545 91 88 76
0.727748 0.198426 0.016195 99 98 84
0.708722 0.192950 0.033780 91 85 74
0.785843 0.198539 0.005316 131 130 115
0.771384 0.223392 0.009786 133 129 119
0.782746 0.210189 0.006953 132 125 111
0.777376 0.197311 0.012587 131 127 116
0.951009 0.082369 -0.035305 106 105 84
0.948980 0.067024 -0.061118 40 43 46
0.931500 0.242536 0.015309 142 145 129
0.931775 0.228173 0.004701 139 138 134
0.802366 0.038330 0.203309 190 179 178
0.797543 0.032121 0.195507 191 181 179
0.812137 0.042995 0.194786 193 182 173
0.807612 0.066132 0.198608 193 180 175
0.790315 0.052802 0.198402 192 181 178
0.805168 0.062114 0.193497 191 182 179
0.810152 0.067647 0.194802 191 183 174
0.856932 -0.118510 -0.052198 177 169 164
0.837747 -0.106822 -0.033128 166 160 158
0.950054 0.121183 -0.227190 116 117 106
0.948017 0.116772 -0.244813 122 118 112
0.838359 0.122555 0.170228 191 182 174
0.838237 0.131155 0.159108 195 183 178
0.841795 0.108146 0.165816 195 185 180
0.901903 0.228287 -0.069069 134 130 118
0.904465 0.238747 -0.067706 135 130 127
0.954198 -0.059566 -0.017285 67 68 69
0.960461 -0.096375 -0.027532 59 58 55
0.938605 0.020431 -0.005644 83 82 76
0.957945 0.025207 -0.024782 36 39 49
0.952183 -0.002449 -0.015912 35 38 39
0.950959 0.014397 -0.013930 80 80 82
0.935583 -0.005385 -0.001254 152 149 141
0.956231 0.011396 -0.022739 59 63 58
0.942058 -0.004639 -0.007829 37 38 34
0.960173 -0.011034 -0.031295 70 70 69
0.938079 0.203372 0.113606 188 180 173
0.931292 0.213325 0.119179 187 181 173
0.931146 0.224690 0.134844 186 182 178
0.941993 0.221011 0.130901 185 183 174
0.950309 0.208149 0.110029 186 180 172
0.941501 0.179167 0.110970 187 179 173
0.958576 0.191897 0.100239 187 180 172
0.773636 -0.041437 0.203337 181 178 175
0.779651 -0.050158 0.214814 196 187 185
0.775288 -0.058974 0.211616 188 185 182
0.774853 -0.071601 0.205348 194 187 183
0.779702 -0.078716 0.208438 192 188 187
0.784506 -0.076806 0.211989 188 184 180
0.924854 0.246337 -0.078336 136 133 127
0.947939 0.250121 -0.088856 112 107 98
0.938989 0.234503 -0.085250 108 103 101
0.938224 0.255824 -0.089893 102 95 92
0.766965 0.157193 0.206768 188 179 171
0.765303 0.173826 0.203235 188 180 175
0.766412 0.169676 0.207102 188 180 175
0.773134 0.166356 0.197954 193 178 177
0.861184 0.207475 -0.116544 106 104 94
0.871647 0.220919 -0.122711 97 96 89
0.943552 0.155827 0.106424 191 177 178
0.951514 0.129288 0.109728 196 185 179
0.953242 0.145894 0.102381 192 180 175
0.946207 -0.004712 -0.153279 70 70 61
0.944980 -0.001480 -0.159142 73 70 62
0.931027 0.013094 -0.144447 80 74 64
0.939768 0.003345 -0.148545 64 63 56
0.815272 -0.061749 -0.013770 160 160 155
0.822930 -0.055585 -0.023145 154 149 146
0.809891 -0.056748 -0.014635 155 150 147
0.820682 -0.056579 -0.028087 164 164 156
0.814843 0.245005 -0.063901 104 104 89
0.820542 0.232231 -0.070934 105 105 94
0.940890 -0.065343 -0.141805 62 60 52
0.922461 -0.076799 -0.132888 65 66 52
0.914673 -0.062860 -0.124000 70 65 57
0.943336 -0.053026 -0.142455 74 73 63
0.925819 -0.059645 -0.130668 69 65 56
0.927400 -0.043614 -0.137395 71 72 65
0.933837 -0.054151 -0.134558 73 69 60
0.759733 0.224892 -0.024375 96 99 87
0.780571 0.255038 -0.003798 134 128 117
0.766564 0.254954 -0.024974 104 102 86
0.954494 0.282601 -0.066323 135 137 127
0.914445 0.072646 -0.133268 64 69 50
0.898818 0.070794 -0.127058 66 71 59
0.907364 0.089199 -0.129136 56 60 46
0.898272 0.059060 -0.125856 55 64 48
0.910520 -0.106234 0.146743 182 171 170
0.888032 -0.105213 0.158972 181 177 175
0.901239 -0.087621 0.152289 200 183 181
0.921564 -0.087350 0.136873 179 168 161
0.938520 0.297645 -0.028285 145 142 133
0.952015 0.314902 -0.055025 135 138 128
0.945554 0.297392 -0.045503 138 138 130
0.940987 0.308300 -0.032984 134 135 129
0.855426 0.272001 -0.066037 113 109 109
0.873053 0.278509 -0.078008 111 115 100
0.865634 0.276198 -0.074216 112 114 106
0.905362 -0.058655 -0.069126 147 142 135
0.908730 -0.043412 -0.068225 123 119 111
0.889121 -0.053941 -0.066792 142 134 134
0.910008 -0.097544 -0.068624 112 101 91
0.791349 0.124629 0.203505 186 182 166
0.786055 0.107153 0.210687 193 180 176
0.798331 0.105163 0.193788 189 181 173
0.807491 0.101587 0.195890 191 180 172
0.803975 0.116247 0.198788 194 175 174
0.786301 0.095054 0.211075 194 179 176
0.798080 0.079259 0.203687 193 180 173
0.798298 0.115722 0.202818 192 180 172
0.785734 0.108187 0.198816 187 180 176
0.800172 0.117447 0.195304 193 179 174
0.783764 0.131289 0.198942 193 180 173
0.930855 -0.101162 -0.142781 73 75 70
0.939416 -0.090021 -0.144929 77 77 71
0.953588 -0.079800 -0.153570 74 73 66
0.948976 -0.093092 -0.153182 78 76 74
0.917667 -0.001964 -0.072429 104 94 91
0.910263 0.001983 -0.063727 93 89 90
0.926957 -0.000051 -0.079825 105 96 96
0.928580 0.036636 -0.082063 96 93 87
0.938369 -0.025407 -0.082342 104 98 95
0.917866 -0.017140 -0.070213 104 98 92
0.916403 -0.035092 -0.069696 100 96 87
0.952380 -0.023486 -0.014705 32 34 29
0.957685 -0.019083 -0.023179 38 40 35
0.942999 -0.023243 -0.007524 51 50 48
0.781081 0.185608 0.194872 190 179 173
0.791179 0.155369 0.201299 189 179 175
0.788174 0.171621 0.202313 190 179 175
0.777547 0.170946 0.207241 192 179 177
0.783164 0.178060 0.202721 188 180 168
0.773967 0.182411 0.201334 188 179 170
0.954917 0.372673 0.076233 165 163 153
0.955801 0.354600 0.091702 171 170 164
0.954146 0.372696 0.056457 146 147 133
0.953928 0.373076 0.035699 146 145 134
0.948505 0.369932 -0.318847 108 102 97
0.947212 0.375985 -0.314372 102 99 89
0.945293 0.375818 -0.325827 103 98 87
0.945269 0.371700 -0.339467 110 104 94
0.836765 0.103595 0.148282 191 177 169
0.808101 0.124007 0.159041 193 174 174
0.842785 0.108674 0.157890 188 176 173
0.825804 0.117963 0.157718 190 176 174
0.825075 0.127121 0.152131 190 179 169
0.850777 0.130213 0.141442 197 186 182
0.824418 0.102568 0.155178 189 177 169
0.814925 0.110931 0.159307 189 176 169
0.835437 0.111276 0.155788 189 179 171
0.836762 0.117864 0.148400 188 175 170
0.818602 0.117637 0.154823 191 177 176
0.829803 0.105338 0.151164 185 175 166
0.743829 0.221538 -0.008759 106 100 88
0.741417 0.251320 -0.007796 99 100 87
0.740672 0.235067 -0.012648 100 99 87
0.702523 0.061843 0.061516 174 175 164
0.713030 0.040490 0.055442 151 148 133
0.732812 0.042857 0.038851 137 135 125
0.709452 0.063010 0.042287 102 103 95
0.710009 0.066687 0.056405 124 116 109
0.723551 0.049538 0.045045 140 139 132
0.794656 0.124683 -0.003187 127 120 112
0.785222 0.110989 0.004538 114 113 103
0.791584 0.113467 0.004470 123 119 107
0.901552 0.183617 -0.069872 97 97 88
0.915673 0.163016 -0.072264 106 105 90
0.909035 0.152777 -0.067433 100 95 88
0.918672 0.174752 -0.073959 64 64 59
0.953931 0.133341 -0.021633 57 56 55
0.946756 0.135051 -0.013080 121 121 119
0.938779 0.153858 -0.006658 121 121 119
0.893995 -0.027389 -0.125940 108 111 95
0.831146 -0.017390 -0.024015 132 129 118
0.838948 -0.016876 -0.024577 139 134 124
0.825541 -0.101230 -0.020685 170 169 167
0.824793 -0.120834 -0.016168 176 173 173
0.796916 -0.105505 -0.000883 181 171 169
0.809773 -0.124731 -0.005588 181 178 172
0.810080 -0.112568 -0.009022 179 175 163
0.869490 0.246392 -0.128768 105 104 90
0.881364 0.257016 -0.127952 74 68 63
0.872869 0.257277 -0.123385 93 93 81
0.815198 0.239239 -0.022955 127 123 111
0.816178 0.255351 -0.027480 123 120 107
0.805441 0.242027 -0.015249 130 126 117
0.802386 0.255110 -0.017198 131 126 116
0.928634 0.193236 -0.133869 56 58 50
0.946222 0.225132 -0.156151 63 62 52
0.943354 0.213769 -0.149238 58 59 44
0.941005 0.195334 -0.144015 70 66 61
0.947075 -0.169716 -0.021941 168 162 152
0.942140 0.115491 -0.359191 123 121 114
0.944134 0.126138 -0.335191 128 126 117
0.938126 0.140064 -0.152400 72 69 57
0.918967 0.113905 -0.136268 69 66 56
0.937320 0.126291 -0.152629 59 54 47
0.925302 0.144231 -0.140970 71 69 57
0.925640 0.119817 -0.141231 71 68 58
0.937877 0.071763 -0.148489 75 73 67
0.942252 0.072756 -0.159681 65 64 50
0.932223 0.096450 -0.145763 77 74 67
0.937643 0.089109 -0.150530 73 73 63
0.925097 0.076270 -0.139551 73 74 66
0.931229 0.062886 -0.143909 69 71 63
0.951526 -0.073181 -0.307191 136 136 124
0.718926 0.077760 0.048101 122 118 106
0.728984 0.071814 0.038718 122 117 108
0.843704 -0.129060 -0.033905 175 165 168
0.948350 0.267095 -0.290191 106 112 93
0.866734 -0.149817 -0.061172 164 154 147
0.874531 -0.134145 -0.059735 188 181 176
0.874953 -0.120362 -0.062969 181 175 169
0.940758 0.102457 -0.329989 126 122 113
0.944088 0.078759 -0.201941 121 122 110
0.945396 0.068861 -0.184143 116 115 102
0.899276 -0.076250 -0.124279 60 61 43
0.833038 0.112393 -0.029094 122 126 115
0.853657 0.098991 -0.032208 112 109 91
0.828989 0.118735 -0.017804 129 123 109
0.839784 0.105512 -0.022209 121 118 113
0.824506 0.114251 -0.023255 128 127 111
0.825283 0.092988 -0.025385 130 124 116
0.843580 0.117880 -0.025685 106 108 90
0.833951 0.124589 -0.024442 130 124 109
0.839986 0.122787 -0.028624 122 116 111
0.770974 0.160478 0.014854 126 121 108
0.770352 0.178236 0.005869 124 116 106
0.776238 0.179759 0.007298 126 124 112
0.938216 -0.102005 0.068540 158 157 155
0.930608 -0.097110 0.083649 161 161 159
0.926476 -0.094178 0.102965 129 133 124
0.929376 -0.069887 0.087086 148 147 145
0.936680 -0.090248 0.073007 156 159 153
0.926135 -0.102587 0.096587 142 143 138
0.926207 0.191148 0.121289 187 179 174
0.900839 0.211548 0.103884 185 178 168
