ply
format ascii 1.0
element vertex 1347
property float x
property float y
property float z
property uchar red
property uchar green
property uchar blue
end_header
-0.230074 0.180057 0.262652 255 0 255
-0.263097 0.209664 0.270652 255 0 255
-0.105431 0.248595 0.358652 255 0 255
-0.086852 0.257397 0.330652 255 0 255
-0.189734 0.161733 0.282652 255 0 255
-0.196136 0.304427 0.364652 255 0 255
-0.231229 0.296121 0.346652 255 0 255
-0.248888 0.186275 0.272652 255 0 255
-0.104635 0.198628 0.322652 255 0 255
-0.221968 0.275228 0.364652 255 0 255
-0.085042 0.204970 0.278652 255 0 255
-0.223308 0.292885 0.358113 255 0 255
-0.116229 0.278680 0.364652 255 0 255
-0.076395 0.210580 0.286652 255 0 255
-0.222888 0.178965 0.244652 255 0 255
-0.102528 0.303316 0.334651 255 0 255
-0.239091 0.196781 0.236652 255 0 255
-0.160306 0.171238 0.322652 255 0 255
-0.074797 0.236435 0.294652 255 0 255
-0.151653 0.165903 0.304652 255 0 255
-0.186228 0.203615 0.368407 255 0 255
-0.240430 0.215873 0.207820 255 0 255
-0.189923 0.167395 0.306652 255 0 255
-0.112541 0.291432 0.354652 255 0 255
-0.153212 0.170091 0.228651 255 0 255
-0.078813 0.240181 0.322652 255 0 255
-0.109596 0.178643 0.284652 255 0 255
-0.220412 0.164026 0.258652 255 0 255
-0.084963 0.193957 0.268652 255 0 255
-0.164503 0.229844 0.371681 255 0 255
-0.255098 0.208940 0.256652 255 0 255
-0.237717 0.198254 0.310652 255 0 255
-0.182610 0.160574 0.278652 255 0 255
-0.156307 0.177051 0.330652 255 0 255
-0.244952 0.304865 0.325674 255 0 255
-0.174454 0.169320 0.320652 255 0 255
-0.079326 0.262536 0.328449 255 0 255
-0.083040 0.287878 0.313691 255 0 255
-0.226518 0.166274 0.266652 255 0 255
-0.145790 0.160435 0.274651 255 0 255
-0.123456 0.169690 0.262652 255 0 255
-0.267762 0.246831 0.290652 255 0 255
-0.235108 0.171726 0.272652 255 0 255
-0.118878 0.199594 0.336652 255 0 255
-0.109756 0.184262 0.238652 255 0 255
-0.112537 0.200528 0.331681 255 0 255
-0.151258 0.255779 0.373708 255 0 255
-0.234379 0.184238 0.270652 255 0 255
-0.175533 0.159365 0.290652 255 0 255
-0.237331 0.186938 0.282652 255 0 255
-0.230927 0.173277 0.250652 255 0 255
-0.158533 0.160000 0.264652 255 0 255
-0.209040 0.208478 0.351765 255 0 255
-0.228973 0.190035 0.314652 255 0 255
-0.231581 0.184306 0.250652 255 0 255
-0.094347 0.287483 0.337965 255 0 255
-0.087868 0.204870 0.292652 255 0 255
-0.136236 0.230832 0.365677 255 0 255
-0.259863 0.224358 0.252652 255 0 255
-0.205817 0.296979 0.364652 255 0 255
-0.146752 0.188680 0.344652 255 0 255
-0.224956 0.197275 0.328652 255 0 255
-0.234919 0.198323 0.318652 255 0 255
-0.197166 0.171358 0.314652 255 0 255
-0.228910 0.306312 0.342652 255 0 255
-0.160116 0.164169 0.304652 255 0 255
-0.117211 0.274695 0.358652 255 0 255
-0.173638 0.167262 0.227577 255 0 255
-0.102910 0.180612 0.310652 255 0 255
-0.232146 0.221822 0.201641 255 0 255
-0.271426 0.235419 0.284652 255 0 255
-0.158000 0.185495 0.340652 255 0 255
-0.111765 0.218951 0.345654 255 0 255
-0.096522 0.204737 0.220652 255 0 255
-0.105438 0.240398 0.349686 255 0 255
-0.168534 0.161007 0.244652 255 0 255
-0.160022 0.161337 0.296652 255 0 255
-0.236430 0.202566 0.224652 255 0 255
-0.241019 0.194714 0.228651 255 0 255
-0.228862 0.289861 0.349695 255 0 255
-0.165355 0.173212 0.217611 255 0 255
-0.148561 0.157551 0.312652 255 0 255
-0.132031 0.213236 0.356652 255 0 255
-0.269453 0.275658 0.298652 255 0 255
-0.176337 0.295574 0.370652 255 0 255
-0.123939 0.264548 0.364652 255 0 255
-0.185225 0.157769 0.240652 255 0 255
-0.239978 0.187031 0.238652 255 0 255
-0.078356 0.275306 0.323990 255 0 255
-0.140269 0.166226 0.304652 255 0 255
-0.114296 0.210372 0.341691 255 0 255
-0.229763 0.263354 0.360652 255 0 255
-0.100417 0.186491 0.236652 255 0 255
-0.141583 0.164717 0.244652 255 0 255
-0.109165 0.304036 0.344652 255 0 255
-0.225227 0.205783 0.336652 255 0 255
-0.098578 0.209389 0.338652 255 0 255
-0.243120 0.234789 0.206652 255 0 255
-0.236282 0.206536 0.212652 255 0 255
-0.097704 0.203104 0.234652 255 0 255
-0.095303 0.295254 0.334651 255 0 255
-0.072792 0.228486 0.310652 255 0 255
-0.252986 0.304152 0.308652 255 0 255
-0.121941 0.307745 0.353151 255 0 255
-0.112805 0.187105 0.334651 255 0 255
-0.083800 0.206546 0.244652 255 0 255
-0.219512 0.305753 0.353271 255 0 255
-0.103662 0.189518 0.226781 255 0 255
-0.079108 0.240456 0.312652 255 0 255
-0.267570 0.241182 0.276652 255 0 255
-0.079598 0.235444 0.328652 255 0 255
-0.261564 0.273866 0.306652 255 0 255
-0.180808 0.291539 0.369715 255 0 255
-0.134397 0.259198 0.375129 255 0 255
-0.083902 0.255865 0.220652 255 0 255
-0.104873 0.204320 0.326652 255 0 255
-0.232658 0.276992 0.357358 255 0 255
-0.078373 0.247975 0.226652 255 0 255
-0.123461 0.249000 0.364652 255 0 255
-0.269462 0.255121 0.274651 255 0 255
-0.239559 0.231469 0.339701 255 0 255
-0.206016 0.202924 0.360019 255 0 255
-0.164521 0.270882 0.375708 255 0 255
-0.207229 0.175229 0.312652 255 0 255
-0.125681 0.183501 0.212652 255 0 255
-0.127496 0.304721 0.357646 255 0 255
-0.068692 0.241681 0.291348 255 0 255
-0.094675 0.197545 0.244652 255 0 255
-0.126556 0.191724 0.204652 255 0 255
-0.101362 0.174388 0.274651 255 0 255
-0.240806 0.186143 0.312727 255 0 255
-0.161673 0.174230 0.210652 255 0 255
-0.268074 0.255325 0.256652 255 0 255
-0.209219 0.173095 0.331645 255 0 255
-0.269543 0.275561 0.254652 255 0 255
-0.224324 0.299302 0.350652 255 0 255
-0.186921 0.161817 0.254652 255 0 255
-0.144417 0.161891 0.262652 255 0 255
-0.165966 0.231209 0.379383 255 0 255
-0.181253 0.162030 0.248652 255 0 255
-0.150114 0.166096 0.222652 255 0 255
-0.078071 0.212143 0.254652 255 0 255
-0.259581 0.215863 0.276652 255 0 255
-0.164584 0.191635 0.361032 255 0 255
-0.153879 0.181652 0.352652 255 0 255
-0.216169 0.189103 0.328652 255 0 255
-0.164218 0.156837 0.238652 255 0 255
-0.129318 0.235319 0.371307 255 0 255
-0.130351 0.216615 0.366652 255 0 255
-0.152883 0.180723 0.333666 255 0 255
-0.177084 0.204623 0.358652 255 0 255
-0.083851 0.250348 0.320652 255 0 255
-0.262561 0.261123 0.310652 255 0 255
-0.120377 0.202370 0.206652 255 0 255
-0.166460 0.245342 0.375738 255 0 255
-0.083674 0.233776 0.220652 255 0 255
-0.185764 0.151327 0.288651 255 0 255
-0.141915 0.211515 0.358652 255 0 255
-0.261185 0.202412 0.272652 255 0 255
-0.266496 0.252437 0.294652 255 0 255
-0.113128 0.203814 0.210652 255 0 255
-0.210242 0.174931 0.220652 255 0 255
-0.262778 0.268154 0.306652 255 0 255
-0.160210 0.167001 0.312652 255 0 255
-0.144007 0.169712 0.311653 255 0 255
-0.098226 0.256931 0.344652 255 0 255
-0.096462 0.273047 0.348651 255 0 255
-0.134792 0.270504 0.367754 255 0 255
-0.188283 0.221939 0.374853 255 0 255
-0.137384 0.182679 0.213519 255 0 255
-0.206299 0.155699 0.274651 255 0 255
-0.114968 0.189123 0.319669 255 0 255
-0.269646 0.262261 0.268652 255 0 255
-0.175702 0.166451 0.312652 255 0 255
-0.141674 0.183945 0.202464 255 0 255
-0.253094 0.214021 0.324652 255 0 255
-0.147452 0.151356 0.274651 255 0 255
-0.202210 0.306027 0.360652 255 0 255
-0.086738 0.272182 0.337656 255 0 255
-0.158257 0.213082 0.372980 255 0 255
-0.208010 0.162661 0.310652 255 0 255
-0.092849 0.204046 0.305683 255 0 255
-0.145865 0.182383 0.211605 255 0 255
-0.213784 0.162335 0.248652 255 0 255
-0.207112 0.173866 0.236652 255 0 255
-0.182843 0.167641 0.234652 255 0 255
-0.164485 0.188809 0.347702 255 0 255
-0.106408 0.227628 0.355813 255 0 255
-0.091700 0.252199 0.346615 255 0 255
-0.074642 0.273424 0.302651 255 0 255
-0.180610 0.285886 0.371712 255 0 255
-0.202830 0.273788 0.367697 255 0 255
-0.258604 0.202248 0.262652 255 0 255
-0.092742 0.302394 0.322652 255 0 255
-0.219655 0.188296 0.341269 255 0 255
-0.119894 0.166370 0.308652 255 0 255
-0.203584 0.214329 0.357700 255 0 255
-0.188711 0.208664 0.182652 255 0 255
-0.265261 0.230300 0.240652 255 0 255
-0.148704 0.161743 0.290652 255 0 255
-0.148216 0.209187 0.369378 255 0 255
-0.115395 0.179866 0.242652 255 0 255
-0.266059 0.237038 0.292652 255 0 255
-0.198029 0.217353 0.370814 255 0 255
-0.239532 0.250586 0.344652 255 0 255
-0.179391 0.169892 0.338685 255 0 255
-0.271505 0.228443 0.276652 255 0 255
-0.174985 0.224470 0.370652 255 0 255
-0.249298 0.197565 0.240652 255 0 255
-0.238280 0.221110 0.350652 255 0 255
-0.190140 0.234610 0.379005 255 0 255
-0.185419 0.161839 0.296652 255 0 255
-0.176808 0.157998 0.318652 255 0 255
-0.171896 0.166199 0.334651 255 0 255
-0.075063 0.283173 0.296652 255 0 255
-0.175810 0.229450 0.378862 255 0 255
-0.192375 0.161832 0.232652 255 0 255
-0.232049 0.172074 0.292652 255 0 255
-0.069661 0.228912 0.271611 255 0 255
0.302789 0.390243 0.262652 0 0 255
0.165512 0.302218 0.573625 0 0 255
0.068112 0.367857 0.176652 0 0 255
0.352152 0.361601 0.602652 0 0 255
0.291961 0.247200 0.433715 0 0 255
0.162138 0.390138 0.280652 0 0 255
0.307601 0.366612 0.481666 0 0 255
0.234701 0.367615 0.168652 0 0 255
0.261207 0.357917 0.352662 0 0 255
0.299417 0.307982 0.210652 0 0 255
0.327718 0.306073 0.304652 0 0 255
0.068049 0.367790 0.274651 0 0 255
0.250018 0.252075 0.508652 0 0 255
0.230114 0.356831 0.252216 0 0 255
0.305349 0.390590 0.187871 0 0 255
0.120742 0.368578 0.225795 0 0 255
0.282555 0.354417 0.418453 0 0 255
0.327080 0.355243 0.542652 0 0 255
0.341522 0.367797 0.308866 0 0 255
0.307346 0.272496 0.508652 0 0 255
0.297544 0.332367 0.262652 0 0 255
0.071603 0.397994 0.225638 0 0 255
0.130587 0.370336 0.169750 0 0 255
0.192149 0.370357 0.216652 0 0 255
0.244585 0.367947 0.302651 0 0 255
0.112061 0.395816 0.276652 0 0 255
0.249681 0.383680 0.214651 0 0 255
0.208107 0.277513 0.566651 0 0 255
0.298899 0.355584 0.220652 0 0 255
0.209745 0.390707 0.278652 0 0 255
0.273036 0.238637 0.472652 0 0 255
0.331343 0.312893 0.240652 0 0 255
0.185024 0.361263 0.258652 0 0 255
0.302606 0.361255 0.292652 0 0 255
0.250854 0.390802 0.262652 0 0 255
0.134007 0.364412 0.264652 0 0 255
0.084113 0.364488 0.238652 0 0 255
0.300990 0.391920 0.224652 0 0 255
0.302935 0.338148 0.189941 0 0 255
0.224003 0.362008 0.204652 0 0 255
0.291390 0.365321 0.450652 0 0 255
0.069410 0.398575 0.260651 0 0 255
0.298306 0.309723 0.288651 0 0 255
0.340157 0.366334 0.571628 0 0 255
0.322722 0.338839 0.309244 0 0 255
0.100550 0.365530 0.268652 0 0 255
0.069438 0.398604 0.188652 0 0 255
0.319657 0.366309 0.512651 0 0 255
0.327252 0.312737 0.272652 0 0 255
0.277871 0.366989 0.389686 0 0 255
0.112361 0.365455 0.195414 0 0 255
0.299731 0.308319 0.241973 0 0 255
0.305606 0.361540 0.250652 0 0 255
0.315786 0.384187 0.306652 0 0 255
0.249301 0.359812 0.274651 0 0 255
0.210130 0.361794 0.273840 0 0 255
0.250897 0.364797 0.192652 0 0 255
0.206180 0.372220 0.242652 0 0 255
0.246073 0.359282 0.228651 0 0 255
0.159643 0.370588 0.252652 0 0 255
0.250960 0.355725 0.326652 0 0 255
0.084668 0.388544 0.281132 0 0 255
0.186057 0.377035 0.280652 0 0 255
0.304026 0.364478 0.194652 0 0 255
0.348778 0.341887 0.304652 0 0 255
0.302261 0.334493 0.236652 0 0 255
0.135746 0.384668 0.281599 0 0 255
0.278239 0.257260 0.454652 0 0 255
0.095204 0.370516 0.215659 0 0 255
0.188422 0.294527 0.563702 0 0 255
0.299587 0.335800 0.288651 0 0 255
0.233515 0.381006 0.279491 0 0 255
0.114892 0.374034 0.249643 0 0 255
0.065105 0.379442 0.244652 0 0 255
0.249012 0.382962 0.239273 0 0 255
0.262584 0.258186 0.482652 0 0 255
0.297381 0.332192 0.212652 0 0 255
0.166167 0.364504 0.275297 0 0 255
0.181468 0.372114 0.237669 0 0 255
0.222579 0.360482 0.228651 0 0 255
0.294483 0.252838 0.508652 0 0 255
0.304798 0.307887 0.264652 0 0 255
0.283441 0.233266 0.452652 0 0 255
0.068202 0.373818 0.222618 0 0 255
0.319106 0.361354 0.308279 0 0 255
0.251377 0.364349 0.252652 0 0 255
0.316494 0.314565 0.223686 0 0 255
0.305925 0.351767 0.272652 0 0 255
0.083001 0.375026 0.258652 0 0 255
0.310643 0.320021 0.304248 0 0 255
0.117840 0.371329 0.280652 0 0 255
0.231477 0.358294 0.286997 0 0 255
0.299257 0.372328 0.274651 0 0 255
0.305247 0.372886 0.232652 0 0 255
0.303268 0.381591 0.206652 0 0 255
0.299587 0.355085 0.466651 0 0 255
0.150176 0.376681 0.269691 0 0 255
0.337349 0.325199 0.305789 0 0 255
0.249889 0.378037 0.176652 0 0 255
0.069072 0.389415 0.207820 0 0 255
0.302719 0.384838 0.291681 0 0 255
0.103056 0.363194 0.232652 0 0 255
0.232739 0.359853 0.186651 0 0 255
0.291314 0.366742 0.430652 0 0 255
0.287631 0.270379 0.504652 0 0 255
0.128339 0.373792 0.188652 0 0 255
0.342944 0.354659 0.586651 0 0 255
0.309973 0.357427 0.498652 0 0 255
0.317127 0.316709 0.252652 0 0 255
0.224714 0.370070 0.264652 0 0 255
0.137604 0.371996 0.247701 0 0 255
0.317741 0.307104 0.288651 0 0 255
0.357414 0.358447 0.305779 0 0 255
0.304457 0.388686 0.242652 0 0 255
0.297472 0.318630 0.226652 0 0 255
0.101587 0.380971 0.280652 0 0 255
0.235273 0.371162 0.219655 0 0 255
0.203576 0.360631 0.256652 0 0 255
0.098998 0.362854 0.250652 0 0 255
0.275045 0.366891 0.407622 0 0 255
0.179975 0.393974 0.278652 0 0 255
0.307898 0.347193 0.302651 0 0 255
0.234648 0.369011 0.238652 0 0 255
0.304093 0.323394 0.276652 0 0 255
0.085894 0.370993 0.278652 0 0 255
0.248785 0.364032 0.210652 0 0 255
0.067753 0.387911 0.274651 0 0 255
0.301822 0.348685 0.204652 0 0 255
0.319458 0.355555 0.526652 0 0 255
0.330971 0.365281 0.556652 0 0 255
0.298458 0.321617 0.198652 0 0 255
0.200426 0.376311 0.270652 0 0 255
0.073065 0.396630 0.243639 0 0 255
0.193623 0.360778 0.232652 0 0 255
0.122685 0.373594 0.206652 0 0 255
0.248147 0.359158 0.176652 0 0 255
0.299033 0.344521 0.250652 0 0 255
0.334998 0.352004 0.305930 0 0 255
0.250299 0.379027 0.276652 0 0 255
0.258626 0.246643 0.494651 0 0 255
0.115326 0.365701 0.178652 0 0 255
0.233645 0.354754 0.268652 0 0 255
0.067981 0.367717 0.256652 0 0 255
0.191835 0.362445 0.274651 0 0 255
0.303027 0.352910 0.236652 0 0 255
0.173661 0.372539 0.262652 0 0 255
0.297676 0.323711 0.248652 0 0 255
0.315799 0.307009 0.238652 0 0 255
0.216752 0.374760 0.281504 0 0 255
0.241787 0.367823 0.320652 0 0 255
0.332764 0.314416 0.222652 0 0 255
0.117747 0.365365 0.264652 0 0 255
0.147395 0.395681 0.276652 0 0 255
0.080941 0.361086 0.266652 0 0 255
0.332708 0.314357 0.256652 0 0 255
0.124046 0.362762 0.242652 0 0 255
0.071386 0.383098 0.180652 0 0 255
0.084436 0.375087 0.226652 0 0 255
0.272451 0.254454 0.470652 0 0 255
0.154665 0.309598 0.564652 0 0 255
0.247747 0.378673 0.199683 0 0 255
0.300463 0.376003 0.254652 0 0 255
0.241665 0.369219 0.264652 0 0 255
0.220456 0.369935 0.248652 0 0 255
0.109546 0.365369 0.212652 0 0 255
0.138312 0.369822 0.278652 0 0 255
0.302505 0.369946 0.216652 0 0 255
0.249053 0.374208 0.226652 0 0 255
0.244865 0.355055 0.312652 0 0 255
0.192173 0.370334 0.248652 0 0 255
0.308714 0.371044 0.302651 0 0 255
0.074148 0.384681 0.232652 0 0 255
0.305349 0.390590 0.277639 0 0 255
0.236015 0.369024 0.198652 0 0 255
0.327772 0.375150 0.304652 0 0 255
0.193657 0.285478 0.574652 0 0 255
0.148900 0.363583 0.260651 0 0 255
0.195008 0.389568 0.275710 0 0 255
0.068901 0.383365 0.258652 0 0 255
0.174353 0.364483 0.248652 0 0 255
0.126100 0.377256 0.269709 0 0 255
0.332735 0.315828 0.294652 0 0 255
0.069703 0.366949 0.236652 0 0 255
0.330314 0.364576 0.531698 0 0 255
0.171327 0.378834 0.275762 0 0 255
0.178479 0.295595 0.575650 0 0 255
0.286751 0.257527 0.442652 0 0 255
0.288451 0.354875 0.438651 0 0 255
0.310810 0.333539 0.298652 0 0 255
0.250573 0.378771 0.253737 0 0 255
0.278307 0.355644 0.398652 0 0 255
0.307970 0.375806 0.186651 0 0 255
0.302075 0.341684 0.222652 0 0 255
0.303559 0.337566 0.274651 0 0 255
0.095856 0.372642 0.240652 0 0 255
0.096441 0.395304 0.276652 0 0 255
0.305546 0.364408 0.264652 0 0 255
0.306847 0.307153 0.299664 0 0 255
0.323215 0.324706 0.309018 0 0 255
0.097130 0.375514 0.258652 0 0 255
0.277925 0.243880 0.460074 0 0 255
0.120151 0.385538 0.281854 0 0 255
0.304596 0.348728 0.286652 0 0 255
0.318683 0.307054 0.262652 0 0 255
0.304892 0.322651 0.291810 0 0 255
0.214284 0.360385 0.240652 0 0 255
0.091299 0.380992 0.270652 0 0 255
0.236835 0.366971 0.277645 0 0 255
0.307697 0.308065 0.278652 0 0 255
0.157293 0.375515 0.281456 0 0 255
0.250969 0.367465 0.239231 0 0 255
0.334899 0.354830 0.566311 0 0 255
0.264639 0.244295 0.482652 0 0 255
0.250179 0.390079 0.227740 0 0 255
0.109877 0.375975 0.270652 0 0 255
0.240014 0.355802 0.298652 0 0 255
0.304093 0.306987 0.224652 0 0 255
0.217668 0.360233 0.258652 0 0 255
0.149539 0.363602 0.274651 0 0 255
0.240895 0.391854 0.276652 0 0 255
0.225406 0.391303 0.276652 0 0 255
0.075121 0.378305 0.281561 0 0 255
0.336855 0.339333 0.310042 0 0 255
0.162722 0.362247 0.262652 0 0 255
0.126944 0.372296 0.256652 0 0 255
0.297422 0.318677 0.262652 0 0 255
0.077319 0.374798 0.246652 0 0 255
0.287118 0.244940 0.446651 0 0 255
0.223271 0.361224 0.274651 0 0 255
0.090851 0.363636 0.226652 0 0 255
0.223176 0.372852 0.224652 0 0 255
0.110485 0.361735 0.244652 0 0 255
0.073460 0.385322 0.219654 0 0 255
0.241707 0.369263 0.184652 0 0 255
0.304825 0.343107 0.262652 0 0 255
0.236076 0.359475 0.208652 0 0 255
0.241510 0.359876 0.244652 0 0 255
0.250841 0.390788 0.202652 0 0 255
0.113527 0.372571 0.235649 0 0 255
0.298921 0.361033 0.206652 0 0 255
0.307231 0.316363 0.234652 0 0 255
0.178838 0.366362 0.275811 0 0 255
0.303642 0.373039 0.286652 0 0 255
0.325782 0.306930 0.230652 0 0 255
0.285651 0.366534 0.414652 0 0 255
0.325270 0.306381 0.250107 0 0 255
0.176917 0.299786 0.563702 0 0 255
0.312885 0.316560 0.270652 0 0 255
0.192069 0.373166 0.230652 0 0 255
0.301742 0.392588 0.200651 0 0 255
0.298813 0.358399 0.280652 0 0 255
0.301362 0.320473 0.214651 0 0 255
0.322327 0.350146 0.303681 0 0 255
0.204179 0.370076 0.281077 0 0 255
0.307600 0.354880 0.486652 0 0 255
0.240768 0.357834 0.258652 0 0 255
0.299087 0.354550 0.260651 0 0 255
0.346534 0.365858 0.582652 0 0 255
0.210571 0.369585 0.262652 0 0 255
0.307752 0.308123 0.252652 0 0 255
0.195003 0.370430 0.260651 0 0 255
0.315328 0.307449 0.308563 0 0 255
0.239661 0.367070 0.289642 0 0 255
0.346206 0.355225 0.309747 0 0 255
0.297349 0.313276 0.274651 0 0 255
0.072969 0.377577 0.268652 0 0 255
0.086920 0.364566 0.251755 0 0 255
0.227058 0.359420 0.240652 0 0 255
0.298245 0.334317 0.200651 0 0 255
0.184689 0.360905 0.241245 0 0 255
0.072284 0.398723 0.200651 0 0 255
0.332345 0.366755 0.544652 0 0 255
0.298996 0.366182 0.240652 0 0 255
0.218951 0.371255 0.236652 0 0 255
0.129133 0.393570 0.276652 0 0 255
0.318225 0.366274 0.500652 0 0 255
0.240296 0.369212 0.252652 0 0 255
0.108655 0.371646 0.224652 0 0 255
0.077989 0.397507 0.276652 0 0 255
0.297444 0.355721 0.454652 0 0 255
0.198661 0.284979 0.563722 0 0 255
0.300647 0.392239 0.212652 0 0 255
0.148516 0.383699 0.281720 0 0 255
0.303099 0.381749 0.218652 0 0 255
0.321450 0.315413 0.298652 0 0 255
0.198822 0.361399 0.244250 0 0 255
0.107334 0.365930 0.258652 0 0 255
0.316527 0.355555 0.508652 0 0 255
0.126495 0.365948 0.274578 0 0 255
0.308894 0.359201 0.302651 0 0 255
0.299121 0.366317 0.459649 0 0 255
0.297021 0.264357 0.509262 0 0 255
0.303768 0.333176 0.252652 0 0 255
0.233650 0.360623 0.224652 0 0 255
0.300718 0.353365 0.192652 0 0 255
0.242328 0.359115 0.198652 0 0 255
0.226193 0.368690 0.190652 0 0 255
0.331002 0.363933 0.304652 0 0 255
0.119181 0.372768 0.169726 0 0 255
0.185038 0.370077 0.266652 0 0 255
0.253151 0.365429 0.320652 0 0 255
0.304997 0.378483 0.266652 0 0 255
0.298076 0.330005 0.224652 0 0 255
0.327076 0.315636 0.284652 0 0 255
0.301888 0.377410 0.242652 0 0 255
0.302350 0.375645 0.196652 0 0 255
0.126690 0.365765 0.180652 0 0 255
0.253013 0.369658 0.262652 0 0 255
0.200958 0.381284 0.280878 0 0 255
0.160969 0.372085 0.268652 0 0 255
0.091111 0.366128 0.262432 0 0 255
0.310840 0.314368 0.213691 0 0 255
0.299121 0.363582 0.228651 0 0 255
0.101367 0.362462 0.220652 0 0 255
0.077623 0.366326 0.228651 0 0 255
0.301293 0.383434 0.232652 0 0 255
0.301236 0.365652 0.470652 0 0 255
0.069435 0.398600 0.214651 0 0 255
0.070238 0.396530 0.177717 0 0 255
0.345910 0.363705 0.593722 0 0 255
0.296510 0.319528 0.238453 0 0 255
0.088657 0.375226 0.248652 0 0 255
0.141276 0.371306 0.258652 0 0 255
0.138870 0.376286 0.269727 0 0 255
0.318775 0.306969 0.276652 0 0 255
0.340911 0.362897 0.560652 0 0 255
0.313998 0.364674 0.490652 0 0 255
0.323966 0.365025 0.522651 0 0 255
0.339090 0.356392 0.576551 0 0 255
0.232990 0.374578 0.270652 0 0 255
0.297402 0.308754 0.256652 0 0 255
0.174441 0.361646 0.262652 0 0 255
0.216041 0.375423 0.270652 0 0 255
0.128804 0.374734 0.280652 0 0 255
0.285113 0.357503 0.428651 0 0 255
0.331992 0.316522 0.309494 0 0 255
0.230503 0.367406 0.178652 0 0 255
0.123074 0.365213 0.192652 0 0 255
0.072614 0.386112 0.248652 0 0 255
0.117579 0.363325 0.252652 0 0 255
0.247563 0.365171 0.330652 0 0 255
0.332717 0.355423 0.552652 0 0 255
0.226793 0.370866 0.281242 0 0 255
0.198952 0.361278 0.266652 0 0 255
0.182238 0.371395 0.252652 0 0 255
0.097278 0.371316 0.278652 0 0 255
0.244504 0.369331 0.172651 0 0 255
0.312880 0.316556 0.282652 0 0 255
0.104348 0.372928 0.250652 0 0 255
0.297907 0.344486 0.232652 0 0 255
0.202021 0.370694 0.252652 0 0 255
0.084441 0.375083 0.238652 0 0 255
0.242455 0.361269 0.218652 0 0 255
0.113067 0.362062 0.222652 0 0 255
0.301771 0.386753 0.252652 0 0 255
0.119786 0.366735 0.214651 0 0 255
0.081424 0.361488 0.278652 0 0 255
0.305970 0.351725 0.246652 0 0 255
0.110973 0.384493 0.276652 0 0 255
0.129081 0.362858 0.252652 0 0 255
0.211671 0.363447 0.250652 0 0 255
0.247136 0.369221 0.278652 0 0 255
0.321446 0.315418 0.242652 0 0 255
0.083051 0.372147 0.268652 0 0 255
0.228934 0.370229 0.254652 0 0 255
0.298219 0.342546 0.212652 0 0 255
0.310037 0.316439 0.244652 0 0 255
0.288594 0.365194 0.440652 0 0 255
0.309378 0.315732 0.259621 0 0 255
0.227466 0.371588 0.206652 0 0 255
0.111562 0.371669 0.204652 0 0 255
0.110531 0.366424 0.274651 0 0 255
0.304960 0.380014 0.278652 0 0 255
0.237978 0.359399 0.174652 0 0 255
0.117016 0.373379 0.190652 0 0 255
0.069072 0.389415 0.193371 0 0 255
0.125563 0.370814 0.234652 0 0 255
0.235991 0.359554 0.234652 0 0 255
0.247311 0.372340 0.216652 0 0 255
0.165414 0.305044 0.563708 0 0 255
0.218202 0.385114 0.280652 0 0 255
0.230270 0.359932 0.196652 0 0 255
0.298238 0.326120 0.284652 0 0 255
0.067679 0.376191 0.232652 0 0 255
0.282664 0.357466 0.408652 0 0 255
0.240245 0.367696 0.228651 0 0 255
0.251299 0.380830 0.266652 0 0 255
0.074022 0.388858 0.266652 0 0 255
0.195276 0.361971 0.222652 0 0 255
0.317757 0.373550 0.306652 0 0 255
0.090618 0.380261 0.281112 0 0 255
0.067251 0.374704 0.184652 0 0 255
0.311298 0.382307 0.297727 0 0 255
0.170048 0.395058 0.276652 0 0 255
0.343402 0.333227 0.304652 0 0 255
0.301867 0.328205 0.191804 0 0 255
0.220970 0.359889 0.248652 0 0 255
0.315902 0.331525 0.307090 0 0 255
0.298449 0.345067 0.279587 0 0 255
0.302250 0.371602 0.206652 0 0 255
0.296441 0.310656 0.232652 0 0 255
0.068082 0.368461 0.246652 0 0 255
0.249770 0.360378 0.264652 0 0 255
0.261554 0.367087 0.348651 0 0 255
0.147448 0.373755 0.280953 0 0 255
0.305405 0.327640 0.266652 0 0 255
0.199989 0.368515 0.235721 0 0 255
0.330035 0.332019 0.309568 0 0 255
0.322147 0.314763 0.309180 0 0 255
0.194237 0.371145 0.281083 0 0 255
0.312871 0.316546 0.292652 0 0 255
0.227772 0.360185 0.262652 0 0 255
0.093855 0.363569 0.236652 0 0 255
0.114892 0.374034 0.259630 0 0 255
0.308663 0.353088 0.294652 0 0 255
0.210061 0.380999 0.276652 0 0 255
0.077842 0.366562 0.258652 0 0 255
0.095846 0.371204 0.230652 0 0 255
0.242784 0.358689 0.184963 0 0 255
0.248853 0.363969 0.310652 0 0 255
0.279684 0.234035 0.461754 0 0 255
0.280093 0.364917 0.422652 0 0 255
0.317185 0.306509 0.298652 0 0 255
0.182437 0.384882 0.275703 0 0 255
0.069814 0.394192 0.234652 0 0 255
0.316969 0.341468 0.301675 0 0 255
0.304839 0.343123 0.240652 0 0 255
0.302143 0.343163 0.294652 0 0 255
0.251196 0.372721 0.206652 0 0 255
0.327642 0.305992 0.280652 0 0 255
0.236265 0.356564 0.278652 0 0 255
0.249414 0.389258 0.272652 0 0 255
0.120193 0.365056 0.202652 0 0 255
0.306376 0.306647 0.234652 0 0 255
0.236238 0.364793 0.298652 0 0 255
0.321443 0.315419 0.232652 0 0 255
0.302686 0.324708 0.232652 0 0 255
0.295411 0.358837 0.444652 0 0 255
0.304154 0.323338 0.256652 0 0 255
0.301263 0.315094 0.296652 0 0 255
0.089747 0.364665 0.272429 0 0 255
0.190426 0.361025 0.250652 0 0 255
0.254091 0.359084 0.335142 0 0 255
0.305415 0.327632 0.242652 0 0 255
0.153872 0.371846 0.260651 0 0 255
0.081435 0.380620 0.274651 0 0 255
0.238297 0.365608 0.309574 0 0 255
0.247304 0.372333 0.246652 0 0 255
0.322813 0.315477 0.260651 0 0 255
0.251189 0.370634 0.184652 0 0 255
0.305854 0.316282 0.222652 0 0 255
0.327559 0.355757 0.310652 0 0 255
0.114430 0.363526 0.232652 0 0 255
0.105769 0.370117 0.240652 0 0 255
0.299540 0.344048 0.196652 0 0 255
0.179906 0.376304 0.271704 0 0 255
0.305546 0.384937 0.195523 0 0 255
0.298744 0.336587 0.245242 0 0 255
0.099295 0.374904 0.269655 0 0 255
0.288493 0.261077 0.506652 0 0 255
0.171898 0.370649 0.280652 0 0 255
0.131164 0.373888 0.178652 0 0 255
0.121277 0.373548 0.180652 0 0 255
0.251063 0.364642 0.222652 0 0 255
0.279994 0.365010 0.398652 0 0 255
0.173695 0.387239 0.280652 0 0 255
0.298039 0.356387 0.244652 0 0 255
0.307521 0.307875 0.288651 0 0 255
0.299729 0.365750 0.256652 0 0 255
0.231082 0.369601 0.229461 0 0 255
0.127266 0.384371 0.275713 0 0 255
0.233300 0.364798 0.268652 0 0 255
0.299542 0.360455 0.270652 0 0 255
0.076245 0.369054 0.280652 0 0 255
0.327767 0.306126 0.264652 0 0 255
0.155533 0.385359 0.275809 0 0 255
0.118287 0.379072 0.274651 0 0 255
0.301768 0.392615 0.234652 0 0 255
0.268976 0.246756 0.474651 0 0 255
0.073790 0.394473 0.252652 0 0 255
0.241385 0.376402 0.276652 0 0 255
0.349474 0.363115 0.304652 0 0 255
0.071603 0.397994 0.269648 0 0 255
0.301095 0.326191 0.206652 0 0 255
0.141045 0.363957 0.270652 0 0 255
0.167467 0.362964 0.254652 0 0 255
0.224421 0.378548 0.276652 0 0 255
0.124835 0.372966 0.247672 0 0 255
0.230268 0.365795 0.246652 0 0 255
0.304275 0.360113 0.214651 0 0 255
0.073219 0.366406 0.266652 0 0 255
0.311461 0.363013 0.506652 0 0 255
0.277243 0.252721 0.462652 0 0 255
0.296807 0.313982 0.248652 0 0 255
0.190500 0.375934 0.272652 0 0 255
0.102993 0.390599 0.281110 0 0 255
0.323064 0.359734 0.534652 0 0 255
0.138277 0.393246 0.275691 0 0 255
0.298449 0.345067 0.270390 0 0 255
0.296330 0.314226 0.204652 0 0 255
0.303114 0.350070 0.226652 0 0 255
0.105688 0.374412 0.262652 0 0 255
0.300036 0.373668 0.224652 0 0 255
0.241321 0.360053 0.270158 0 0 255
0.303199 0.350161 0.214651 0 0 255
0.305267 0.331851 0.282652 0 0 255
0.073060 0.376096 0.254652 0 0 255
0.283381 0.249730 0.454069 0 0 255
0.317275 0.359391 0.518652 0 0 255
0.068196 0.387497 0.240652 0 0 255
0.297287 0.311563 0.220652 0 0 255
0.191410 0.371046 0.239606 0 0 255
0.306040 0.370803 0.249723 0 0 255
0.075219 0.375478 0.237654 0 0 255
0.329739 0.340499 0.303733 0 0 255
0.175084 0.372597 0.244652 0 0 255
0.298422 0.330376 0.272652 0 0 255
0.224164 0.365114 0.213156 0 0 255
0.124110 0.373641 0.196652 0 0 255
0.186431 0.290915 0.574652 0 0 255
0.332091 0.313695 0.231618 0 0 255
0.069067 0.389409 0.226652 0 0 255
0.138212 0.363852 0.254652 0 0 255
0.247945 0.373020 0.269852 0 0 255
0.109194 0.373789 0.280652 0 0 255
0.304623 0.325635 0.300652 0 0 255
0.207698 0.361326 0.264652 0 0 255
0.158602 0.363354 0.270652 0 0 255
0.201417 0.364448 0.274651 0 0 255
0.304218 0.318997 0.268652 0 0 255
0.067420 0.390576 0.184652 0 0 255
0.234732 0.364717 0.258652 0 0 255
0.304388 0.357302 0.200651 0 0 255
0.312216 0.307045 0.270652 0 0 255
0.076410 0.366164 0.242652 0 0 255
0.125519 0.364124 0.260651 0 0 255
0.241896 0.384129 0.280872 0 0 255
0.312669 0.307193 0.226652 0 0 255
0.315536 0.307672 0.248652 0 0 255
0.244531 0.369359 0.196652 0 0 255
0.301761 0.386742 0.270652 0 0 255
0.149009 0.369565 0.253757 0 0 255
0.302228 0.366714 0.280652 0 0 255
0.186030 0.368209 0.280652 0 0 255
0.193793 0.361871 0.258652 0 0 255
0.120468 0.394677 0.278652 0 0 255
0.165186 0.372249 0.260651 0 0 255
0.067495 0.374478 0.262652 0 0 255
0.212483 0.367251 0.280652 0 0 255
0.168082 0.370922 0.250652 0 0 255
0.141498 0.382038 0.275673 0 0 255
0.306657 0.371466 0.258652 0 0 255
0.182912 0.361931 0.268652 0 0 255
0.305783 0.376393 0.294652 0 0 255
0.303625 0.318361 0.283662 0 0 255
0.076053 0.388103 0.280652 0 0 255
0.306102 0.347410 0.254652 0 0 255
0.317562 0.324508 0.301744 0 0 255
0.250090 0.360657 0.244652 0 0 255
0.096074 0.386112 0.275658 0 0 255
0.354116 0.350583 0.304652 0 0 255
0.213341 0.371103 0.254652 0 0 255
0.328570 0.314242 0.248652 0 0 255
0.326634 0.307844 0.296344 0 0 255
0.114150 0.373238 0.212652 0 0 255
0.163508 0.382179 0.276652 0 0 255
0.260028 0.251080 0.486652 0 0 255
0.339485 0.345084 0.303712 0 0 255
0.298138 0.348091 0.242652 0 0 255
0.217245 0.360627 0.268652 0 0 255
0.239958 0.358590 0.290349 0 0 255
0.117718 0.374132 0.267653 0 0 255
0.068500 0.376275 0.276652 0 0 255
0.233218 0.389487 0.279641 0 0 255
0.075955 0.374792 0.226652 0 0 255
0.087961 0.395007 0.276652 0 0 255
0.246932 0.382168 0.224652 0 0 255
0.228355 0.366675 0.221995 0 0 255
0.305717 0.362899 0.490652 0 0 255
0.315112 0.354139 0.305595 0 0 255
0.319961 0.315350 0.276652 0 0 255
0.244606 0.359724 0.304652 0 0 255
0.243128 0.369308 0.236652 0 0 255
0.296905 0.308220 0.267891 0 0 255
0.243928 0.359915 0.322652 0 0 255
0.067489 0.390650 0.216652 0 0 255
0.300484 0.353115 0.292652 0 0 255
0.346814 0.355877 0.596651 0 0 255
0.101554 0.362663 0.242652 0 0 255
0.092574 0.364763 0.245549 0 0 255
0.306336 0.362323 0.241655 0 0 255
0.233910 0.369699 0.187659 0 0 255
0.332771 0.314425 0.266652 0 0 255
0.206205 0.362718 0.240652 0 0 255
0.134092 0.372538 0.262652 0 0 255
0.336164 0.359119 0.310070 0 0 255
0.118684 0.370498 0.242652 0 0 255
0.250304 0.366753 0.230652 0 0 255
0.242685 0.361516 0.280395 0 0 255
0.328079 0.347517 0.309883 0 0 255
0.332731 0.314382 0.278652 0 0 255
0.089550 0.370318 0.221705 0 0 255
0.332942 0.370327 0.309541 0 0 255
0.192379 0.383815 0.281050 0 0 255
0.300880 0.356472 0.474708 0 0 255
0.274650 0.246233 0.468652 0 0 255
0.328967 0.322076 0.303688 0 0 255
0.247345 0.370844 0.256652 0 0 255
0.300406 0.370588 0.266652 0 0 255
0.306812 0.389226 0.298238 0 0 255
0.299442 0.308009 0.280652 0 0 255
0.207647 0.372313 0.270652 0 0 255
0.314717 0.365446 0.301814 0 0 255
0.172287 0.371066 0.270652 0 0 255
0.305535 0.308377 0.216652 0 0 255
0.287142 0.361079 0.420651 0 0 255
0.323748 0.367963 0.304652 0 0 255
0.304331 0.317703 0.250652 0 0 255
0.302071 0.330749 0.294652 0 0 255
0.338793 0.364872 0.579604 0 0 255
0.130685 0.367510 0.245780 0 0 255
0.172703 0.362714 0.270652 0 0 255
0.305187 0.314170 0.207734 0 0 255
0.299025 0.352733 0.252652 0 0 255
0.068223 0.367976 0.228651 0 0 255
0.310533 0.342001 0.296652 0 0 255
0.249936 0.375155 0.236652 0 0 255
0.319956 0.315346 0.288651 0 0 255
0.091597 0.373878 0.266652 0 0 255
0.278790 0.362109 0.414652 0 0 255
0.297411 0.329292 0.240652 0 0 255
0.156126 0.368398 0.276567 0 0 255
0.247618 0.359650 0.236652 0 0 255
0.217775 0.367060 0.228651 0 0 255
0.109207 0.365661 0.266652 0 0 255
0.099094 0.365889 0.260651 0 0 255
0.074927 0.366368 0.250652 0 0 255
0.324382 0.331821 0.303718 0 0 255
0.273582 0.359457 0.404652 0 0 255
0.155237 0.393838 0.277681 0 0 255
0.177730 0.379835 0.280652 0 0 255
0.227564 0.368760 0.198652 0 0 255
0.324448 0.307148 0.238652 0 0 255
0.333941 0.363928 0.564652 0 0 255
0.306551 0.315633 0.275640 0 0 255
0.184988 0.370023 0.244652 0 0 255
0.250547 0.381676 0.206652 0 0 255
0.300717 0.382690 0.260651 0 0 255
0.297336 0.321491 0.272652 0 0 255
0.202016 0.370689 0.264652 0 0 255
0.118720 0.364994 0.272652 0 0 255
0.198526 0.369879 0.243654 0 0 255
0.298947 0.339132 0.256652 0 0 255
0.200899 0.281514 0.570652 0 0 255
0.305935 0.353095 0.264652 0 0 255
0.252963 0.250749 0.498652 0 0 255
0.298378 0.336194 0.280652 0 0 255
0.250261 0.362656 0.184652 0 0 255
0.307292 0.307629 0.244652 0 0 255
0.305075 0.336152 0.266652 0 0 255
0.115756 0.366162 0.186651 0 0 255
0.298731 0.363945 0.220652 0 0 255
0.163143 0.370058 0.281019 0 0 255
0.233386 0.354475 0.260651 0 0 255
0.102971 0.370047 0.218652 0 0 255
0.283677 0.241250 0.453159 0 0 255
0.194981 0.370450 0.268652 0 0 255
0.298403 0.336904 0.228651 0 0 255
0.067439 0.390938 0.262652 0 0 255
0.298784 0.272113 0.508652 0 0 255
0.226213 0.368673 0.238652 0 0 255
0.307601 0.366612 0.296138 0 0 255
0.065375 0.373719 0.252147 0 0 255
0.240253 0.367704 0.244652 0 0 255
0.233177 0.367647 0.284652 0 0 255
0.146856 0.371573 0.264652 0 0 255
0.212104 0.366844 0.236652 0 0 255
0.200662 0.389764 0.281227 0 0 255
0.071680 0.374615 0.174652 0 0 255
0.322704 0.379875 0.308443 0 0 255
0.326123 0.363014 0.541562 0 0 255
0.266955 0.254110 0.476652 0 0 255
0.320370 0.365643 0.529640 0 0 255
0.096568 0.371978 0.249811 0 0 255
0.068636 0.381618 0.224652 0 0 255
0.299443 0.366662 0.248652 0 0 255
0.305007 0.379970 0.226652 0 0 255
0.183318 0.297851 0.568651 0 0 255
0.134160 0.364270 0.274651 0 0 255
0.193483 0.291156 0.568651 0 0 255
0.173394 0.298939 0.570652 0 0 255
0.237631 0.355290 0.250652 0 0 255
0.133798 0.379645 0.274651 0 0 255
0.178316 0.361379 0.254652 0 0 255
0.340454 0.357854 0.303679 0 0 255
0.247073 0.377950 0.260651 0 0 255
0.335590 0.335043 0.303664 0 0 255
0.066906 0.391434 0.250652 0 0 255
0.290929 0.254892 0.436651 0 0 255
0.273153 0.361929 0.396652 0 0 255
0.074068 0.383042 0.274651 0 0 255
0.240174 0.364687 0.204652 0 0 255
0.302134 0.337289 0.206652 0 0 255
0.121845 0.366827 0.174652 0 0 255
0.226300 0.385000 0.281022 0 0 255
0.340750 0.349374 0.310346 0 0 255
0.326342 0.307530 0.288651 0 0 255
0.309642 0.359240 0.480652 0 0 255
0.305084 0.377164 0.212652 0 0 255
0.302905 0.319033 0.242652 0 0 255
0.297385 0.323399 0.220652 0 0 255
0.302910 0.308090 0.272652 0 0 255
0.242488 0.367169 0.213733 0 0 255
0.248481 0.380723 0.246652 0 0 255
0.297027 0.319045 0.254652 0 0 255
0.249948 0.357478 0.318652 0 0 255
0.328776 0.360540 0.548651 0 0 255
0.302405 0.331715 0.218652 0 0 255
0.305019 0.369020 0.188652 0 0 255
0.298375 0.353786 0.274651 0 0 255
0.221840 0.368486 0.256652 0 0 255
0.302748 0.360199 0.234652 0 0 255
0.312266 0.307099 0.258652 0 0 255
0.213242 0.370997 0.246652 0 0 255
0.299023 0.347265 0.258652 0 0 255
0.093938 0.366227 0.255129 0 0 255
0.309952 0.339808 0.303877 0 0 255
0.109633 0.362529 0.252329 0 0 255
0.225331 0.372230 0.271847 0 0 255
0.186518 0.367404 0.234652 0 0 255
0.321457 0.315406 0.268652 0 0 255
0.067389 0.372947 0.240652 0 0 255
0.071094 0.394516 0.276652 0 0 255
0.232143 0.365877 0.208652 0 0 255
0.088768 0.373783 0.232652 0 0 255
0.343182 0.360780 0.567485 0 0 255
0.314311 0.316601 0.230652 0 0 255
0.329896 0.314275 0.302651 0 0 255
0.325754 0.314134 0.226652 0 0 255
0.237844 0.359255 0.192652 0 0 255
0.157940 0.377645 0.272652 0 0 255
0.186535 0.370122 0.258652 0 0 255
0.219874 0.366380 0.278887 0 0 255
0.146955 0.387889 0.275723 0 0 255
0.306910 0.365871 0.288651 0 0 255
0.072195 0.381033 0.241628 0 0 255
0.221436 0.362189 0.235833 0 0 255
0.112905 0.368971 0.218652 0 0 255
0.231379 0.361120 0.275318 0 0 255
0.115704 0.373277 0.198652 0 0 255
0.237492 0.369092 0.176652 0 0 255
0.114694 0.379687 0.281162 0 0 255
0.314262 0.315104 0.238652 0 0 255
0.304237 0.357140 0.286652 0 0 255
0.250173 0.366613 0.176652 0 0 255
0.120586 0.365476 0.236652 0 0 255
0.090054 0.373792 0.256652 0 0 255
0.251395 0.367066 0.272652 0 0 255
0.189325 0.362052 0.264652 0 0 255
0.284155 0.251744 0.446651 0 0 255
0.073961 0.388792 0.258652 0 0 255
0.105746 0.370091 0.232652 0 0 255
0.080287 0.373488 0.232652 0 0 255
0.134053 0.372574 0.254652 0 0 255
0.193498 0.369099 0.224652 0 0 255
0.303511 0.341699 0.284652 0 0 255
0.175130 0.371183 0.254652 0 0 255
0.306470 0.337586 0.290652 0 0 255
0.236229 0.363389 0.250652 0 0 255
0.316772 0.347122 0.307475 0 0 255
0.300944 0.368055 0.200327 0 0 255
0.302787 0.357428 0.226652 0 0 255
0.254569 0.364107 0.328652 0 0 255
0.233256 0.359369 0.244652 0 0 255
0.288402 0.249250 0.440652 0 0 255
0.104052 0.380005 0.272652 0 0 255
0.298642 0.355824 0.212652 0 0 255
0.077331 0.365305 0.272652 0 0 255
0.304773 0.385657 0.212652 0 0 255
0.298029 0.329049 0.254652 0 0 255
0.183226 0.362269 0.248309 0 0 255
0.298442 0.364215 0.452652 0 0 255
0.323126 0.307015 0.270652 0 0 255
0.191707 0.362565 0.239937 0 0 255
0.311181 0.366009 0.498652 0 0 255
0.301090 0.359011 0.460652 0 0 255
0.229686 0.362700 0.232652 0 0 255
0.068797 0.383255 0.266652 0 0 255
0.232644 0.365410 0.291605 0 0 255
0.304663 0.389854 0.218652 0 0 255
0.314615 0.347742 0.298652 0 0 255
0.235175 0.373988 0.280750 0 0 255
0.244418 0.359899 0.252652 0 0 255
0.350846 0.361837 0.588652 0 0 255
0.109966 0.368751 0.246652 0 0 255
0.345701 0.348819 0.304652 0 0 255
0.115664 0.366064 0.208652 0 0 255
0.243193 0.363777 0.296652 0 0 255
0.231735 0.370300 0.262652 0 0 255
0.160412 0.306973 0.568651 0 0 255
0.276660 0.239590 0.466398 0 0 255
0.346548 0.365845 0.600652 0 0 255
0.305589 0.360285 0.258652 0 0 255
0.101979 0.366051 0.212652 0 0 255
0.303913 0.367316 0.224652 0 0 255
0.345067 0.359022 0.580652 0 0 255
0.198724 0.364225 0.252350 0 0 255
0.083773 0.367056 0.224652 0 0 255
0.309522 0.312863 0.304652 0 0 255
0.216907 0.391024 0.276652 0 0 255
0.326320 0.357361 0.303695 0 0 255
0.251839 0.383062 0.232608 0 0 255
0.313608 0.375987 0.300652 0 0 255
0.091947 0.390484 0.280652 0 0 255
0.305674 0.358680 0.190652 0 0 255
0.244617 0.367918 0.222652 0 0 255
0.137407 0.377649 0.281140 0 0 255
0.102980 0.368734 0.274651 0 0 255
0.336696 0.361358 0.554652 0 0 255
0.082236 0.377138 0.281204 0 0 255
0.234304 0.358393 0.294830 0 0 255
0.285954 0.362186 0.434652 0 0 255
0.282161 0.365724 0.407653 0 0 255
0.249185 0.359688 0.216652 0 0 255
0.122149 0.378205 0.280652 0 0 255
0.303279 0.266726 0.506652 0 0 255
0.297454 0.326406 0.266652 0 0 255
0.304726 0.347416 0.192652 0 0 255
0.297336 0.314549 0.282652 0 0 255
0.101638 0.369985 0.226652 0 0 255
0.140827 0.363722 0.262652 0 0 255
0.310544 0.322847 0.297703 0 0 255
0.298098 0.339924 0.238652 0 0 255
0.305225 0.372862 0.278652 0 0 255
0.179501 0.372937 0.280652 0 0 255
0.217598 0.369803 0.264652 0 0 255
0.249407 0.371656 0.191482 0 0 255
0.077331 0.374811 0.274651 0 0 255
0.291137 0.357755 0.432652 0 0 255
0.304871 0.382833 0.246652 0 0 255
0.241807 0.367804 0.272652 0 0 255
0.303889 0.367339 0.272652 0 0 255
0.071603 0.397994 0.207674 0 0 255
0.204641 0.376436 0.276652 0 0 255
0.318698 0.307041 0.230652 0 0 255
0.152759 0.363334 0.266652 0 0 255
0.304496 0.333957 0.259650 0 0 255
0.325681 0.314201 0.292652 0 0 255
0.269797 0.240521 0.478652 0 0 255
0.122688 0.373597 0.262652 0 0 255
0.066443 0.383662 0.251081 0 0 255
0.305564 0.343901 0.269637 0 0 255
0.084094 0.364468 0.261196 0 0 255
0.331696 0.325001 0.310017 0 0 255
0.326222 0.360187 0.527977 0 0 255
0.297991 0.342758 0.204652 0 0 255
0.109918 0.374566 0.254652 0 0 255
0.119854 0.373490 0.254652 0 0 255
0.315680 0.316625 0.262652 0 0 255
0.298037 0.337246 0.218652 0 0 255
0.223967 0.370767 0.231725 0 0 255
0.246018 0.359224 0.192652 0 0 255
0.287967 0.239985 0.441723 0 0 255
0.273894 0.258578 0.464651 0 0 255
0.298316 0.330263 0.232652 0 0 255
0.167136 0.377273 0.281186 0 0 255
0.298562 0.320349 0.288651 0 0 255
0.160514 0.364306 0.256308 0 0 255
0.114193 0.373285 0.228651 0 0 255
0.302567 0.365837 0.210652 0 0 255
0.236632 0.360889 0.304652 0 0 255
0.108684 0.364445 0.228651 0 0 255
0.298409 0.336899 0.268652 0 0 255
0.104258 0.394889 0.275735 0 0 255
0.299731 0.376685 0.234652 0 0 255
0.296540 0.314030 0.212652 0 0 255
0.114299 0.390994 0.281178 0 0 255
0.327576 0.306966 0.256652 0 0 255
0.318943 0.306812 0.254652 0 0 255
0.094326 0.363130 0.220652 0 0 255
0.285771 0.365093 0.426652 0 0 255
0.077337 0.374816 0.262652 0 0 255
0.310347 0.328502 0.304247 0 0 255
0.305361 0.337817 0.298652 0 0 255
0.299827 0.387600 0.206652 0 0 255
0.302540 0.328927 0.198652 0 0 255
0.303036 0.352920 0.280652 0 0 255
0.305768 0.354649 0.254652 0 0 255
0.108919 0.364695 0.236652 0 0 255
0.241321 0.360053 0.316262 0 0 255
0.303616 0.338878 0.198652 0 0 255
0.227926 0.364341 0.184652 0 0 255
0.196767 0.379723 0.275652 0 0 255
0.299738 0.363007 0.286652 0 0 255
0.239357 0.360879 0.228651 0 0 255
0.339978 0.330951 0.310161 0 0 255
0.301508 0.392336 0.248652 0 0 255
0.311377 0.311133 0.220652 0 0 255
0.250706 0.384118 0.260651 0 0 255
0.232841 0.359756 0.179180 0 0 255
0.220006 0.363588 0.242652 0 0 255
0.294095 0.267086 0.503701 0 0 255
0.098326 0.362135 0.227812 0 0 255
0.300424 0.378774 0.272652 0 0 255
0.343873 0.340993 0.309334 0 0 255
0.068720 0.371442 0.268652 0 0 255
0.203390 0.392690 0.275686 0 0 255
0.305085 0.336143 0.242652 0 0 255
0.318241 0.362159 0.506652 0 0 255
0.304227 0.361555 0.276652 0 0 255
0.080379 0.389810 0.275655 0 0 255
0.300752 0.385662 0.278652 0 0 255
0.248536 0.361923 0.198652 0 0 255
0.245536 0.383469 0.274651 0 0 255
0.085557 0.363103 0.245163 0 0 255
0.305475 0.324840 0.284652 0 0 255
0.302562 0.370007 0.292652 0 0 255
0.230638 0.360326 0.212652 0 0 255
0.301405 0.318912 0.204652 0 0 255
0.303013 0.361692 0.482652 0 0 255
0.204933 0.369374 0.258652 0 0 255
0.165772 0.375811 0.271692 0 0 255
0.265519 0.251104 0.482652 0 0 255
0.302395 0.308244 0.294652 0 0 255
0.235753 0.359947 0.200651 0 0 255
0.304909 0.341777 0.248652 0 0 255
0.141580 0.387990 0.280652 0 0 255
0.087715 0.363826 0.232652 0 0 255
0.072419 0.393003 0.220652 0 0 255
0.202223 0.385574 0.275797 0 0 255
0.298558 0.353983 0.230652 0 0 255
0.297322 0.361455 0.466651 0 0 255
0.104554 0.386408 0.275743 0 0 255
0.250917 0.378452 0.220652 0 0 255
0.321349 0.307304 0.244652 0 0 255
0.306052 0.389934 0.228651 0 0 255
0.350791 0.345479 0.310001 0 0 255
0.307404 0.372265 0.265628 0 0 255
0.252234 0.371754 0.252104 0 0 255
0.305750 0.358762 0.268652 0 0 255
0.114701 0.365032 0.258652 0 0 255
0.158459 0.382630 0.281224 0 0 255
0.073971 0.390315 0.238652 0 0 255
0.185164 0.387808 0.281110 0 0 255
0.332957 0.358613 0.560652 0 0 255
0.278463 0.360968 0.392651 0 0 255
0.185127 0.364307 0.274651 0 0 255
0.116650 0.364189 0.245688 0 0 255
0.299078 0.360405 0.252652 0 0 255
0.303761 0.371291 0.240652 0 0 255
0.300156 0.307925 0.248652 0 0 255
0.297962 0.345520 0.218652 0 0 255
0.262329 0.244750 0.488925 0 0 255
0.224553 0.359667 0.254652 0 0 255
0.155852 0.362240 0.260651 0 0 255
0.087594 0.385816 0.275771 0 0 255
0.148615 0.380871 0.275659 0 0 255
0.351662 0.361075 0.595875 0 0 255
0.349032 0.355323 0.303696 0 0 255
0.315031 0.315930 0.307182 0 0 255
0.326123 0.363014 0.309117 0 0 255
0.179928 0.365345 0.242652 0 0 255
0.304001 0.326215 0.250652 0 0 255
0.128532 0.388661 0.281095 0 0 255
0.211057 0.360929 0.258652 0 0 255
0.238864 0.369147 0.192652 0 0 255
0.299764 0.376655 0.282652 0 0 255
0.316814 0.366226 0.518652 0 0 255
0.080161 0.374913 0.252652 0 0 255
0.300058 0.317468 0.232652 0 0 255
0.325641 0.315577 0.254652 0 0 255
0.131276 0.372428 0.268652 0 0 255
0.297757 0.320865 0.280652 0 0 255
0.342653 0.361273 0.586651 0 0 255
0.336164 0.359119 0.571188 0 0 255
0.144819 0.368003 0.276097 0 0 255
0.309261 0.359595 0.295656 0 0 255
0.314968 0.307064 0.282652 0 0 255
0.203817 0.362211 0.248652 0 0 255
0.125604 0.372249 0.174652 0 0 255
0.299287 0.351831 0.266652 0 0 255
0.298043 0.341700 0.262652 0 0 255
0.325827 0.371494 0.309809 0 0 255
0.216555 0.380414 0.275750 0 0 255
0.247090 0.360143 0.258652 0 0 255
0.107723 0.363414 0.218652 0 0 255
0.291959 0.359323 0.454652 0 0 255
0.096011 0.369764 0.222652 0 0 255
0.299541 0.379597 0.248652 0 0 255
0.096631 0.366180 0.274651 0 0 255
0.277954 0.355348 0.412652 0 0 255
0.310823 0.355404 0.492499 0 0 255
0.123419 0.365582 0.254652 0 0 255
0.150768 0.389803 0.280652 0 0 255
0.248454 0.356136 0.332652 0 0 255
0.095560 0.379696 0.276652 0 0 255
0.301673 0.392514 0.256652 0 0 255
0.318537 0.361884 0.524652 0 0 255
0.326634 0.307844 0.310822 0 0 255
0.169667 0.385852 0.275732 0 0 255
0.302196 0.366681 0.234652 0 0 255
0.310036 0.316437 0.298652 0 0 255
0.300573 0.375901 0.262652 0 0 255
0.069451 0.398618 0.248652 0 0 255
0.117324 0.385440 0.275719 0 0 255
0.071589 0.371586 0.180652 0 0 255
0.307230 0.316360 0.288651 0 0 255
0.307253 0.355998 0.240652 0 0 255
0.286603 0.238522 0.447871 0 0 255
0.133589 0.388219 0.276652 0 0 255
0.297024 0.308348 0.226652 0 0 255
0.296986 0.316348 0.268652 0 0 255
0.128354 0.364214 0.268652 0 0 255
0.100115 0.369918 0.244652 0 0 255
0.164898 0.363143 0.268652 0 0 255
0.230015 0.359658 0.206276 0 0 255
0.299318 0.360663 0.262668 0 0 255
0.246042 0.365114 0.316652 0 0 255
0.349032 0.355323 0.602665 0 0 255
0.299893 0.384740 0.240425 0 0 255
0.301061 0.380914 0.200651 0 0 255
0.322180 0.355753 0.520651 0 0 255
0.303699 0.378456 0.190652 0 0 255
0.131283 0.369687 0.276652 0 0 255
0.302521 0.390491 0.194425 0 0 255
0.300729 0.385636 0.226652 0 0 255
0.323198 0.343864 0.304652 0 0 255
0.346026 0.363596 0.310652 0 0 255
0.297562 0.311858 0.262652 0 0 255
0.326634 0.307844 0.224364 0 0 255
0.209709 0.376006 0.280652 0 0 255
0.322497 0.360926 0.514652 0 0 255
0.330906 0.347615 0.303696 0 0 255
0.225639 0.360830 0.268652 0 0 255
0.305125 0.375688 0.202652 0 0 255
0.298349 0.347894 0.285544 0 0 255
0.312752 0.307117 0.292652 0 0 255
0.336531 0.368311 0.304652 0 0 255
0.297475 0.324097 0.258652 0 0 255
0.252079 0.366429 0.246652 0 0 255
0.298743 0.331119 0.248652 0 0 255
0.247031 0.379341 0.230652 0 0 255
0.302899 0.355705 0.206652 0 0 255
0.249480 0.366119 0.216652 0 0 255
0.146005 0.364163 0.266652 0 0 255
0.068301 0.387399 0.232652 0 0 255
0.129897 0.381327 0.280652 0 0 255
0.293862 0.354812 0.449468 0 0 255
0.298455 0.325918 0.212652 0 0 255
0.304914 0.380057 0.236652 0 0 255
0.317661 0.321681 0.308305 0 0 255
0.301307 0.334197 0.194652 0 0 255
0.236934 0.364144 0.219947 0 0 255
0.299286 0.351831 0.198652 0 0 255
0.169802 0.300952 0.565805 0 0 255
0.315170 0.357134 0.502651 0 0 255
0.240927 0.371359 0.281226 0 0 255
0.335195 0.346350 0.309907 0 0 255
0.083308 0.360691 0.272652 0 0 255
0.069879 0.393212 0.202652 0 0 255
0.304059 0.364446 0.204652 0 0 255
0.230182 0.375910 0.276652 0 0 255
0.074338 0.380398 0.262652 0 0 255
0.248267 0.386392 0.266652 0 0 255
0.303562 0.340298 0.216652 0 0 255
0.351760 0.358249 0.310096 0 0 255
0.321714 0.306963 0.282652 0 0 255
0.298743 0.328383 0.278652 0 0 255
0.206513 0.384308 0.281142 0 0 255
0.239282 0.356485 0.264652 0 0 255
0.068684 0.392511 0.256652 0 0 255
0.315745 0.360683 0.512651 0 0 255
0.330134 0.329192 0.303670 0 0 255
0.187994 0.368762 0.228651 0 0 255
0.334720 0.319447 0.303670 0 0 255
0.118464 0.365233 0.220652 0 0 255
0.333787 0.365368 0.550652 0 0 255
0.323412 0.319052 0.303667 0 0 255
0.073779 0.394463 0.262652 0 0 255
0.072943 0.378903 0.248652 0 0 255
0.127034 0.369460 0.240652 0 0 255
0.189454 0.386543 0.275767 0 0 255
0.299532 0.374137 0.212652 0 0 255
0.300794 0.375696 0.218652 0 0 255
0.068385 0.381851 0.236652 0 0 255
0.292720 0.362385 0.436651 0 0 255
0.193413 0.377382 0.280652 0 0 255
0.118670 0.370510 0.232652 0 0 255
0.297464 0.313167 0.238652 0 0 255
0.069368 0.380934 0.217740 0 0 255
0.227900 0.366188 0.276652 0 0 255
0.303911 0.330396 0.288651 0 0 255
0.178092 0.369792 0.268652 0 0 255
0.068609 0.392582 0.268652 0 0 255
0.081763 0.366642 0.248652 0 0 255
0.112747 0.365869 0.202652 0 0 255
0.090175 0.370989 0.242652 0 0 255
0.142537 0.370132 0.252652 0 0 255
0.180754 0.371349 0.260651 0 0 255
0.125459 0.366914 0.186651 0 0 255
0.315153 0.337693 0.306652 0 0 255
0.300206 0.361615 0.198652 0 0 255
0.124933 0.370139 0.279020 0 0 255
0.280994 0.358607 0.424120 0 0 255
0.189109 0.288416 0.564652 0 0 255
0.289202 0.359158 0.444652 0 0 255
0.320765 0.354337 0.308170 0 0 255
0.301092 0.324441 0.238652 0 0 255
0.076020 0.366528 0.234652 0 0 255
0.281696 0.239126 0.458652 0 0 255
0.302691 0.321968 0.262652 0 0 255
0.112890 0.368955 0.240652 0 0 255
0.273680 0.365428 0.401739 0 0 255
0.227188 0.359559 0.246845 0 0 255
0.325707 0.312715 0.278652 0 0 255
0.102866 0.374309 0.256652 0 0 255
0.144084 0.378945 0.280652 0 0 255
0.310057 0.316461 0.252652 0 0 255
0.300602 0.323916 0.296089 0 0 255
0.213303 0.372508 0.240652 0 0 255
0.276944 0.354265 0.404652 0 0 255
0.248814 0.388616 0.233592 0 0 255
0.238386 0.362790 0.284652 0 0 255
0.124242 0.389926 0.275655 0 0 255
0.207742 0.369488 0.250652 0 0 255
0.108745 0.387969 0.281245 0 0 255
0.153868 0.371843 0.268652 0 0 255
0.312986 0.315102 0.276652 0 0 255
