ply
format ascii 1.0
element vertex 1257
property float x
property float y
property float z
property uchar red
property uchar green
property uchar blue
end_header
0.825171 0.282591 0.264229 227 205 197
0.816787 0.278235 0.274242 205 188 173
0.694242 0.278614 0.139841 84 80 65
0.691147 0.261102 0.144274 87 79 68
0.694484 0.277864 0.149291 85 78 64
0.687718 0.259660 0.153899 116 98 68
0.519886 0.204905 0.151008 57 48 45
0.531056 0.224366 0.147408 73 47 59
0.547690 0.223196 0.150167 57 43 32
0.541142 0.208619 0.153151 52 46 39
0.551178 0.202204 0.156829 59 51 49
0.762192 0.229879 0.269826 136 110 94
0.749014 0.237221 0.263865 112 79 62
0.756090 0.227353 0.280604 94 61 38
0.768367 0.223702 0.275673 140 117 104
0.780447 0.228649 0.286495 144 119 98
0.749951 0.231877 0.289781 103 70 55
0.794061 0.277291 0.227887 99 77 60
0.797074 0.279222 0.220842 101 80 70
0.798282 0.277813 0.199628 74 70 52
0.666055 0.290447 0.174428 138 116 99
0.664312 0.287862 0.189040 138 116 99
0.726690 0.240733 0.303473 107 81 63
0.739183 0.242533 0.303662 94 73 37
0.537477 0.248719 0.132658 68 56 37
0.519333 0.248975 0.138486 53 42 48
0.527824 0.248758 0.133789 70 47 49
0.548523 0.245994 0.135857 61 56 45
0.547425 0.251322 0.131237 59 55 51
0.818884 0.287285 0.294415 196 182 174
0.814451 0.287946 0.244556 143 137 120
0.794273 0.286701 0.253478 136 109 91
0.800641 0.296246 0.241797 122 109 94
0.799509 0.280413 0.236337 103 78 60
0.786316 0.274510 0.237314 125 100 83
0.792585 0.283614 0.245291 103 76 61
0.762568 0.272601 0.306879 207 171 153
0.771090 0.247248 0.307975 144 116 95
0.778494 0.247742 0.306853 126 95 68
0.750424 0.275959 0.300292 200 168 148
0.746262 0.257674 0.304450 207 168 152
0.568475 0.291499 0.157236 65 47 38
0.573264 0.290382 0.146165 99 78 79
0.576219 0.271134 0.141808 68 54 35
0.579339 0.264186 0.133687 85 63 56
0.577463 0.255006 0.139125 57 51 34
0.571959 0.275280 0.156222 57 44 30
0.576471 0.261080 0.150742 83 53 60
0.583133 0.290488 0.134919 68 52 53
0.627235 0.289396 0.291026 149 119 110
0.639465 0.292193 0.291730 153 123 111
0.601475 0.312851 0.176097 131 115 97
0.595247 0.306654 0.177400 151 139 130
0.851833 0.151529 0.168064 133 115 111
0.781580 0.282962 0.290085 236 217 215
0.804023 0.283003 0.299289 148 133 116
0.795455 0.276287 0.306365 210 193 185
0.749729 0.264395 0.244553 124 97 83
0.749587 0.262867 0.229811 124 99 81
0.745673 0.253509 0.240336 126 100 80
0.757671 0.259069 0.251156 111 79 62
0.759591 0.274206 0.252058 114 81 56
0.780854 0.270742 0.238245 104 76 53
0.763074 0.254322 0.252700 109 79 54
0.777839 0.259178 0.248163 116 85 66
0.773992 0.237211 0.259660 127 101 78
0.750738 0.274714 0.254588 131 105 88
0.568597 0.278931 0.200011 74 56 41
0.577731 0.258241 0.226867 115 98 81
0.567330 0.287274 0.215389 62 58 42
0.570105 0.275844 0.219385 66 51 40
0.563324 0.285606 0.230722 71 54 42
0.811205 0.283712 0.232643 122 111 93
0.819892 0.291003 0.253610 103 94 87
0.827313 0.287433 0.246283 192 180 170
0.658118 0.269715 0.166755 137 120 94
0.667970 0.284556 0.169460 151 131 117
0.820433 0.234645 0.139265 114 95 68
0.813278 0.229085 0.150649 115 95 81
0.824432 0.211494 0.141368 102 83 67
0.812595 0.218094 0.149656 141 106 90
0.666626 0.199864 0.164061 71 63 61
0.801938 0.262340 0.162783 147 120 88
0.810459 0.249761 0.152567 140 118 81
0.589700 0.020922 0.152076 62 54 43
0.659803 0.252524 0.149257 108 97 96
0.688733 0.247529 0.142991 115 95 99
0.661307 0.232563 0.159018 69 58 52
0.674187 0.229057 0.157600 68 61 60
0.685664 0.242799 0.152707 63 59 58
0.683121 0.227883 0.159815 67 61 57
0.670511 0.232543 0.150683 86 78 68
0.679461 0.235451 0.144387 98 89 85
0.657147 0.245889 0.142588 110 89 85
0.650470 0.235384 0.142996 118 98 74
0.667857 0.236373 0.144825 101 98 100
0.517515 0.231329 0.144242 55 33 41
0.497525 0.260642 0.143171 79 69 59
0.513252 0.263964 0.137792 89 74 45
0.489327 0.026061 0.148180 98 81 85
0.478581 0.020770 0.148136 98 81 85
0.776397 0.200699 0.167649 177 148 125
0.771994 0.189875 0.169827 158 133 114
0.808228 0.203015 0.165991 140 115 91
0.784442 0.184127 0.164049 165 144 128
0.787228 0.203728 0.164819 154 131 106
0.737013 0.287644 0.253440 103 73 54
0.752545 0.286356 0.253531 101 79 60
0.732227 0.281335 0.244451 128 111 95
0.727683 0.293359 0.250721 117 85 75
0.666794 0.064270 0.155486 48 51 44
0.845247 -0.013681 0.160745 53 46 45
0.826573 0.236449 0.294372 208 198 183
0.818100 0.227231 0.288136 201 177 172
0.741935 0.059091 0.159974 64 61 63
0.750752 0.060151 0.164121 61 64 59
0.621112 0.288719 0.286448 176 142 130
0.625576 0.291747 0.262986 129 101 85
0.636427 0.287617 0.269645 192 174 160
0.647193 0.289024 0.284251 170 144 121
0.570503 0.294841 0.179326 68 48 44
0.576767 0.299634 0.166235 105 85 80
0.568181 0.291825 0.199390 74 48 42
0.586976 0.301532 0.187080 110 94 80
0.554692 0.275601 0.286819 131 107 92
0.523763 0.258736 0.281843 145 132 105
0.537437 0.266281 0.286053 160 133 117
0.511098 0.297624 0.158952 181 156 143
0.506955 0.298633 0.189512 147 130 113
0.502543 0.303176 0.187495 113 101 75
0.687800 0.280011 0.212501 120 104 85
0.835204 0.227915 0.252810 89 79 73
0.843050 0.220807 0.276781 82 76 65
0.830028 0.231845 0.286885 215 191 177
0.825423 0.219432 0.283626 173 150 140
0.840336 0.220341 0.287717 192 171 164
0.528176 0.151153 0.153044 79 51 56
0.712896 0.240675 0.196700 91 84 74
0.701589 0.244517 0.173023 87 80 73
0.711673 0.240920 0.173865 133 125 119
0.756018 0.044645 0.164697 61 58 52
0.573984 0.296983 0.261394 148 128 99
0.572312 0.293265 0.283985 188 158 131
0.563071 0.301917 0.273967 171 149 121
0.577739 0.307313 0.272366 188 155 135
0.580507 0.084319 0.153744 76 70 61
0.591739 0.070912 0.152953 64 67 52
0.499995 0.265979 0.175246 100 85 68
0.517625 0.276773 0.175799 139 117 101
0.512006 0.269004 0.176073 116 97 80
0.511993 0.264994 0.192959 123 100 81
0.515516 0.287471 0.178822 139 109 91
0.750380 0.283481 0.264159 106 67 52
0.725951 0.285864 0.284960 204 166 143
0.752678 0.278048 0.281787 102 71 46
0.727291 0.286530 0.261976 111 66 40
0.722059 0.281629 0.272358 124 93 85
0.738089 0.281132 0.283124 111 72 50
0.713538 0.290502 0.296198 245 219 208
0.676945 0.278009 0.301113 188 151 132
0.673857 0.288353 0.295618 188 154 128
0.655021 0.291510 0.294852 196 162 149
0.767615 0.173085 0.132635 120 94 89
0.757177 0.170482 0.128896 72 64 51
0.746528 0.160264 0.141753 69 70 44
0.760499 0.172713 0.140948 72 63 49
0.727272 0.297524 0.174845 121 107 86
0.733656 0.286888 0.160519 112 89 78
0.718634 0.302726 0.173958 125 110 93
0.725044 0.302844 0.164697 116 102 90
0.579900 0.194454 0.157297 68 66 44
0.595399 0.183877 0.157865 88 68 57
0.584227 0.105550 0.155134 69 66 64
0.598409 0.093336 0.154897 72 64 70
0.756634 -0.033282 0.201509 91 117 100
0.752700 -0.041834 0.226795 81 90 64
0.761616 -0.031939 0.212892 87 101 77
0.662081 0.295177 0.255813 128 117 107
0.675302 0.282337 0.249869 108 94 76
0.661845 0.284350 0.238371 137 120 102
0.684978 0.286920 0.246353 97 93 82
0.583830 0.140894 0.154520 72 61 60
0.601096 0.156223 0.157181 75 62 50
0.825274 0.175238 0.140905 112 88 76
0.818145 0.151112 0.163753 119 90 69
0.809536 0.154422 0.143190 119 97 93
0.815329 0.167994 0.142246 128 104 93
0.754229 0.192509 0.165729 115 101 89
0.793603 0.236611 0.295594 99 82 84
0.810307 0.236098 0.297648 157 140 134
0.733339 -0.016643 0.159401 68 70 73
0.732853 -0.035829 0.159832 84 98 106
0.753947 -0.016271 0.162043 68 65 56
0.677545 0.223025 0.277374 118 101 93
0.661397 0.227796 0.284436 216 198 196
0.653091 0.228630 0.267225 102 93 88
0.677036 0.223476 0.269850 109 95 89
0.677030 0.234164 0.297759 253 254 252
0.642769 0.227436 0.269340 243 234 231
0.657102 0.292091 0.137440 80 72 72
0.657076 0.295589 0.161294 176 158 142
0.648283 0.306338 0.149996 123 108 96
0.644112 0.308967 0.142266 109 100 87
0.650320 0.291967 0.135822 122 106 95
0.501120 0.260201 0.205674 128 102 92
0.484322 0.256015 0.227767 137 114 94
0.586386 0.303452 0.158235 130 120 112
0.603385 0.315704 0.165819 135 122 94
0.592734 0.304631 0.145137 184 163 147
0.598877 0.311022 0.148017 116 116 83
0.704060 0.057468 0.158601 58 52 68
0.696637 0.090033 0.160381 64 51 49
0.692861 0.066481 0.158708 52 54 46
0.679311 0.074748 0.156548 62 54 55
0.557437 0.254361 0.251859 248 245 244
0.808905 0.102329 0.166179 92 79 65
0.616400 0.251206 0.280503 148 111 97
0.604149 0.248878 0.264661 77 69 58
0.805685 0.119367 0.164565 44 46 22
0.767623 0.136749 0.161541 136 109 86
0.502746 0.198564 0.151406 67 54 36
0.498829 0.218756 0.148745 57 37 33
0.503241 0.305229 0.121718 84 71 44
0.485334 0.300147 0.113644 92 68 52
0.496206 0.294513 0.116792 55 45 42
0.647393 0.301554 0.198336 148 127 111
0.645070 0.310012 0.171380 131 118 106
0.649433 0.302058 0.166410 137 120 96
0.643560 0.318835 0.189661 147 123 108
0.724810 0.294202 0.232108 140 122 104
0.718535 0.299428 0.231526 131 119 98
0.729380 0.285028 0.230431 130 112 94
0.731939 0.285257 0.178019 124 102 88
0.724363 0.299071 0.206070 131 113 95
0.727817 0.294313 0.203697 108 78 51
0.732628 0.284381 0.207469 114 91 73
0.813832 0.256196 0.146744 143 108 86
0.816396 0.274122 0.147917 140 108 86
0.822542 0.257853 0.135319 147 113 102
0.822779 0.271833 0.132289 88 77 70
0.817952 0.272451 0.141031 140 114 93
0.648465 0.071376 0.155237 57 46 41
0.663024 0.096256 0.156674 60 61 46
0.669069 0.118651 0.156894 67 59 47
0.763339 -0.026546 0.165573 68 65 70
0.704541 0.240439 0.222703 92 88 76
0.701088 0.244048 0.195660 93 90 81
0.697034 0.246502 0.218454 99 92 79
0.686655 0.285502 0.300173 196 166 147
0.716396 0.277614 0.302690 200 169 155
0.688907 0.292610 0.294082 195 155 139
0.817912 0.138276 0.164051 126 109 88
0.820441 0.115018 0.164534 118 91 82
0.839380 0.129338 0.167074 77 62 44
0.770314 -0.032697 0.194131 63 60 58
0.774889 -0.035597 0.185232 53 51 48
0.773910 -0.035896 0.208912 54 52 53
0.500482 0.122557 0.151389 79 65 72
0.764783 0.222420 0.158352 91 80 57
0.751028 0.231539 0.139848 78 74 62
0.752710 0.211333 0.144164 80 76 62
0.759905 0.232847 0.137085 91 79 66
0.761139 0.216626 0.139089 103 95 79
0.767745 0.238783 0.155721 115 89 81
0.769821 0.219739 0.159083 125 96 90
0.772056 0.221510 0.146235 89 76 66
0.751171 0.247716 0.135718 85 81 68
0.770313 0.216151 0.139581 94 78 66
0.512694 0.272187 0.150377 107 88 89
0.506576 0.269515 0.147478 94 74 74
0.515228 0.282682 0.139479 120 104 84
0.516475 0.271537 0.129654 70 55 42
0.517705 0.283998 0.159023 110 94 83
0.756087 0.135443 0.132391 36 38 36
0.650127 0.258171 0.231310 139 121 108
0.664109 0.274027 0.237877 132 114 100
0.667261 0.269755 0.244326 121 108 83
0.650306 0.255138 0.246895 163 144 135
0.679408 0.273260 0.246538 104 98 84
0.686152 0.263673 0.243073 108 99 67
0.687110 0.278043 0.240103 123 107 97
0.663414 0.254636 0.251978 110 99 76
0.664643 0.141429 0.157045 50 48 64
0.582985 0.275731 0.128781 75 67 68
0.704668 0.288587 0.153810 111 105 100
0.719179 0.299273 0.148979 122 113 103
0.716504 0.301735 0.159815 161 155 143
0.642053 0.043371 0.154168 53 57 53
0.708314 0.149783 0.163464 68 60 67
0.477312 -0.019763 0.145328 94 81 82
0.489305 0.302593 0.179291 112 104 65
0.756336 0.200252 0.137627 74 75 53
0.762409 0.210325 0.117072 107 83 79
0.773985 0.207210 0.121563 94 73 62
0.744435 0.037268 0.157915 61 55 52
0.735240 0.020289 0.156883 61 55 53
0.542050 0.227020 0.126245 78 79 49
0.528960 0.232558 0.123566 68 55 42
0.521046 0.239033 0.124982 85 61 58
0.539400 0.243049 0.127489 70 63 73
0.554836 0.240916 0.126099 72 72 47
0.494114 0.252701 0.143265 104 88 72
0.765170 -0.034554 0.225098 47 50 36
0.770838 -0.035968 0.225262 44 38 37
0.508044 0.296861 0.110968 65 55 43
0.506359 0.302343 0.137907 149 129 113
0.698901 0.292026 0.245513 108 103 87
0.695134 0.283954 0.234055 107 97 87
0.711311 0.304235 0.243439 96 78 68
0.718056 0.291792 0.256492 89 70 61
0.535202 0.286331 0.242356 132 113 91
0.526343 0.258557 0.249441 247 245 244
0.536317 0.257825 0.252944 247 246 244
0.532587 0.268812 0.245707 247 246 243
0.550421 0.271086 0.244007 247 246 245
0.555476 0.284922 0.238098 133 108 93
0.737438 0.290001 0.142244 86 83 69
0.754670 0.277699 0.142929 108 90 91
0.726781 0.285943 0.133762 69 65 49
0.730937 0.297764 0.148860 112 99 92
0.720806 0.294546 0.136659 101 95 84
0.700167 0.105345 0.163463 56 52 48
0.753233 0.111025 0.164964 57 52 46
0.742776 0.111668 0.169234 55 48 46
0.750886 0.084398 0.164802 40 46 35
0.576371 0.257934 0.236296 108 99 73
0.602624 0.243865 0.243079 112 105 75
0.609670 0.251140 0.231911 112 97 80
0.613070 0.246414 0.251575 103 86 71
0.591696 0.243358 0.236345 106 96 72
0.780118 0.275679 0.276720 128 96 86
0.803159 0.275245 0.275729 172 156 150
0.783242 0.276794 0.265440 102 66 58
0.800431 0.279072 0.265142 199 181 164
0.815702 0.279308 0.285244 150 143 138
0.799729 0.284686 0.293789 213 200 200
0.802629 0.279128 0.285545 158 143 134
0.578359 0.065349 0.153571 53 56 51
0.599278 0.039017 0.152847 74 66 55
0.571604 0.036932 0.151493 67 65 61
0.753048 0.133192 0.163653 90 81 68
0.741311 0.144218 0.168624 89 72 68
0.647825 0.298140 0.213175 161 140 125
0.641864 0.316323 0.210231 128 108 89
0.791946 0.096934 0.165110 45 41 33
0.789662 0.110765 0.165105 82 77 59
0.664771 0.021359 0.153627 58 51 54
0.522998 0.273526 0.238176 117 99 88
0.513908 0.257170 0.237170 130 99 108
0.517100 0.264344 0.229456 134 104 88
0.645346 0.319018 0.148448 171 153 138
0.636137 0.337959 0.140926 120 103 90
0.641574 0.336883 0.151122 147 126 111
0.639563 0.332265 0.170136 125 104 80
0.827104 0.004175 0.161535 58 42 38
0.829381 -0.013735 0.159802 50 43 43
0.740720 0.171440 0.167459 86 80 66
0.727897 0.156912 0.169050 59 59 56
0.709940 0.177683 0.164004 68 61 64
0.635073 0.251467 0.216705 126 112 80
0.629726 0.250247 0.230388 99 83 57
0.641418 0.252714 0.197197 122 100 79
0.623620 0.249195 0.196218 101 84 58
0.824765 0.229589 0.170547 93 83 79
0.827096 0.218884 0.168667 112 95 81
0.829301 0.234637 0.179478 92 81 67
0.816281 0.238385 0.172399 120 99 89
0.839108 0.227559 0.169019 98 85 59
0.815981 0.224269 0.167143 141 111 96
0.817578 0.239419 0.182687 101 80 67
0.783121 0.284850 0.255842 98 75 58
0.766021 0.290037 0.242974 102 71 55
0.761335 0.295256 0.249241 109 86 58
0.781315 0.283951 0.247758 99 77 59
0.771142 0.278120 0.241280 98 74 59
0.770933 0.291621 0.249458 157 135 126
0.666171 0.173945 0.163764 122 99 101
0.666055 0.159115 0.159676 59 43 36
0.677744 0.175214 0.163325 62 57 45
0.651844 0.171683 0.160377 67 55 51
0.689572 0.274480 0.194512 97 92 79
0.695637 0.250504 0.194639 102 94 77
0.689406 0.268832 0.161304 105 95 80
0.696751 0.250788 0.167804 121 103 78
0.690302 0.266022 0.177886 118 104 81
0.551899 -0.008393 0.148228 81 67 66
0.603412 0.244025 0.206289 114 89 73
0.597012 0.241805 0.213503 103 89 75
0.606462 0.248124 0.227489 114 104 75
0.588154 0.299938 0.240167 120 95 72
0.575178 0.298814 0.248483 185 155 123
0.582074 0.297583 0.257932 189 164 127
0.576737 0.295845 0.229171 121 99 91
0.647503 0.220725 0.162669 114 89 72
0.663181 0.214817 0.161910 100 89 68
0.604051 0.313287 0.228479 127 116 100
0.606196 0.312159 0.212367 144 133 110
0.594242 0.305579 0.205354 177 167 151
0.608722 0.319148 0.191395 105 101 82
0.597829 0.255613 0.269924 125 97 95
0.603890 0.258767 0.282814 114 97 78
0.609592 0.264500 0.287974 181 147 124
0.601669 0.279400 0.284279 197 173 144
0.583100 0.257812 0.267573 167 141 121
0.778455 -0.007711 0.164593 59 51 49
0.641346 0.337331 0.193273 168 147 134
0.645521 0.319661 0.165630 127 110 87
0.630195 0.337416 0.194837 125 112 96
0.631514 0.341776 0.168188 123 104 90
0.638809 0.337192 0.181686 168 150 137
0.624359 0.338497 0.191033 117 102 86
0.629317 0.345208 0.178929 119 104 89
0.641905 0.327576 0.170379 127 110 87
0.621958 0.334674 0.179996 100 81 72
0.619322 0.331436 0.166275 102 87 69
0.550120 0.042958 0.151224 61 62 59
0.676825 0.189803 0.162212 66 61 60
0.691925 0.206470 0.160149 78 69 58
0.745194 0.172497 0.129163 62 55 46
0.763076 0.159552 0.128226 36 38 22
0.749946 0.150025 0.125746 29 24 40
0.745808 0.166315 0.122781 31 38 35
0.518740 0.279992 0.190568 144 109 102
0.519580 0.278594 0.209406 137 104 101
0.515258 0.292989 0.218847 152 131 120
0.512204 0.260934 0.228858 125 103 74
0.521222 0.274089 0.227206 124 114 103
0.516341 0.268260 0.199460 136 109 93
0.684170 0.030565 0.154615 48 51 42
0.694327 0.044339 0.156952 68 50 50
0.607705 0.321687 0.169418 170 156 147
0.605151 0.321750 0.144622 163 152 134
0.609703 0.326703 0.162709 165 152 137
0.624579 0.334390 0.138004 102 92 75
0.614810 0.331236 0.145254 119 107 95
0.623462 0.337389 0.149253 96 73 63
0.565688 0.183948 0.153885 70 58 48
0.552084 0.182856 0.153721 82 71 57
0.793989 0.258878 0.233197 101 78 60
0.794310 0.272585 0.216641 94 73 63
0.798506 0.246843 0.237268 138 124 109
0.800329 0.247785 0.214321 140 126 112
0.804919 0.251479 0.199713 60 47 54
0.723078 -0.000630 0.159167 55 54 64
0.722413 0.017865 0.158648 59 51 58
0.711808 0.001703 0.156782 64 53 45
0.827682 0.194682 0.168954 101 87 80
0.835746 0.184349 0.168847 76 59 59
0.815906 0.191899 0.167974 150 114 96
0.813114 0.178244 0.164633 139 108 96
0.840684 0.213512 0.165476 60 44 46
0.831667 0.231409 0.222552 93 83 80
0.818828 0.236371 0.209080 59 49 63
0.712590 0.034706 0.158793 52 48 57
0.810625 0.283664 0.211156 101 93 70
0.826955 0.283066 0.227256 178 165 149
0.825470 0.286622 0.207239 114 105 93
0.621512 0.055244 0.153975 66 65 53
0.652205 0.052779 0.155567 65 59 55
0.618544 0.093395 0.155673 76 45 50
0.701424 0.238941 0.247642 102 95 81
0.715045 0.236417 0.265893 99 98 87
0.694322 0.249613 0.239495 116 103 86
0.690523 0.242622 0.254962 105 95 78
0.689355 0.249353 0.248028 124 103 93
0.594427 0.241294 0.252794 188 178 167
0.577837 0.251291 0.246039 188 177 165
0.570551 0.266092 0.237009 82 59 39
0.631953 0.253818 0.196310 92 81 72
0.640762 0.251574 0.172381 112 97 91
0.804273 0.240372 0.248698 125 109 93
0.794683 0.247297 0.247165 126 115 100
0.813142 0.234697 0.248278 130 114 100
0.790412 0.263035 0.247187 107 78 70
0.795516 0.240854 0.252872 104 81 57
0.793994 0.271798 0.235160 120 97 79
0.723582 0.096466 0.163914 70 65 60
0.713783 0.105790 0.163553 56 55 51
0.642262 0.282357 0.298950 198 175 162
0.624469 0.278484 0.291717 122 97 79
0.625069 0.255833 0.288506 168 149 128
0.634807 0.264719 0.297734 219 196 196
0.869196 0.014233 0.164228 53 41 52
0.535426 0.077839 0.151961 68 63 59
0.534328 0.050039 0.151367 70 62 53
0.625010 0.249852 0.174714 102 81 64
0.632392 0.251760 0.170184 99 94 78
0.776990 0.192288 0.127078 88 71 63
0.779877 0.171722 0.128565 50 46 36
0.562504 0.061721 0.153740 76 66 53
0.788380 0.168737 0.161674 132 106 78
0.793159 0.146603 0.160646 147 126 102
0.809388 0.162328 0.150736 119 105 93
0.802665 0.171992 0.149590 116 96 76
0.776647 0.176878 0.141748 118 112 82
0.776399 0.162220 0.132061 81 60 52
0.784582 0.150662 0.139244 39 42 25
0.797822 0.155246 0.146829 137 114 102
0.790486 0.150542 0.141994 116 100 88
0.786330 0.161710 0.132144 37 42 22
0.779160 0.163178 0.139174 147 122 105
0.787905 0.165190 0.148140 151 134 117
0.782746 0.152298 0.143484 127 115 91
0.828567 0.250051 0.309633 62 42 42
0.819982 0.259914 0.309196 152 139 131
0.818561 0.244982 0.307434 116 92 89
0.830975 0.290531 0.174810 177 167 150
0.813513 0.285317 0.172831 94 82 72
0.828637 0.285957 0.156356 149 136 128
0.507368 0.174742 0.152538 49 57 35
0.533689 0.185740 0.153676 61 59 56
0.660346 0.296181 0.149067 145 131 115
0.670188 0.284127 0.155991 115 102 87
0.665125 0.289819 0.144613 129 115 109
0.669894 0.292215 0.153181 115 97 88
0.644275 0.245623 0.134740 123 98 94
0.626276 0.246003 0.160245 87 76 55
0.633426 0.245340 0.160733 116 92 85
0.644455 0.231077 0.138151 90 69 61
0.641088 0.226401 0.159535 107 80 73
0.645399 0.232123 0.160506 116 98 70
0.632498 0.230596 0.152680 86 66 56
0.730522 0.231729 0.287801 102 67 45
0.744584 0.228492 0.276540 103 66 57
0.743984 0.228704 0.272647 109 88 84
0.711390 0.226209 0.278452 201 189 182
0.733588 0.231235 0.273314 117 101 87
0.714888 0.237206 0.306188 138 111 103
0.685223 0.228168 0.287027 254 255 253
0.715656 0.229258 0.293636 254 254 253
0.685502 0.239474 0.304442 132 90 73
0.709624 0.081503 0.161572 59 52 48
0.715717 0.054807 0.160567 56 50 46
0.734403 0.072849 0.162042 53 52 47
0.719384 0.033512 0.160868 52 50 40
0.656544 0.266962 0.190163 165 148 133
0.627344 -0.017210 0.151697 63 60 55
0.555405 0.293978 0.239760 186 151 130
0.537002 0.294655 0.242756 203 170 148
0.547636 0.296773 0.255537 174 144 122
0.528650 0.293018 0.240376 194 174 155
0.746260 0.277541 0.152275 116 96 92
0.745227 0.261771 0.132779 90 88 75
0.604770 0.224475 0.153706 72 67 49
0.611149 0.208498 0.152923 74 67 57
0.610958 0.181126 0.154014 69 58 58
0.591840 0.211248 0.156293 76 63 64
0.489643 0.303587 0.223536 147 127 113
0.696957 0.276627 0.304133 198 157 136
0.703430 0.259171 0.306359 210 182 163
0.710372 0.125238 0.164159 66 64 64
0.725467 0.125844 0.166101 69 67 65
0.736344 0.127372 0.169265 71 63 61
0.746398 0.158046 0.167511 83 80 64
0.497523 0.106229 0.150209 98 69 80
0.498875 0.071265 0.149883 80 76 72
0.475140 0.097193 0.151144 82 76 73
0.744582 0.245428 0.163526 53 57 44
0.735452 0.224476 0.160449 59 55 51
0.752672 0.240663 0.156610 76 71 69
0.746376 0.219754 0.138806 52 41 40
0.743760 0.237492 0.135460 79 71 61
0.559051 0.001355 0.149389 65 58 50
0.570437 0.005150 0.149418 58 63 57
0.544042 0.013423 0.148745 77 70 57
0.715175 0.239682 0.233968 135 119 108
0.724286 0.239864 0.249761 121 103 87
0.734057 0.238724 0.251387 116 99 74
0.736697 0.242386 0.241138 121 102 90
0.495888 0.302538 0.136055 80 81 58
0.526271 0.097315 0.150806 76 68 77
0.747595 0.265374 0.186574 117 94 95
0.746669 0.254949 0.174647 118 107 102
0.746486 0.275408 0.175101 124 106 99
0.744972 0.255628 0.194042 143 124 116
0.760442 0.027738 0.166568 61 60 59
0.765085 0.005469 0.166228 63 62 57
0.646658 0.192927 0.160052 63 52 39
0.621020 0.199490 0.152452 55 53 58
0.593291 0.244509 0.160624 126 99 79
0.602694 0.237944 0.157833 55 45 32
0.622927 0.229437 0.149236 51 42 37
0.615346 0.246991 0.155886 91 65 41
0.579814 0.241932 0.151896 69 60 54
0.766494 0.110885 0.161873 86 80 76
0.773157 0.090459 0.161522 30 36 27
0.651473 0.255436 0.139678 106 88 69
0.503020 0.295357 0.115243 63 67 60
0.511745 0.282537 0.109755 88 82 68
0.515564 0.292900 0.123759 128 110 96
0.515699 0.285550 0.119485 55 52 41
0.516260 0.267821 0.118937 70 62 50
0.758025 0.120016 0.136585 45 38 25
0.747308 0.144307 0.144250 75 63 50
0.746627 0.131705 0.142068 31 42 39
0.761870 0.156979 0.166607 83 69 70
0.776578 0.130011 0.159993 122 102 85
0.772002 0.144630 0.132464 41 37 29
0.754290 0.120124 0.142657 43 33 51
0.762751 0.130566 0.146584 42 54 44
0.762352 0.153055 0.147189 72 52 53
0.766879 0.119469 0.143277 34 38 26
0.775218 0.148085 0.148451 49 48 40
0.775467 0.127768 0.149218 30 36 35
0.784770 0.125343 0.162912 150 128 110
0.780157 0.122360 0.143676 37 33 41
0.784565 0.138250 0.144369 41 48 42
0.770783 0.122338 0.137183 38 37 32
0.779738 0.130920 0.139082 50 43 46
0.655490 0.290756 0.199805 164 147 131
0.662561 0.270660 0.221568 148 126 112
0.667594 0.279865 0.214708 128 111 96
0.646891 0.255151 0.220352 143 126 115
0.663591 0.280832 0.228126 135 124 105
0.664177 0.279467 0.190154 117 107 87
0.779459 0.213910 0.160058 172 150 138
0.804204 0.218489 0.162846 145 108 91
0.809312 0.231129 0.162540 142 115 83
0.797719 0.206946 0.164746 136 119 87
0.791947 0.209794 0.157133 153 114 94
0.729311 0.284429 0.293905 202 166 144
0.659843 0.294995 0.266365 126 106 92
0.673476 0.289300 0.289042 193 160 143
0.662297 0.290483 0.282870 125 106 88
0.846332 0.060419 0.154999 62 53 42
0.843930 0.076168 0.155024 56 34 43
0.489076 -0.003368 0.146993 99 77 75
0.672621 0.246651 0.252242 111 100 80
0.651199 0.246262 0.250911 99 84 65
0.663631 0.233637 0.255560 99 81 81
0.652027 0.231707 0.259665 101 83 78
0.567345 0.258120 0.270550 194 163 139
0.580078 0.274681 0.285331 162 141 114
0.577008 0.260204 0.281366 147 125 121
0.591306 0.265933 0.281517 163 131 122
0.553049 0.260870 0.282809 154 132 114
0.562680 0.269698 0.286818 161 144 114
0.723382 0.243293 0.208937 110 88 72
0.737940 0.242083 0.225833 115 86 69
0.564681 0.244633 0.130421 83 70 62
0.586168 0.250374 0.199938 116 87 91
0.553485 0.083325 0.154036 65 65 59
0.554945 0.115621 0.153994 62 63 59
0.572427 0.112833 0.155055 70 57 62
0.654422 0.232332 0.294868 239 227 221
0.662325 0.236516 0.299108 245 238 229
0.651783 0.253729 0.302022 104 71 44
0.810729 -0.007472 0.161748 53 41 35
0.821043 0.015424 0.163304 53 48 32
0.641445 0.331295 0.207965 153 133 120
0.643893 0.311380 0.222729 131 113 98
0.642446 0.333321 0.220912 161 138 127
0.636633 0.340622 0.216430 150 131 105
0.625923 0.329001 0.230708 147 132 117
0.637175 0.331286 0.228264 185 175 159
0.628792 0.336763 0.213188 128 108 89
0.637309 0.341090 0.202483 153 128 114
0.594775 0.303897 0.135583 112 90 68
0.569921 0.295227 0.155396 66 52 42
0.699501 -0.018291 0.156141 59 52 52
0.709333 -0.041654 0.157836 63 56 57
0.715575 -0.037028 0.156950 54 61 48
0.720614 -0.016952 0.159474 61 54 49
0.724660 -0.032422 0.162184 63 61 44
0.504751 -0.007788 0.148382 90 72 81
0.855250 -0.047627 0.160814 45 42 41
0.519724 0.019417 0.148635 80 72 60
0.510195 0.017990 0.149322 84 72 78
0.521996 -0.015741 0.147266 80 74 70
0.510939 0.048337 0.149394 81 71 63
0.500187 0.046736 0.149288 76 68 65
0.616818 0.315237 0.239346 159 127 115
0.613046 0.296565 0.257181 81 66 66
0.598896 0.296433 0.251320 149 113 108
0.601795 0.308924 0.235147 202 175 158
0.606698 0.303152 0.247719 163 129 120
0.745628 0.272817 0.231530 135 113 92
0.743552 0.272473 0.252905 154 140 118
0.747245 0.249851 0.252366 145 124 117
0.766982 0.241184 0.148192 123 97 86
0.764820 0.263125 0.149914 108 85 73
0.750250 0.259397 0.159805 98 90 76
0.754460 0.263495 0.154955 83 76 52
0.763542 0.250255 0.156031 87 84 60
0.755751 0.256023 0.131905 89 80 62
0.759109 0.248986 0.132927 86 79 55
0.753560 0.273237 0.130466 68 57 54
0.745613 0.251470 0.217250 114 85 69
0.743572 0.274535 0.188881 113 107 93
0.741861 0.276996 0.215558 170 151 136
0.748452 0.263307 0.205211 164 146 140
0.825117 0.075390 0.155552 54 50 48
0.817608 0.055727 0.158659 54 48 30
0.568637 0.284630 0.176306 74 47 38
0.575194 0.265282 0.189110 67 50 28
0.704194 0.236262 0.165762 70 58 49
0.708757 0.217018 0.162747 68 64 56
0.692042 0.241683 0.161817 97 87 77
0.696823 0.225898 0.161227 67 60 52
0.607113 0.002738 0.150382 56 58 59
0.619982 0.018378 0.152472 63 60 49
0.631540 0.021695 0.152527 61 58 55
0.565921 0.247641 0.257360 247 248 245
0.563119 0.249977 0.265038 189 160 136
0.582197 0.248051 0.261499 220 215 211
0.716963 0.253109 0.307298 212 172 155
0.725314 0.272356 0.301851 206 167 152
0.759297 0.250541 0.306349 103 68 36
0.725139 0.255569 0.305484 204 170 133
0.727074 0.243616 0.185227 129 114 101
0.739511 0.243974 0.201909 116 102 91
0.739687 0.243908 0.176721 127 111 101
0.735727 0.242208 0.190497 83 75 66
0.733319 0.240955 0.168660 101 95 87
0.719591 0.238186 0.167546 102 90 88
0.721866 0.226412 0.162290 71 62 62
0.498478 0.295578 0.284259 172 145 127
0.512682 0.284368 0.288673 184 149 133
0.504913 0.271508 0.290208 179 149 134
0.535095 0.282951 0.287007 183 156 130
0.513632 0.259259 0.286928 191 165 157
0.524016 0.272433 0.287119 178 153 140
0.774997 0.210839 0.144501 147 127 107
0.746710 0.222754 0.157520 74 77 57
0.754901 0.203039 0.159337 83 86 61
0.757199 0.204087 0.144795 100 86 62
0.764585 0.205778 0.138106 118 103 89
0.774014 0.202823 0.137673 115 101 85
0.762224 0.211139 0.127670 120 105 84
0.743982 0.202058 0.161938 77 69 67
0.518143 0.257693 0.121284 57 57 49
0.522108 0.255151 0.126714 68 57 46
0.607336 0.249588 0.190154 99 89 67
0.611873 0.251572 0.200237 95 76 77
0.581869 0.257789 0.164146 131 102 79
0.589946 0.248866 0.184467 122 100 84
0.612661 0.251833 0.169222 96 71 71
0.602224 0.244642 0.164443 100 81 61
0.600786 0.244946 0.185864 118 103 68
0.706165 0.291296 0.211417 134 122 111
0.691593 0.280770 0.194910 120 108 92
0.700190 0.285134 0.211389 103 98 87
0.709860 0.298094 0.232794 109 99 91
0.716480 0.299376 0.223943 129 121 111
0.573390 0.215874 0.155260 54 70 44
0.559099 0.207408 0.155620 59 56 43
0.547056 0.135516 0.153570 78 56 57
0.568657 0.146904 0.153232 73 68 51
0.577871 0.157793 0.155225 81 58 62
0.793080 0.181783 0.148548 124 103 81
0.800335 0.204381 0.150835 138 101 96
0.811430 0.187383 0.148772 120 96 74
0.814285 0.197803 0.146447 141 110 93
0.775584 0.188920 0.137226 120 108 100
0.787700 0.199707 0.150279 164 140 122
0.782671 0.209399 0.153815 162 137 119
0.783084 0.195689 0.149080 162 138 118
0.803793 0.014739 0.163591 40 48 35
0.661625 0.279977 0.299936 201 165 157
0.666780 0.253385 0.303590 201 168 149
0.692749 0.247588 0.306945 199 159 135
0.808031 0.155638 0.163525 134 92 88
0.828351 0.173793 0.168040 126 104 84
0.780078 0.098043 0.159056 57 46 49
0.790315 0.086079 0.158909 71 49 43
0.642745 0.249598 0.166776 92 84 70
0.655778 0.244179 0.154762 80 71 58
0.662935 0.268491 0.153995 143 129 113
0.664392 0.276646 0.145454 92 80 76
0.654916 0.275745 0.136670 59 52 48
0.853052 0.178753 0.169042 34 26 22
0.857586 0.165183 0.169212 128 112 101
0.850587 0.198112 0.166397 52 57 45
0.768388 0.033201 0.165455 57 47 52
0.788130 0.015825 0.164828 54 49 41
0.785885 0.043698 0.165726 49 46 43
0.802795 0.039106 0.163622 64 41 51
0.799078 0.260751 0.198253 50 48 44
0.801219 0.259676 0.170560 92 71 58
0.804667 0.252125 0.185651 140 120 101
0.697360 0.015997 0.156384 56 54 59
0.680579 0.004997 0.153734 44 51 49
0.633718 0.161833 0.156817 44 49 46
0.623685 0.170743 0.154173 58 54 55
0.635585 0.191985 0.153815 46 50 26
0.647674 0.155401 0.157663 51 51 33
0.686303 0.267881 0.218296 123 104 85
0.689513 0.260232 0.213087 119 108 99
0.697558 0.229334 0.294702 255 252 247
0.700174 0.237173 0.258182 97 90 81
0.698430 0.224534 0.277754 217 201 197
0.688584 0.225122 0.275554 255 253 250
0.741992 0.279276 0.130710 97 73 65
0.583707 -0.010185 0.149226 68 65 59
0.733421 0.193317 0.164329 52 47 49
0.721978 0.177940 0.166829 72 67 58
0.553329 0.295596 0.282241 186 161 133
0.531132 0.304535 0.278172 199 168 167
0.545582 0.301826 0.271618 186 155 140
0.546028 0.297637 0.263176 164 141 113
0.533981 0.299123 0.256957 189 163 150
0.750134 0.269368 0.217297 121 105 90
0.753199 0.278119 0.272141 96 67 33
0.762933 0.283574 0.289954 113 79 60
0.766242 0.278308 0.282276 146 129 118
0.766011 0.281841 0.262540 113 74 61
0.752442 0.285094 0.259904 94 67 41
0.602580 0.294991 0.261787 104 89 72
0.594874 0.289724 0.283192 187 156 138
0.599645 0.299802 0.270692 139 119 110
0.617785 0.293126 0.276761 189 150 131
0.606342 0.289610 0.280148 188 165 137
0.611655 0.299984 0.271341 165 137 121
0.488834 0.299759 0.241360 186 149 120
0.621717 0.242386 0.273342 122 108 106
0.645934 0.234892 0.256939 108 93 78
0.823536 0.191248 0.139920 125 102 86
0.705248 0.168000 0.163773 64 62 52
0.691936 0.183857 0.163035 65 60 56
0.510265 0.253018 0.248734 247 246 244
0.500660 0.257894 0.229099 122 108 100
0.511230 0.247489 0.261691 251 250 249
0.779961 0.150324 0.166082 141 114 99
0.800812 0.172706 0.165564 142 113 97
0.494293 0.245107 0.259160 251 251 248
0.487274 0.249667 0.242128 228 213 204
0.842784 0.229389 0.222968 97 84 80
0.800442 0.271772 0.171858 156 130 104
0.811105 0.283841 0.163760 154 132 111
0.804797 0.276629 0.160936 161 130 109
0.801987 0.277759 0.188106 98 83 73
0.812365 0.284549 0.190936 45 46 34
0.692586 0.279513 0.173388 103 100 83
0.704359 0.288458 0.190581 145 141 122
0.718580 0.299307 0.195928 145 136 120
0.512273 0.300907 0.262078 192 175 158
0.525127 0.299717 0.270556 180 150 138
0.505721 0.303975 0.274789 176 142 124
0.516588 0.304124 0.278910 182 150 123
0.511776 0.298936 0.283480 181 143 125
0.528430 0.298294 0.284362 175 143 120
0.501353 0.310727 0.216453 171 139 129
0.507183 0.306771 0.199890 152 139 122
0.513202 0.291451 0.201411 147 136 118
0.499859 0.310138 0.198422 116 102 92
0.844047 0.114318 0.165989 108 101 81
0.851924 0.136097 0.166829 82 76 50
0.748137 0.282810 0.292792 209 171 150
0.777472 0.281764 0.297801 200 174 141
0.766541 0.280307 0.302465 207 164 144
0.619853 0.145367 0.156528 52 49 44
0.644804 0.133376 0.155291 48 50 42
0.630333 0.137394 0.155033 52 51 29
0.642656 0.243803 0.296217 239 232 230
0.639246 0.236777 0.282773 212 189 173
0.783470 0.077073 0.160110 57 53 54
0.775384 0.062795 0.164381 37 49 32
0.796118 0.067114 0.159582 53 46 51
0.640571 0.353119 0.150156 177 161 131
0.636865 0.345631 0.157831 145 129 108
0.603735 0.120025 0.156075 60 55 37
0.637549 0.110206 0.155945 68 57 66
0.778982 0.224875 0.268934 107 70 64
0.787888 0.216218 0.280341 138 113 104
0.805050 0.219002 0.280307 130 99 86
0.812838 0.225814 0.262961 86 78 73
0.793745 0.220306 0.268012 98 87 79
0.801915 0.230941 0.286345 207 187 171
0.857535 0.047226 0.157900 40 44 30
0.846633 0.024651 0.163189 52 42 46
0.829126 0.034143 0.161993 45 35 48
0.846555 0.231953 0.185225 99 84 69
0.765169 -0.034763 0.185536 74 79 81
0.769195 -0.030484 0.176877 56 51 49
0.786693 -0.037046 0.165837 59 51 43
0.789559 -0.016813 0.165569 52 50 51
0.775663 -0.026828 0.170814 58 51 46
0.770246 -0.020614 0.167997 54 53 39
0.863943 0.068127 0.157194 34 36 38
0.814372 0.079302 0.157363 59 48 47
0.820055 0.099490 0.157424 39 36 41
0.822917 0.107928 0.159261 50 45 46
0.549062 0.255692 0.270049 188 156 140
0.550514 0.247732 0.260047 197 166 139
0.534081 0.253054 0.261017 210 187 176
0.531529 0.258951 0.278801 193 153 130
0.642448 0.248893 0.241890 155 133 119
0.613469 0.319411 0.203650 83 71 59
0.614765 0.321591 0.227515 218 209 201
0.624832 0.336426 0.204555 121 100 80
0.638199 0.249317 0.237421 131 106 90
0.624190 0.237481 0.261076 96 83 76
0.620363 0.248848 0.232728 93 90 75
0.632358 0.240965 0.250107 122 107 90
0.694548 -0.024819 0.154522 48 55 32
0.670269 -0.009917 0.153523 66 54 40
0.813968 0.034748 0.163760 51 44 41
0.761836 0.055534 0.165769 48 49 45
0.743482 0.085067 0.165672 67 63 54
0.861867 0.143646 0.161084 72 65 47
0.859216 0.114039 0.162462 45 44 46
0.758804 0.242317 0.302102 105 67 50
0.768584 0.234402 0.294045 144 124 115
0.572496 0.233695 0.147752 68 53 33
0.559897 0.227248 0.147642 58 55 35
0.571978 0.244388 0.136246 63 60 36
0.585892 0.248704 0.156751 76 55 42
0.581301 0.222655 0.153965 70 55 45
0.551851 0.235206 0.139933 72 58 56
0.861679 -0.021188 0.161895 49 50 37
0.818549 0.273051 0.307339 146 130 117
0.778076 0.269975 0.307060 169 157 145
0.800576 0.258936 0.309948 200 177 170
0.799279 0.247646 0.306956 52 35 29
0.512896 0.249893 0.282759 199 175 159
0.496862 0.250341 0.281069 190 169 141
0.519553 0.251880 0.269762 188 166 133
0.728105 0.211006 0.160875 61 58 50
0.567881 0.291685 0.226292 75 53 40
0.572715 0.294928 0.199223 79 73 57
0.586485 0.299596 0.211704 105 95 81
0.690875 0.290890 0.285105 198 155 120
0.713271 0.289269 0.285089 124 105 90
0.656951 -0.012614 0.152656 58 55 49
0.643012 0.008172 0.153186 61 58 50
0.694519 0.126830 0.162415 58 50 53
0.687972 0.160298 0.164038 59 52 55
0.819329 -0.034420 0.159970 48 47 43
0.798951 -0.031101 0.162548 58 43 49
0.514171 0.289981 0.134950 132 116 96
0.506105 0.304728 0.157309 134 108 99
0.863978 0.096875 0.160166 44 31 31
0.849560 0.104984 0.158128 45 44 54
0.750030 0.019359 0.159942 65 61 56
0.758563 0.009766 0.165643 62 59 55
0.748177 -0.004860 0.161066 65 62 56
0.742025 0.008230 0.158136 61 54 57
0.676250 0.095624 0.158024 57 49 50
0.685986 0.111249 0.158928 60 54 42
0.500562 0.294964 0.247485 181 151 126
0.496441 0.300919 0.233470 174 148 116
0.520349 0.298210 0.233055 142 117 106
0.524347 0.295550 0.245756 202 172 143
0.506918 0.305160 0.253867 169 132 123
0.514234 0.304674 0.230785 146 138 114
0.490796 0.305894 0.249026 176 150 133
0.512779 0.302388 0.251038 193 168 153
-0.862730 -0.020383 0.069880 237 216 213
-0.854483 0.033069 -0.062591 219 197 185
-0.852028 0.054230 -0.089056 209 184 177
-0.852051 0.050728 -0.058730 214 198 176
-0.865858 -0.093203 0.081468 235 210 191
-0.863311 0.054668 0.324593 254 246 233
-0.863943 0.034147 0.307124 253 246 230
-0.866671 -0.137667 0.066907 225 205 185
-0.861472 0.051049 0.188968 251 235 216
-0.862336 0.035622 0.197591 244 229 212
-0.856944 -0.035639 -0.065282 220 201 190
-0.859311 -0.027480 -0.016532 224 208 180
-0.859689 -0.057924 -0.019865 226 206 187
-0.856064 -0.014305 -0.059125 228 208 195
-0.863895 -0.023604 0.098468 238 219 199
-0.540113 -0.019599 -0.513768 120 110 103
-0.539725 -0.030046 -0.511526 182 174 164
-0.516266 -0.012300 -0.520906 69 54 49
-0.865080 -0.024241 0.226265 249 232 220
-0.862696 0.003785 0.149718 247 229 203
-0.861507 0.011727 0.153468 245 229 217
-0.852571 0.038861 -0.083972 211 185 168
-0.864702 -0.182440 0.167718 227 212 189
-0.865551 -0.123278 0.115468 227 216 198
-0.864675 -0.190171 0.147263 225 211 189
-0.866002 -0.178103 0.142966 233 212 201
-0.865703 -0.173362 0.162468 233 218 195
-0.862264 -0.045333 0.081968 231 219 202
-0.865051 -0.140340 0.222468 241 219 202
-0.865409 -0.173380 0.191468 238 219 196
-0.863441 -0.003182 0.174468 246 231 211
-0.862157 0.015775 0.194968 248 229 215
-0.864064 -0.001141 0.198468 246 233 211
-0.862922 -0.052512 0.192367 244 228 207
-0.864427 -0.050899 0.230656 249 230 217
-0.865045 -0.079226 0.213468 247 228 206
-0.857966 0.039193 0.089123 228 211 202
-0.859874 0.052741 0.110104 253 245 238
-0.864396 -0.109654 0.140136 237 217 209
-0.864046 -0.084046 0.143593 241 219 201
-0.531998 -0.060251 -0.528197 93 80 70
-0.866426 -0.161507 0.279864 246 231 211
-0.864990 -0.160722 0.266351 242 232 215
-0.865115 0.002931 0.237468 250 235 216
-0.859471 -0.028738 0.003995 227 212 192
-0.863401 -0.097039 0.041786 230 207 186
-0.861128 -0.054700 0.022012 221 210 192
-0.857049 -0.043540 -0.050534 215 200 171
-0.858936 -0.071780 -0.024598 222 208 185
-0.867000 -0.136903 0.094591 231 209 184
-0.866207 -0.168572 0.122718 229 208 191
-0.866964 -0.141225 0.115468 237 211 195
-0.863871 0.024301 0.319406 253 244 233
-0.864641 -0.009195 0.299826 251 243 227
-0.865183 -0.100758 0.226968 239 229 214
-0.865131 -0.119735 0.210468 243 227 211
-0.864530 -0.150226 0.202654 232 214 201
-0.866001 -0.146401 0.182694 242 216 209
-0.865240 -0.157197 0.176987 238 220 206
-0.854285 0.050809 -0.034251 222 205 185
-0.855343 0.015426 -0.059402 224 207 189
-0.854076 0.032011 -0.039526 221 205 193
-0.861474 0.026753 0.209468 250 235 223
-0.862919 -0.071364 0.081399 232 212 192
-0.864061 -0.025363 0.209781 246 230 222
-0.864600 -0.007119 0.217468 249 232 218
-0.865391 -0.132145 0.139027 235 219 199
-0.863814 -0.101352 0.155841 233 218 190
-0.865789 -0.122076 0.155907 235 214 191
-0.865777 -0.134107 0.177951 237 216 206
-0.863300 0.007879 0.214773 248 231 219
-0.865123 -0.114663 0.177718 243 224 196
-0.865418 -0.130777 0.303973 246 234 215
-0.864450 -0.017147 0.117468 243 224 210
-0.861160 0.020973 0.117781 245 222 205
-0.861617 0.027639 0.140718 245 222 205
-0.862297 0.001699 0.127468 243 224 207
-0.860432 0.005301 0.105462 248 231 221
-0.862406 -0.036588 0.048972 230 211 198
-0.854373 0.011301 -0.079687 208 185 169
-0.864771 -0.058454 0.267218 248 236 219
-0.866193 -0.074147 0.289468 249 235 220
-0.854917 0.023833 -0.012562 231 205 188
-0.853017 0.023407 -0.024243 231 208 185
-0.854115 0.042915 -0.023772 234 214 191
-0.854678 0.064730 -0.009725 210 193 171
-0.865695 -0.148430 0.277284 246 225 220
-0.864196 -0.162660 0.235212 244 220 212
-0.865124 -0.139813 0.248273 240 225 210
-0.865222 -0.160462 0.251905 246 225 213
-0.864474 -0.125086 0.233826 244 226 214
-0.866805 -0.056130 0.340381 252 242 230
-0.867319 -0.073242 0.337357 253 242 224
-0.865938 0.002458 0.313703 255 247 232
-0.866414 0.006986 0.351049 253 248 234
-0.862001 -0.119307 -0.003609 220 204 183
-0.862267 -0.133050 0.014136 222 205 184
-0.863471 -0.111838 0.022968 222 204 186
-0.863116 -0.133961 0.035684 222 201 181
-0.865428 -0.133930 0.282656 245 229 211
-0.865921 -0.109722 0.323187 248 236 222
-0.866153 -0.132211 0.319749 247 233 224
-0.866611 -0.139580 0.050362 226 206 197
-0.866284 -0.108759 0.061699 231 207 177
-0.865763 -0.111230 0.039686 228 206 197
-0.865112 0.003933 0.300468 253 241 229
-0.863138 0.017838 0.262468 251 236 228
-0.864787 0.000718 0.257750 252 238 221
-0.865108 -0.189428 0.187468 236 213 207
-0.863588 -0.177110 0.229261 244 220 205
-0.864664 -0.180689 0.202968 237 216 203
-0.864455 -0.187464 0.223968 233 223 201
-0.862224 0.043455 0.236468 250 239 225
-0.862349 0.024803 0.238718 250 238 226
-0.869196 -0.158021 0.081315 223 204 187
-0.865350 -0.029945 0.304104 252 242 228
-0.866464 -0.033555 0.324468 252 242 225
-0.860492 0.032210 0.104735 254 251 239
-0.861524 -0.039868 0.031968 235 211 204
-0.856797 -0.012461 0.002989 225 212 186
-0.864641 -0.175172 0.251860 232 215 206
-0.863229 -0.059300 0.075468 234 216 205
-0.863648 -0.071498 0.048013 232 211 197
-0.863812 -0.060626 0.055702 232 211 197
-0.863036 -0.012730 0.183822 244 229 202
-0.864889 -0.084112 0.232536 245 226 207
-0.865756 -0.086851 0.256566 248 231 216
-0.864685 -0.105103 0.277292 242 228 211
-0.865538 -0.072058 0.244718 247 232 219
-0.865805 -0.102112 0.243602 245 228 216
-0.865602 -0.093719 0.113593 233 216 201
-0.864362 -0.071005 0.105610 233 211 202
-0.864427 -0.101305 0.207468 244 223 210
-0.865759 -0.117254 0.283468 249 231 218
-0.857285 -0.066671 -0.055305 190 180 147
-0.855109 0.018082 0.001848 218 198 173
-0.855699 0.003452 -0.011353 227 206 185
-0.854601 0.040535 -0.002583 234 210 208
-0.865707 -0.010683 0.327718 254 245 232
-0.865706 -0.090582 0.284531 249 233 214
-0.855993 -0.014158 -0.078032 199 181 166
-0.862903 -0.090029 0.023676 226 204 184
-0.865478 -0.113263 0.083468 223 218 188
-0.862826 0.036855 0.271468 251 242 227
-0.863442 0.024056 0.287843 251 243 219
-0.862384 0.043515 0.291335 253 245 229
-0.866696 -0.062247 0.315021 251 240 222
-0.864131 -0.107437 0.299397 248 235 219
-0.866124 -0.096192 0.307968 249 237 223
-0.866648 -0.080255 0.307093 250 240 217
-0.864830 -0.082245 0.168468 236 224 203
-0.864340 -0.072981 0.194635 244 227 201
-0.863822 -0.035908 0.175593 244 223 208
-0.864512 -0.057358 0.170309 241 225 206
-0.542296 -0.057605 -0.525792 115 99 89
-0.550982 -0.035227 -0.517067 220 205 199
-0.540694 -0.045622 -0.516507 174 158 138
-0.520098 -0.041058 -0.513851 217 208 198
-0.528808 -0.028677 -0.513733 191 184 169
-0.544560 0.003445 -0.525647 38 38 27
-0.534857 -0.000606 -0.522296 44 43 28
-0.520236 0.026807 -0.538823 27 29 32
-0.862177 -0.093187 -0.008641 218 205 181
-0.863784 -0.009674 0.155468 243 226 210
-0.863586 -0.026651 0.138968 242 227 206
-0.863674 -0.041239 0.148468 244 225 198
-0.861201 -0.058422 0.007468 223 205 183
-0.861547 0.019911 0.079175 221 205 189
-0.861141 -0.001319 0.087468 219 200 185
-0.863845 -0.017184 0.097468 227 216 194
-0.858733 -0.089035 -0.038456 218 202 177
-0.866446 -0.152277 0.137468 237 214 197
-0.865757 -0.149377 0.159905 225 218 193
-0.864810 -0.039104 0.274374 252 237 225
-0.865668 -0.013262 0.277014 251 237 224
-0.861110 0.041509 0.127968 239 226 213
-0.860787 0.045914 0.164936 247 228 206
-0.863135 -0.034314 0.121338 243 220 198
-0.863511 -0.069695 0.141273 237 217 201
-0.864399 -0.060937 0.119317 234 220 201
-0.856779 0.048507 0.064968 235 216 210
-0.856760 0.033317 0.049980 221 211 203
-0.856289 0.027816 0.031178 219 213 202
-0.857790 -0.001023 0.015468 230 211 184
-0.857381 0.019575 0.026189 223 208 188
-0.865884 -0.100966 0.331593 251 238 225
-0.853105 0.009052 -0.032050 224 205 190
-0.856669 -0.009717 -0.029842 226 206 180
-0.853112 0.011220 -0.042383 223 205 195
-0.865130 -0.114537 0.253968 244 226 207
-0.865485 -0.050396 0.289468 251 239 226
-0.867071 -0.064153 0.306962 251 240 222
-0.858388 0.007099 0.041452 233 211 197
-0.859385 0.013109 0.048801 219 203 182
-0.860769 -0.015869 0.035497 225 211 192
-0.861082 -0.001323 0.069093 230 211 191
-0.866852 -0.073136 0.359541 252 243 229
-0.867328 -0.054040 0.363468 251 244 231
-0.863699 0.024922 0.385568 254 251 239
-0.863385 0.042211 0.362843 254 252 239
-0.862283 0.065219 0.399718 255 252 241
-0.863681 0.046891 0.393673 254 252 240
-0.866307 -0.032813 0.343468 254 246 235
-0.866868 -0.028838 0.369533 253 248 228
-0.865612 -0.022388 0.388925 253 249 236
-0.867354 -0.080929 0.358468 250 241 228
-0.865693 0.005203 0.391775 255 251 241
-0.866004 -0.010540 0.353468 252 248 235
-0.864550 0.020930 0.365968 253 250 237
0.428253 -0.064681 0.143292 105 97 95
0.417157 -0.067907 0.144245 107 90 95
0.297996 -0.207097 -0.473131 98 82 52
-0.334015 -0.206400 -0.108532 124 100 82
-0.220064 -0.210670 0.043468 120 110 67
-0.260391 -0.210712 0.054968 127 107 80
0.326859 -0.216368 -0.252032 110 91 64
0.346691 -0.215627 -0.282532 108 91 64
-0.002753 -0.212219 -0.135532 131 96 84
0.020226 -0.213260 -0.143532 120 95 74
-0.455739 -0.195315 -0.348367 120 100 74
-0.435279 -0.164146 0.062817 135 108 83
0.106181 -0.167724 -0.531989 84 71 25
-0.337559 -0.117550 0.150687 254 255 255
-0.469786 -0.023187 0.140801 254 255 253
-0.457982 -0.039571 0.155516 255 251 235
-0.476058 -0.015576 0.143287 255 248 230
-0.474286 -0.016190 0.147349 251 241 225
-0.467720 -0.030781 0.151510 224 211 190
0.368021 -0.227754 0.011720 87 82 54
0.383191 -0.224582 0.006197 92 74 46
0.369845 -0.230498 0.024911 109 84 72
0.388227 -0.221747 0.019160 94 72 43
0.144278 -0.212117 -0.272282 105 95 65
0.014741 -0.204664 -0.316532 116 95 66
0.048167 -0.206898 -0.334407 106 91 74
-0.460844 -0.208284 0.035931 167 152 140
-0.424531 -0.212074 0.080468 133 110 91
-0.426391 -0.209722 0.032468 133 103 89
-0.448665 -0.213528 0.066968 135 119 115
-0.446564 -0.211505 0.030333 125 111 82
-0.144136 -0.214180 0.097468 126 103 84
-0.159370 -0.195198 -0.468686 109 86 63
-0.180805 -0.193831 -0.467659 104 90 58
-0.225890 -0.211750 0.071718 125 106 80
-0.291297 -0.200036 -0.314719 126 94 70
0.163084 -0.052067 0.152760 255 251 254
0.167078 -0.076857 0.152070 255 253 251
-0.348990 -0.203470 -0.177782 122 99 90
-0.468615 -0.177060 -0.158011 128 106 80
-0.478035 -0.185426 -0.142716 131 107 92
-0.034594 -0.210694 -0.151032 117 95 72
0.163605 -0.213487 -0.248782 113 94 61
0.059679 -0.205001 -0.393907 116 90 64
0.032866 -0.203175 -0.417532 106 92 66
0.032870 -0.203100 -0.390532 108 87 79
-0.003040 -0.200529 -0.394532 103 88 71
-0.100059 -0.283090 -0.593052 73 62 36
-0.099610 -0.255264 -0.590161 83 57 44
0.277343 -0.229092 0.067110 116 100 78
-0.277980 -0.207532 -0.090532 109 113 73
-0.285979 -0.207263 -0.070532 126 103 95
0.144633 -0.210410 -0.346532 116 91 67
-0.432506 -0.113598 -0.540142 118 98 64
-0.439854 -0.117779 -0.567198 112 89 56
-0.444538 -0.131103 -0.556316 96 81 56
-0.435891 -0.118947 -0.560103 111 87 51
-0.450965 -0.115577 -0.573944 110 94 63
0.407925 -0.107344 0.143804 140 125 110
0.392873 -0.093393 0.155331 255 251 244
0.394971 -0.119964 0.152104 201 178 162
0.374245 -0.095307 0.156469 255 255 252
-0.135865 -0.040044 0.152038 254 255 255
0.401157 -0.211685 -0.368695 109 86 62
0.132819 -0.217228 -0.132657 120 94 71
0.116124 -0.217452 -0.109219 124 91 84
0.229486 -0.227690 0.088468 113 101 70
0.213973 -0.227437 0.103468 119 96 83
0.087940 -0.203637 0.142056 243 229 212
-0.466392 -0.177567 -0.490416 120 95 68
-0.474857 -0.177286 -0.482523 114 99 72
-0.461048 -0.170932 -0.479363 123 102 77
-0.268731 -0.203943 -0.159263 125 98 88
-0.253785 -0.205079 -0.166532 120 101 80
-0.048024 -0.166811 -0.526603 98 72 65
0.009494 -0.208557 -0.256532 126 93 82
0.010935 -0.209559 -0.237782 111 97 82
0.031034 -0.212655 -0.217344 125 97 82
0.248997 -0.330624 -0.586594 80 59 42
-0.004552 -0.314398 -0.595768 78 66 45
-0.033440 -0.290809 -0.593543 79 58 42
-0.432434 -0.039894 -0.451282 128 113 91
0.090153 -0.216608 -0.115532 127 96 77
-0.063812 -0.211318 -0.136532 121 88 68
0.127653 -0.209562 -0.346532 102 92 59
0.110715 -0.208028 -0.350532 114 89 64
0.161970 -0.209502 -0.357563 107 91 68
0.147749 -0.208595 -0.382532 99 88 57
0.076572 -0.256373 -0.587803 71 54 31
0.110356 -0.237317 -0.584779 61 53 32
0.104263 -0.262573 -0.588144 71 62 40
0.242595 -0.205828 -0.473532 102 81 65
0.238101 -0.197179 -0.491425 103 83 57
0.203093 -0.188275 -0.501841 101 85 58
0.086299 -0.335263 -0.593460 71 64 42
0.106061 -0.218587 0.127468 128 99 85
0.049952 -0.215145 0.126756 121 99 84
0.072551 -0.219011 0.111047 116 103 66
-0.024678 -0.349673 -0.596487 78 62 38
-0.013565 -0.371358 -0.600265 78 70 38
0.006210 -0.361341 -0.598356 77 65 51
