ply
format ascii 1.0
element vertex 1223
property float x
property float y
property float z
property uchar red
property uchar green
property uchar blue
end_header
0.394731 -0.522084 0.721245 135 88 53
0.425796 -0.531208 0.741286 133 91 57
0.405847 -0.521439 0.741416 132 90 51
0.418874 -0.519885 0.740127 136 94 60
0.420146 -0.513449 0.722574 134 91 57
0.396125 -0.513349 0.722833 134 89 47
0.411057 -0.514149 0.721555 134 92 46
0.413198 -0.511450 0.723542 135 90 50
0.397815 -0.542125 0.733074 133 92 49
0.421863 -0.534593 0.729284 136 91 56
0.404315 -0.520921 0.727825 134 90 50
-0.104105 -0.455430 0.741668 65 32 12
-0.097984 -0.461233 0.746755 75 41 15
0.467206 -0.633118 0.736200 138 95 56
0.458354 -0.637969 0.738085 129 91 51
0.473617 -0.611164 0.716849 130 87 54
0.465811 -0.613005 0.735976 133 92 55
0.456245 -0.594924 0.736334 140 99 58
0.471331 -0.610362 0.728514 162 120 78
0.460563 -0.612684 0.727590 149 106 67
0.472252 -0.624510 0.726042 131 89 47
-0.476867 -0.412389 0.420988 160 99 54
-0.499023 -0.412612 0.440488 158 99 44
-0.492132 -0.412405 0.466738 159 98 49
-0.465029 -0.412706 0.444488 159 97 45
-0.197404 -0.454282 0.589626 142 92 54
-0.192807 -0.482112 0.584241 123 83 51
-0.195907 -0.469324 0.595694 148 95 52
-0.196877 -0.446011 0.610738 147 93 52
-0.190377 -0.461117 0.583336 99 66 49
0.424276 -0.634488 0.736659 145 104 62
0.447970 -0.672687 0.724232 131 86 52
0.424629 -0.654922 0.718728 127 85 51
0.449853 -0.639046 0.717485 130 85 48
0.426273 -0.636115 0.729037 129 88 52
0.440397 -0.652378 0.737793 107 72 42
0.447989 -0.661522 0.738972 110 73 45
0.423985 -0.660654 0.739994 111 75 47
0.431052 -0.660071 0.741515 127 89 54
0.437799 -0.663765 0.719339 129 85 48
0.441274 -0.639249 0.724271 130 86 49
0.431852 -0.636799 0.740681 129 87 57
0.439768 -0.632174 0.737339 137 96 58
-0.047179 -0.748195 0.517678 151 135 119
-0.034166 -0.747298 0.497235 149 133 117
-0.038062 -0.742998 0.494047 155 141 126
-0.027917 -0.748775 0.502709 156 138 117
-0.049900 -0.742635 0.511405 135 120 106
-0.004037 -0.661689 0.349274 65 62 56
-0.002229 -0.667852 0.392746 69 65 57
-0.011201 -0.668600 0.365329 68 66 58
-0.004683 -0.665119 0.374890 112 109 99
0.051534 -0.632524 0.724774 111 73 40
0.072565 -0.623420 0.738641 141 99 57
0.080678 -0.622631 0.737161 140 99 63
0.082247 -0.604182 0.737153 136 95 57
0.086301 -0.598508 0.724024 112 73 39
0.080789 -0.594171 0.740819 120 80 46
0.083790 -0.429104 1.030635 252 174 74
0.126401 -0.425144 0.762738 243 162 68
0.119883 -0.425412 0.787738 239 160 62
-0.119364 -0.699533 0.534299 68 60 45
-0.120707 -0.703945 0.526512 67 58 46
-0.114895 -0.696242 0.527821 56 50 39
-0.221057 -0.428061 1.013238 200 130 60
0.323973 -0.427801 0.824738 255 253 193
-0.157139 -0.413851 0.929480 131 86 47
-0.156031 -0.415790 0.941098 131 85 49
-0.331521 -0.424836 0.959738 183 114 53
-0.328275 -0.424992 0.939738 188 118 62
0.429213 -0.427594 0.742238 252 191 102
0.417962 -0.429644 0.753471 254 203 112
0.418224 -0.429334 0.765164 190 127 75
-0.009968 -0.424906 0.804738 230 151 61
0.007661 -0.425177 0.818262 234 155 51
0.232490 -0.444261 0.711526 163 105 52
0.257064 -0.448023 0.711501 185 118 54
0.258515 -0.460966 0.714580 130 83 45
-0.456081 -0.417749 0.681738 174 109 54
-0.434784 -0.417761 0.692738 170 107 49
0.292805 -0.736882 0.738943 147 102 67
0.314462 -0.726187 0.739248 129 88 46
0.316002 -0.726831 0.714404 110 64 31
0.295158 -0.734458 0.735289 159 115 78
0.319061 -0.724095 0.735021 137 96 58
0.338622 -0.676234 0.741058 140 97 59
0.354013 -0.667239 0.740318 140 97 57
0.326105 -0.667011 0.741297 141 98 59
0.346433 -0.683593 0.722731 126 85 49
0.329246 -0.671946 0.720839 125 82 54
0.333696 -0.662752 0.728827 131 86 53
0.315095 -0.666079 0.729151 128 88 50
0.332009 -0.691949 0.727186 131 87 59
0.341821 -0.685253 0.727800 136 90 65
0.349567 -0.678407 0.727315 141 95 58
0.335735 -0.685621 0.722858 124 84 52
-0.476255 -0.415570 0.604238 161 100 57
-0.324589 -0.415082 0.508738 198 145 102
0.443912 -0.427533 0.749804 253 205 108
0.426543 -0.427897 0.765025 254 205 121
-0.085697 -0.447724 0.460374 31 22 14
-0.052050 -0.487776 0.471126 51 47 48
-0.071597 -0.472050 0.465833 31 24 20
-0.059997 -0.485765 0.477833 35 27 27
-0.059689 -0.476408 0.468214 35 30 31
-0.212237 -0.420913 0.750738 198 128 62
-0.191604 -0.422050 0.748448 196 124 66
-0.191216 -0.423386 0.727624 190 121 61
-0.184758 -0.436025 0.718899 102 62 41
-0.193732 -0.434323 0.712241 102 63 39
-0.189847 -0.426984 0.720724 147 92 53
-0.204657 -0.421633 0.716537 191 123 64
-0.196240 -0.426112 0.712919 154 95 53
-0.071099 -0.426574 0.941488 227 143 66
-0.051235 -0.426544 0.943661 223 140 66
-0.057168 -0.426346 0.962805 219 139 58
0.250644 -0.428001 0.828863 255 193 94
0.258861 -0.428956 0.872425 253 201 114
0.153505 -0.751904 0.595051 175 146 119
0.123726 -0.751948 0.601846 172 144 114
0.385930 -0.430147 0.778738 252 181 92
0.378014 -0.428039 0.730238 254 176 89
0.391371 -0.428745 0.754988 254 188 96
-0.049235 -0.473170 0.432959 37 34 27
-0.038584 -0.470563 0.419391 47 42 38
-0.036338 -0.471965 0.434503 78 76 74
-0.045760 -0.479477 0.451113 77 76 81
0.004818 -0.606986 0.361329 63 58 53
0.005165 -0.602407 0.379508 50 47 42
0.004023 -0.595404 0.366730 46 41 38
0.005033 -0.596832 0.387268 47 42 41
0.296318 -0.751721 0.600113 184 158 130
0.460575 -0.690668 0.745225 130 91 50
0.188492 -0.612306 0.742113 147 106 60
0.166356 -0.599000 0.722505 121 77 44
0.191933 -0.575971 0.722572 122 79 43
0.175401 -0.610266 0.738742 151 109 70
0.188459 -0.614258 0.735142 147 104 67
0.191738 -0.606152 0.737183 153 113 78
0.185218 -0.590492 0.739319 154 112 79
0.178577 -0.562795 0.743738 132 88 53
0.193989 -0.562793 0.743176 133 89 50
0.083596 -0.743469 0.710525 101 61 23
0.057991 -0.743342 0.711269 110 69 39
0.072104 -0.722181 0.720526 108 67 38
0.069914 -0.715506 0.739108 135 95 64
0.073984 -0.714964 0.743579 137 97 66
0.008999 -0.617588 0.396771 66 63 55
0.009745 -0.596862 0.418639 66 63 58
0.009305 -0.594927 0.406680 60 53 50
-0.001024 -0.534164 0.739894 119 76 47
-0.018785 -0.517824 0.730485 98 62 37
-0.011271 -0.515497 0.735318 125 81 48
0.006400 -0.526306 0.736047 124 83 42
-0.116968 -0.750143 0.569530 112 95 77
-0.119901 -0.743383 0.552688 105 90 72
-0.100011 -0.747907 0.551014 107 93 76
-0.030530 -0.752569 0.625738 144 120 91
-0.009355 -0.753323 0.659051 142 117 94
0.450214 -0.750342 0.529267 209 187 156
0.421997 -0.750349 0.518988 211 189 164
0.436236 -0.750921 0.547363 208 183 156
-0.101329 -0.752140 0.607738 144 123 103
-0.091543 -0.751521 0.587238 141 120 100
-0.071263 -0.751278 0.593488 148 126 101
-0.061494 -0.751685 0.611174 144 122 99
-0.337840 -0.421723 0.795033 193 128 72
-0.365068 -0.420880 0.776613 189 122 60
-0.014990 -0.480014 0.726625 116 76 42
-0.010015 -0.468775 0.726313 114 76 40
-0.004357 -0.463588 0.722149 115 76 42
-0.012725 -0.448756 0.717406 113 75 38
0.002914 -0.464875 0.727057 149 98 45
-0.018147 -0.463832 0.722789 119 78 47
-0.266284 -0.416844 0.584945 193 125 66
0.455381 -0.753553 0.625114 187 161 133
0.483897 -0.754431 0.631227 188 162 136
-0.312022 -0.413819 0.444363 179 115 60
-0.111455 -0.586974 0.729724 73 36 8
-0.101516 -0.575013 0.730384 74 38 10
0.411483 -0.750438 0.519238 224 203 179
0.392228 -0.750188 0.511061 232 213 189
0.398715 -0.749154 0.486051 232 213 190
-0.198001 -0.697139 0.718028 72 37 8
-0.195466 -0.704287 0.724768 68 34 11
-0.189544 -0.674018 0.730575 69 34 9
0.161115 -0.663652 0.732586 137 96 62
0.137043 -0.646246 0.734613 133 92 53
0.148823 -0.643621 0.733753 141 98 57
0.155948 -0.682125 0.723267 117 76 39
0.133610 -0.664413 0.722103 116 73 45
0.152079 -0.665993 0.722091 114 74 47
0.151890 -0.678165 0.731247 121 79 43
0.167788 -0.676869 0.730616 141 99 60
0.051184 -0.529300 0.727476 106 65 40
0.066839 -0.535898 0.737971 116 76 43
0.058200 -0.541856 0.738323 134 90 53
0.047005 -0.540929 0.739727 130 85 47
0.047434 -0.548765 0.726523 109 69 37
0.079015 -0.536131 0.726144 111 68 36
0.377238 -0.540994 0.740367 132 90 55
0.391240 -0.570847 0.731668 138 93 57
0.379215 -0.559354 0.734229 137 91 55
0.370126 -0.554136 0.740189 141 97 60
0.388604 -0.573529 0.738820 139 96 58
0.388174 -0.551729 0.731469 133 90 44
0.360618 -0.529932 0.721076 132 88 52
0.355571 -0.531623 0.732454 135 86 52
0.378208 -0.545097 0.733198 134 90 49
-0.376517 -0.412288 0.390238 168 105 51
-0.398059 -0.412785 0.398738 170 108 55
-0.161260 -0.410403 0.911530 134 88 45
0.054743 -0.427206 0.877123 253 175 60
0.047735 -0.427240 0.898738 252 176 59
0.077713 -0.428378 0.911738 254 178 63
-0.154566 -0.413905 0.900752 156 99 47
-0.153523 -0.422207 0.925568 174 109 51
-0.183183 -0.420772 0.902038 128 82 53
-0.080504 -0.429904 1.030488 214 135 56
-0.088290 -0.429923 1.037731 210 131 60
0.424710 -0.699682 0.744097 125 85 50
0.454500 -0.676438 0.719155 126 81 49
0.452327 -0.690749 0.722618 128 82 52
0.465123 -0.669625 0.741085 139 96 54
0.473477 -0.657773 0.739469 141 95 59
0.456851 -0.657111 0.741444 109 75 44
0.461798 -0.693073 0.722929 136 91 58
0.479659 -0.698014 0.723048 137 95 55
0.473211 -0.685043 0.724487 134 91 55
0.469742 -0.674349 0.724079 133 89 54
0.473110 -0.693182 0.742767 141 97 58
0.459365 -0.696050 0.718492 121 77 41
-0.328663 -0.416673 0.621488 228 189 154
-0.328087 -0.414950 0.594738 226 184 152
0.136941 -0.745420 0.468488 244 224 215
0.149457 -0.746604 0.478064 241 219 207
-0.092374 -0.426665 0.941488 222 142 61
-0.107563 -0.427607 0.942899 221 142 62
-0.093978 -0.426905 0.960897 223 143 64
-0.022555 -0.747404 0.480568 199 185 169
-0.010258 -0.747466 0.469719 209 195 180
0.319543 -0.744367 0.435961 247 234 217
0.304008 -0.745135 0.444075 252 241 230
0.289801 -0.745634 0.432488 244 228 221
-0.201227 -0.654832 0.588488 85 53 25
-0.200083 -0.628545 0.600738 94 54 16
-0.118730 -0.531239 0.394405 37 30 28
-0.118620 -0.519764 0.392316 38 32 26
-0.100925 -0.515781 0.396610 39 32 27
-0.090483 -0.524130 0.398364 38 35 33
0.145613 -0.741682 0.393969 246 227 221
0.140173 -0.740174 0.367738 253 237 227
0.185878 -0.429101 0.866824 252 175 69
0.158644 -0.431733 0.966488 254 186 77
0.166661 -0.431510 0.980238 254 187 79
0.149633 -0.431791 0.982738 253 185 75
0.171284 -0.431660 1.004301 255 188 77
0.004301 -0.633672 0.746275 107 69 40
0.024034 -0.619573 0.744936 108 72 42
0.045692 -0.633585 0.744337 120 84 52
0.016308 -0.644393 0.745398 112 72 43
0.031061 -0.637210 0.746037 116 76 43
-0.009386 -0.569868 0.749762 102 64 36
0.004285 -0.571232 0.746658 106 65 42
0.000454 -0.563115 0.748948 101 66 36
0.000927 -0.564402 0.742754 115 78 55
-0.014327 -0.558993 0.750790 97 59 32
-0.031198 -0.553751 0.750899 101 63 33
-0.026171 -0.723271 0.412154 96 92 82
-0.026446 -0.732964 0.403847 155 148 135
-0.022744 -0.737729 0.406851 152 145 132
0.046849 -0.471910 0.738874 135 81 37
0.071646 -0.466801 0.722425 177 117 53
0.054614 -0.465563 0.722672 119 82 47
0.071527 -0.465497 0.731531 128 80 37
0.044360 -0.461423 0.732561 127 77 38
0.063594 -0.466233 0.736308 132 81 37
0.055903 -0.461433 0.729478 233 149 56
-0.196635 -0.471546 0.612123 138 89 44
-0.196729 -0.504698 0.639738 140 85 47
0.388612 -0.427941 0.715320 253 181 98
0.416530 -0.429223 0.714331 234 162 87
0.427899 -0.426908 0.717251 253 193 100
0.416017 -0.428791 0.735738 246 174 91
-0.353913 -0.423313 0.889676 194 131 71
-0.043672 -0.635442 0.466746 90 82 73
-0.049352 -0.621462 0.475392 87 77 65
-0.047441 -0.636351 0.475679 95 86 75
-0.040408 -0.617180 0.465875 74 67 54
0.345738 -0.428460 0.714995 222 149 74
0.358139 -0.427431 0.717472 225 151 71
0.336891 -0.426900 0.719715 250 170 71
0.357974 -0.428530 0.737738 253 177 81
-0.274644 -0.422234 0.812237 217 153 91
-0.268722 -0.422218 0.840613 220 154 91
-0.044645 -0.599021 0.743026 110 80 53
-0.050562 -0.590070 0.743015 108 79 46
-0.035366 -0.589377 0.745831 108 75 49
-0.042133 -0.588063 0.742523 110 77 52
0.165223 -0.753524 0.664156 158 127 102
0.181243 -0.753780 0.654291 158 125 99
0.200511 -0.755125 0.662058 157 128 99
-0.179363 -0.697306 0.732709 70 35 10
0.418865 -0.432338 0.880238 255 254 252
0.429955 -0.430529 0.885738 255 254 252
0.405914 -0.430946 0.882738 255 254 252
-0.137597 -0.429212 0.453604 56 47 49
-0.138109 -0.423693 0.438668 52 43 37
-0.122866 -0.445979 0.452277 40 35 27
-0.119898 -0.439682 0.426607 29 23 19
-0.133735 -0.430558 0.442438 30 22 19
-0.128136 -0.439167 0.439920 37 26 19
0.115382 -0.650600 0.742314 128 85 57
0.119667 -0.622261 0.738464 144 105 73
0.109182 -0.626572 0.736793 137 95 59
0.115523 -0.654176 0.722307 116 75 44
0.093489 -0.633095 0.722322 111 71 43
0.105689 -0.611902 0.723356 116 74 44
0.126021 -0.617258 0.722965 117 75 43
0.102211 -0.648962 0.736688 146 104 70
0.117811 -0.634506 0.738058 143 104 69
0.109421 -0.638060 0.739644 138 97 63
0.111233 -0.611952 0.741114 137 94 65
0.120643 -0.628935 0.740084 140 98 65
-0.278622 -0.419696 0.730488 198 128 64
-0.191130 -0.522662 0.767546 84 43 22
-0.186655 -0.504817 0.760629 79 41 20
-0.190195 -0.516777 0.761302 80 43 22
-0.192046 -0.538950 0.764469 81 40 23
-0.188407 -0.524712 0.762014 81 43 18
-0.183270 -0.549630 0.748196 87 50 28
-0.192242 -0.539520 0.751181 87 50 28
-0.186363 -0.538245 0.770090 80 42 21
-0.194007 -0.528097 0.749344 88 50 27
-0.442075 -0.417693 0.668488 167 104 55
-0.409109 -0.416553 0.646488 166 106 54
-0.414535 -0.417598 0.676238 169 105 55
-0.199778 -0.720446 0.567844 67 48 31
-0.203015 -0.709528 0.570123 63 46 24
-0.200573 -0.708724 0.580962 72 46 26
0.005183 -0.571680 0.401309 150 135 114
0.006599 -0.545981 0.420738 166 146 123
0.006324 -0.566988 0.419057 167 147 124
0.004818 -0.550161 0.393383 163 140 119
0.005938 -0.504663 0.416738 48 44 47
0.003151 -0.476711 0.400018 51 47 46
0.079407 -0.751482 0.613189 163 135 108
0.069595 -0.751889 0.635066 160 131 107
0.085523 -0.752590 0.631310 159 129 102
-0.090247 -0.668593 0.753082 87 56 29
-0.085096 -0.658102 0.752722 96 60 43
-0.072362 -0.668658 0.748992 98 61 36
-0.086314 -0.648083 0.742887 99 68 50
-0.081071 -0.647812 0.751416 89 56 34
0.217601 -0.567081 0.743104 133 90 54
0.018797 -0.751869 0.620613 160 134 109
-0.198940 -0.423677 0.516704 132 79 46
-0.206095 -0.417805 0.536738 184 119 61
-0.201571 -0.419705 0.585710 163 100 58
-0.206109 -0.418125 0.574238 195 128 68
-0.198148 -0.425936 0.560738 129 76 47
-0.196062 -0.439197 0.544033 108 69 43
-0.201910 -0.419763 0.564351 182 118 60
-0.196965 -0.439550 0.561890 114 72 48
-0.112698 -0.754631 0.666738 132 108 86
-0.128652 -0.753223 0.662738 133 108 85
-0.091140 -0.753758 0.665738 134 108 90
0.098741 -0.429658 0.937488 253 174 59
0.087847 -0.429705 0.956526 254 177 72
0.115396 -0.430749 0.956988 253 175 68
0.475730 -0.430948 0.903710 255 254 254
-0.199657 -0.654151 0.630957 91 53 18
0.264853 -0.753733 0.637979 168 139 111
-0.127959 -0.421847 0.401217 52 42 42
-0.143991 -0.418790 0.395177 56 51 53
-0.128564 -0.429035 0.400801 28 23 13
-0.137604 -0.420366 0.415508 56 49 54
-0.133464 -0.443729 0.408230 23 20 16
-0.132255 -0.438538 0.393697 22 19 15
-0.126709 -0.425788 0.409471 24 20 15
-0.121654 -0.441913 0.418868 22 17 14
-0.127211 -0.427622 0.424643 37 28 24
-0.001350 -0.428120 0.970738 243 158 74
0.023689 -0.428478 0.971542 243 158 70
0.076808 -0.747150 0.458738 249 231 211
0.077156 -0.747789 0.492051 234 214 194
-0.024299 -0.510120 0.454210 39 34 30
-0.276120 -0.416838 0.573238 210 157 106
-0.318561 -0.414570 0.566738 235 203 176
-0.334212 -0.413394 0.436363 184 117 55
0.105219 -0.696319 0.746193 124 84 53
0.127997 -0.684908 0.744362 126 85 54
0.108421 -0.709738 0.743121 117 78 44
0.119052 -0.696964 0.744664 122 81 45
-0.262314 -0.410542 0.497813 160 106 56
0.039776 -0.559755 0.748636 107 68 41
0.007911 -0.551702 0.748487 97 60 37
0.023740 -0.559957 0.748369 102 63 39
0.020524 -0.569894 0.746777 119 78 56
0.028785 -0.570733 0.746509 122 80 57
0.181632 -0.432508 0.990738 255 195 80
0.237798 -0.429931 0.870738 254 183 82
0.023474 -0.625095 0.725303 106 67 38
0.012898 -0.598905 0.737877 120 82 47
0.031189 -0.595056 0.742733 126 89 63
0.008531 -0.590020 0.741804 123 80 51
0.025715 -0.591993 0.741373 127 88 55
-0.242257 -0.420731 0.755863 207 139 68
0.277312 -0.694263 0.743242 134 91 55
0.271109 -0.717012 0.742059 133 90 51
0.313260 -0.429587 0.928863 255 251 216
0.320986 -0.429817 0.908238 254 253 254
0.336714 -0.429736 0.932863 255 253 208
0.208881 -0.539799 0.722798 128 81 48
0.229612 -0.557921 0.738582 157 117 78
0.213052 -0.550031 0.734782 144 104 68
0.231949 -0.548374 0.736499 158 113 81
0.203068 -0.539539 0.735822 132 89 53
0.229198 -0.533756 0.733523 127 83 42
0.200178 -0.520972 0.731832 125 82 41
0.209567 -0.524060 0.723559 125 80 48
0.400870 -0.747566 0.397969 253 245 230
0.355823 -0.747161 0.387988 254 240 226
0.378992 -0.725449 0.358866 209 194 181
0.365621 -0.745872 0.362051 249 234 218
-0.303788 -0.416512 0.604301 184 115 56
0.196955 -0.425451 0.745738 250 167 60
0.198870 -0.426724 0.778426 251 169 63
0.202225 -0.464039 0.727475 217 149 69
0.222559 -0.463852 0.728323 233 160 75
0.213766 -0.465679 0.718632 129 83 49
0.212881 -0.464966 0.725039 158 109 65
0.445370 -0.753771 0.648238 171 144 117
0.433635 -0.754287 0.665390 165 136 111
0.297016 -0.747095 0.491871 239 221 206
0.316978 -0.748044 0.497839 225 203 181
0.309620 -0.750436 0.513222 209 184 160
-0.037313 -0.556960 0.453808 44 37 37
-0.053588 -0.542974 0.478911 37 33 29
-0.051762 -0.565263 0.474158 39 35 22
-0.046756 -0.554851 0.462589 37 33 25
-0.041859 -0.582252 0.456167 43 39 36
0.339468 -0.747530 0.416621 255 251 232
0.332832 -0.746658 0.390949 255 249 233
0.322118 -0.742861 0.405605 254 245 232
0.328751 -0.746061 0.423631 254 245 233
-0.108252 -0.683383 0.739033 80 57 38
-0.094444 -0.672908 0.738272 82 54 34
-0.108850 -0.686163 0.731814 96 65 40
-0.115876 -0.694684 0.741470 96 67 50
-0.107738 -0.693796 0.735879 110 77 48
-0.335310 -0.425565 0.981613 178 113 54
-0.310300 -0.425960 0.986363 183 115 57
-0.003253 -0.425850 0.844488 234 151 71
0.018522 -0.425756 0.871738 234 153 64
-0.425140 -0.414050 0.536738 228 194 165
0.021396 -0.747740 0.496982 194 173 157
-0.164251 -0.428443 0.983484 202 127 58
-0.161255 -0.425951 0.966779 206 131 58
-0.181920 -0.425889 0.964885 207 132 58
-0.155508 -0.429727 1.005520 206 130 56
-0.186360 -0.746579 0.601562 112 88 60
-0.193577 -0.731955 0.624738 102 69 26
-0.176127 -0.749632 0.585658 138 117 93
-0.179737 -0.750016 0.606980 140 118 95
0.344180 -0.563748 0.732838 137 92 55
0.361018 -0.548154 0.734586 136 93 53
0.320534 -0.552431 0.720873 130 86 46
0.344902 -0.564200 0.719998 131 84 49
0.342178 -0.542318 0.733501 136 88 50
0.336005 -0.570406 0.741849 140 96 56
0.345783 -0.552566 0.740285 140 96 58
0.359169 -0.546514 0.740998 141 98 59
0.042879 -0.750521 0.600551 169 140 115
-0.177393 -0.435392 0.516801 60 52 53
-0.159894 -0.440287 0.551975 61 51 53
-0.180818 -0.441276 0.541662 57 48 56
0.463454 -0.703976 0.743142 136 95 58
0.001968 -0.634219 0.362008 65 59 54
0.001097 -0.630568 0.368296 66 60 57
0.001050 -0.641472 0.369897 66 64 54
-0.062542 -0.425446 0.828863 220 140 62
-0.046337 -0.425406 0.820269 219 138 68
0.318489 -0.450473 0.711061 146 94 48
0.319912 -0.431657 0.710332 156 100 48
-0.233952 -0.413335 0.455278 142 93 49
-0.239041 -0.410976 0.444800 137 88 48
-0.232302 -0.413804 0.500785 138 88 49
-0.235116 -0.414019 0.476907 129 84 49
-0.220984 -0.414918 0.488738 166 105 48
0.438383 -0.461741 0.710830 136 91 51
0.386627 -0.451116 0.709762 135 90 53
0.432023 -0.453830 0.709075 135 91 52
0.410467 -0.449713 0.709905 132 89 50
0.417625 -0.437893 0.708912 131 86 52
-0.137955 -0.751155 0.710389 90 63 40
-0.153991 -0.744484 0.715882 79 46 22
0.218030 -0.753752 0.638988 168 137 109
0.245210 -0.753068 0.634738 169 137 114
0.001925 -0.619499 0.462805 69 64 60
-0.017554 -0.621818 0.469521 98 93 83
-0.004797 -0.636258 0.464370 98 94 84
-0.003125 -0.610566 0.470176 92 82 69
-0.012227 -0.613794 0.473512 107 97 92
0.004612 -0.467195 0.419623 49 48 44
-0.001205 -0.461717 0.417078 48 49 43
-0.000155 -0.471310 0.392810 53 50 46
0.004529 -0.470453 0.409332 48 49 45
-0.016633 -0.470617 0.408553 52 47 42
-0.000162 -0.463320 0.403727 56 52 49
-0.212063 -0.416943 0.538738 191 125 62
0.355337 -0.751463 0.566656 202 177 150
0.368947 -0.750345 0.544738 203 178 152
0.366265 -0.751503 0.578661 203 178 150
-0.144275 -0.750460 0.588070 139 117 97
-0.152835 -0.751153 0.605863 138 117 95
-0.122618 -0.752562 0.621738 142 119 94
0.137828 -0.427068 0.820738 250 170 61
0.118802 -0.427242 0.831738 251 174 65
0.094705 -0.428936 0.915238 252 174 61
0.003548 -0.472022 0.428558 43 43 43
-0.011240 -0.493251 0.448042 37 35 29
0.000789 -0.501205 0.441453 41 35 32
-0.005470 -0.483582 0.444435 37 36 31
0.273917 -0.743223 0.367488 255 246 238
0.273474 -0.743701 0.397238 255 245 236
-0.013265 -0.712089 0.747766 105 68 39
-0.275658 -0.411982 0.373238 173 107 55
-0.272321 -0.412498 0.382926 178 111 57
-0.022144 -0.424674 0.733475 203 126 55
-0.041730 -0.423716 0.738450 202 126 59
-0.035814 -0.444827 0.716598 110 60 17
-0.054509 -0.443068 0.717939 90 53 31
-0.028568 -0.429410 0.718416 100 56 26
-0.047659 -0.431393 0.719271 156 93 56
-0.031928 -0.426578 0.723255 197 124 62
-0.316059 -0.414561 0.474738 182 114 58
-0.300041 -0.414504 0.482738 179 111 60
-0.338454 -0.414537 0.486738 180 112 54
-0.336243 -0.414059 0.462238 184 116 60
-0.302045 -0.414565 0.466738 177 110 61
-0.050245 -0.751325 0.571988 153 130 105
-0.051733 -0.749976 0.530320 154 133 112
0.291808 -0.526847 0.741271 129 86 49
0.275925 -0.522214 0.741596 126 86 51
0.289972 -0.504643 0.726783 128 81 46
0.282426 -0.524863 0.722776 128 82 42
0.276670 -0.509351 0.724423 125 82 43
0.287278 -0.508836 0.724619 128 82 43
0.289938 -0.513715 0.728094 130 89 49
-0.273560 -0.409610 0.481249 135 86 50
-0.241766 -0.401887 0.448539 114 76 47
-0.246060 -0.398344 0.453497 121 80 50
-0.250958 -0.401247 0.477332 123 83 48
0.360969 -0.428703 0.758988 253 175 86
0.441352 -0.697814 0.723895 131 84 56
0.425229 -0.686381 0.723356 129 86 45
0.433927 -0.693808 0.719355 126 81 51
0.443650 -0.686169 0.720061 128 85 47
0.421947 -0.659912 0.725800 128 86 52
0.431424 -0.664208 0.724812 129 85 50
0.419518 -0.676922 0.741240 111 76 49
0.436617 -0.671023 0.739668 105 72 41
0.437718 -0.688365 0.741586 126 84 52
0.430679 -0.687434 0.742733 136 92 57
0.428344 -0.674100 0.719934 128 85 50
0.255955 -0.700444 0.730095 121 81 49
0.268727 -0.703113 0.728440 121 81 44
0.283125 -0.704425 0.728599 126 83 50
0.265105 -0.696408 0.721854 115 73 40
0.291374 -0.722268 0.730516 124 83 47
0.280753 -0.715552 0.731145 152 110 80
-0.202953 -0.428949 1.022238 199 125 52
-0.186352 -0.429018 1.014231 199 124 55
0.432839 -0.726914 0.366426 143 132 119
0.408393 -0.699260 0.366613 142 127 115
0.433568 -0.695341 0.365526 147 135 120
0.414209 -0.709157 0.366669 156 142 129
0.451593 -0.727681 0.359083 152 140 125
0.165104 -0.744749 0.419989 254 243 231
0.178360 -0.746561 0.407807 248 230 223
0.173500 -0.744614 0.383575 248 230 220
-0.029905 -0.723645 0.722137 90 50 21
-0.050631 -0.703616 0.737536 118 84 53
-0.052674 -0.719329 0.724817 91 57 26
-0.189640 -0.477313 0.746840 91 49 23
-0.355266 -0.418462 0.678738 186 120 59
-0.354468 -0.418828 0.709926 185 118 60
0.194331 -0.513438 0.724948 123 78 41
0.180341 -0.504983 0.726054 127 78 43
0.185017 -0.508475 0.726996 130 87 51
0.195540 -0.514553 0.728489 123 79 46
0.488924 -0.427890 0.711183 236 170 95
0.469149 -0.426861 0.723875 255 197 103
0.467434 -0.427510 0.756051 255 201 103
0.247609 -0.571470 0.739132 134 91 60
0.254796 -0.581086 0.735296 151 109 70
0.236635 -0.575435 0.739092 159 115 80
0.239008 -0.566844 0.739099 157 114 78
0.257325 -0.571889 0.735663 158 114 82
0.248278 -0.567268 0.739108 158 114 81
-0.182452 -0.529500 0.744250 90 53 31
-0.154805 -0.531487 0.742843 85 44 18
-0.151176 -0.627177 0.729828 74 37 9
-0.000829 -0.748601 0.500238 192 170 152
0.399854 -0.753145 0.641738 181 155 127
0.390123 -0.752505 0.620238 195 170 144
0.199447 -0.427117 0.803488 250 172 63
0.228623 -0.428024 0.815176 252 178 74
0.223325 -0.428990 0.848738 253 173 71
0.150593 -0.503315 0.726283 119 78 43
0.159011 -0.530118 0.733819 125 79 45
0.150659 -0.510895 0.728460 132 86 49
0.163655 -0.502981 0.726178 127 80 45
0.168691 -0.516436 0.728232 124 80 44
-0.184504 -0.421324 0.927857 129 84 49
-0.200412 -0.425184 0.918738 134 89 48
-0.210461 -0.426087 0.918738 159 106 57
-0.201225 -0.425756 0.936488 152 101 58
0.011232 -0.426501 0.889988 241 157 65
0.219723 -0.752226 0.584738 184 154 126
0.242241 -0.752306 0.576738 186 160 132
0.231083 -0.752815 0.614363 180 151 123
0.238734 -0.752087 0.602134 179 151 123
0.255741 -0.752590 0.601738 179 151 124
0.010377 -0.514149 0.734807 125 82 47
0.000776 -0.516772 0.731149 108 70 36
-0.020898 -0.507634 0.730705 106 64 34
-0.017795 -0.518230 0.738326 129 84 43
0.318506 -0.623363 0.739943 132 91 53
0.320260 -0.646595 0.718200 122 80 51
0.304904 -0.658371 0.730552 128 88 51
0.296438 -0.647145 0.729937 129 81 48
0.317815 -0.614444 0.729912 129 84 46
0.309093 -0.638235 0.731398 147 102 74
0.292789 -0.752306 0.628238 178 150 124
0.315777 -0.753069 0.616738 181 154 127
0.311759 -0.753407 0.646738 172 144 120
-0.131429 -0.614593 0.389390 44 37 33
-0.127510 -0.629857 0.375048 50 49 46
-0.135148 -0.618489 0.375181 42 41 36
-0.128248 -0.621739 0.359939 43 42 36
-0.122164 -0.622468 0.364256 44 41 34
-0.174680 -0.428255 1.021821 201 124 64
-0.242739 -0.402307 0.478169 126 80 48
-0.088865 -0.426535 0.894488 220 143 60
0.076921 -0.745493 0.397515 246 228 210
-0.507838 -0.411052 0.380613 167 105 55
-0.479059 -0.411021 0.378738 160 102 49
0.348477 -0.428237 0.803988 254 222 153
0.340959 -0.428486 0.835738 255 252 217
-0.195553 -0.723529 0.702933 80 43 9
-0.197758 -0.710020 0.713219 77 40 13
-0.196752 -0.719276 0.685738 88 48 13
-0.365572 -0.413797 0.503238 211 163 126
-0.358582 -0.414169 0.474113 207 156 113
0.289346 -0.442512 0.710334 155 101 55
0.265280 -0.751935 0.604360 184 157 131
0.271759 -0.752519 0.584738 189 158 137
-0.107597 -0.740514 0.546152 86 74 61
-0.104816 -0.734718 0.538462 90 80 62
-0.131295 -0.736977 0.538520 76 68 51
0.026094 -0.514272 0.730828 105 65 38
0.010891 -0.514443 0.730430 100 65 35
0.013302 -0.536088 0.740482 124 87 49
0.022104 -0.538596 0.738358 126 88 48
0.028820 -0.543991 0.741529 127 86 51
0.040980 -0.547318 0.739814 127 85 53
0.028402 -0.529664 0.736615 107 69 36
0.030035 -0.521086 0.735721 117 76 47
0.047919 -0.522106 0.735294 126 86 52
0.003828 -0.424146 0.740738 226 143 47
0.002361 -0.443499 0.715374 134 80 25
0.026820 -0.448950 0.716956 134 82 25
-0.019909 -0.436975 0.715868 156 91 21
0.006786 -0.430584 0.716002 169 103 22
-0.002138 -0.425534 0.718431 183 109 38
0.007604 -0.424183 0.723228 145 85 30
-0.014339 -0.424263 0.729011 224 141 48
-0.275779 -0.424454 0.910238 201 132 62
-0.153347 -0.429168 1.027754 207 126 63
0.389209 -0.436448 0.708792 132 85 50
0.379036 -0.430433 0.935238 254 225 139
0.386675 -0.430275 0.947863 252 228 139
-0.118940 -0.615050 0.729844 78 42 11
-0.084796 -0.601448 0.728539 86 49 24
-0.104972 -0.649997 0.728828 87 56 26
0.097647 -0.428424 1.004951 255 178 72
0.064585 -0.429283 1.025150 253 179 69
0.106983 -0.428627 1.025797 254 181 71
-0.390157 -0.415211 0.610738 238 210 185
-0.373831 -0.415260 0.619426 241 216 193
-0.385410 -0.415370 0.634488 234 204 178
-0.097701 -0.694400 0.730985 94 62 35
-0.080047 -0.701356 0.736024 112 76 43
-0.068067 -0.697555 0.736985 114 80 48
-0.094209 -0.668459 0.729054 91 58 33
-0.068282 -0.690482 0.730482 91 61 35
-0.080076 -0.667308 0.728936 91 61 32
-0.077131 -0.706212 0.729264 86 57 26
-0.077379 -0.681523 0.735496 113 78 51
-0.074343 -0.669238 0.737150 115 80 50
-0.196571 -0.723038 0.640988 98 56 21
-0.199066 -0.708411 0.666738 82 43 21
-0.194598 -0.728379 0.674738 98 55 24
0.093228 -0.600723 0.743917 122 81 52
0.084574 -0.589921 0.743969 121 79 48
0.086173 -0.623876 0.743153 121 79 48
0.079956 -0.605747 0.742326 121 81 51
0.099060 -0.608682 0.742719 122 82 45
0.414932 -0.751689 0.576238 206 181 153
0.394889 -0.751084 0.556359 205 180 156
0.409294 -0.750353 0.538917 208 184 158
0.042056 -0.651999 0.744908 116 77 46
0.062247 -0.637563 0.743026 119 80 43
-0.195944 -0.536012 0.710988 96 59 34
-0.195668 -0.522386 0.716738 94 58 38
-0.194726 -0.541188 0.726886 91 58 36
-0.192798 -0.543256 0.731548 92 57 35
-0.193297 -0.508665 0.730109 90 54 40
-0.188689 -0.508763 0.737339 89 53 29
-0.186377 -0.519253 0.738163 90 55 38
0.203120 -0.637003 0.738324 155 114 76
0.213193 -0.656190 0.740141 134 91 53
0.206495 -0.641860 0.719902 121 77 47
0.220465 -0.636998 0.739569 136 95 54
0.202120 -0.635238 0.734877 138 97 59
0.223666 -0.640141 0.732866 141 97 63
0.218026 -0.625431 0.735045 133 90 54
0.209340 -0.624780 0.734960 149 108 68
-0.456860 -0.418393 0.722488 175 112 53
-0.420110 -0.419194 0.740613 174 110 52
-0.196817 -0.501428 0.578427 110 74 50
-0.197493 -0.524371 0.582702 107 72 46
-0.198349 -0.542038 0.599738 138 87 44
-0.248899 -0.422057 0.815676 221 154 88
-0.229282 -0.421586 0.804738 219 150 85
0.029003 -0.747415 0.430834 239 222 205
0.018876 -0.747711 0.465279 234 219 203
0.000224 -0.747410 0.436863 227 214 199
0.018643 -0.746807 0.430613 236 220 203
0.331761 -0.638820 0.718371 123 82 43
0.350327 -0.645785 0.739154 140 97 60
0.315160 -0.637929 0.740845 141 97 58
0.343351 -0.622499 0.739573 141 96 60
0.323176 -0.642526 0.728951 132 91 52
0.347614 -0.644532 0.728249 161 116 77
0.314401 -0.751117 0.702655 150 119 95
0.325146 -0.744382 0.707108 141 109 82
0.308736 -0.753939 0.697449 161 131 104
0.148356 -0.452895 0.714039 149 99 48
0.148995 -0.435149 0.712320 174 114 47
0.159647 -0.433847 0.712866 174 115 50
0.318729 -0.427545 0.784738 254 195 87
0.281690 -0.754334 0.662738 162 135 105
0.268146 -0.753245 0.659698 167 137 110
0.293704 -0.753785 0.671653 160 130 105
0.416994 -0.465230 0.725987 246 176 95
0.416332 -0.469525 0.715238 134 88 52
0.429296 -0.465895 0.718553 137 88 50
0.401508 -0.468293 0.715600 132 90 50
0.416694 -0.461505 0.712354 133 90 50
0.393086 -0.467024 0.730512 140 93 56
-0.101465 -0.033091 -0.899012 130 84 52
-0.286501 0.180599 -0.629170 154 98 38
-0.287859 0.184526 -0.633602 148 102 49
-0.285739 0.179460 -0.663637 148 89 33
0.048505 -0.042019 -1.033345 123 88 56
0.046889 -0.046255 -1.028548 156 108 61
0.040972 -0.037998 -1.028068 136 99 61
0.378995 -0.038759 -0.812262 162 111 55
0.080919 -0.034003 -0.918262 157 107 62
0.090349 -0.037245 -0.744887 139 87 49
0.260865 -0.039166 -0.744262 146 94 43
0.269847 -0.039780 -0.746262 147 92 50
0.242284 -0.039196 -0.732574 147 94 45
-0.034587 -0.035033 -1.019367 111 92 62
-0.249880 0.322533 -0.642137 219 208 194
-0.180038 -0.029690 -1.001446 112 79 52
-0.165730 -0.028802 -0.991938 120 84 51
-0.184322 -0.043111 -1.012691 128 89 56
-0.189079 -0.031875 -1.011438 116 81 52
-0.397818 0.196693 -0.718762 67 49 20
0.166238 -0.037152 -0.797887 140 91 49
-0.123220 -0.034163 -0.829325 109 57 18
-0.145266 -0.033297 -0.853262 112 55 12
0.466478 -0.041055 -0.681262 168 104 54
-0.238783 -0.034520 -0.674262 124 60 15
-0.262115 -0.033030 -0.705512 127 62 18
-0.167027 -0.035940 -0.715512 120 62 15
-0.316170 0.196157 -0.743762 88 61 34
-0.325409 0.196592 -0.724262 82 58 27
-0.328344 0.198147 -0.825762 86 62 30
0.062677 -0.038153 -1.024631 126 97 60
0.329431 -0.039852 -0.812106 166 105 48
-0.146194 -0.031629 -0.888012 105 57 15
-0.258906 0.283234 -0.878972 169 148 126
-0.268117 0.275386 -0.871877 127 119 98
-0.261299 0.279338 -0.869283 125 112 92
-0.224907 -0.034791 -0.707262 121 60 21
-0.263875 0.270915 -0.828014 117 109 89
-0.260676 0.271319 -0.801726 113 104 83
-0.274318 0.268017 -0.830674 117 109 90
-0.269283 0.268352 -0.796484 116 107 88
-0.253145 0.276020 -0.810960 113 104 84
-0.250835 0.299893 -0.789352 207 196 175
-0.107734 -0.031573 -0.946762 139 91 55
-0.115045 -0.032475 -0.916137 139 92 55
0.010806 -0.035052 -0.763262 132 87 41
0.228858 -0.038635 -0.789262 154 103 48
0.437484 -0.039666 -0.780887 156 96 50
-0.052258 -0.032291 -0.928512 149 99 62
0.092341 -0.032919 -0.988460 166 111 63
0.081202 -0.033252 -0.958637 162 109 63
-0.249306 0.338710 -0.708449 220 206 195
0.252367 -0.038937 -0.767762 145 92 47
-0.101334 -0.031880 -1.003829 120 86 50
-0.134233 -0.033775 -1.015566 113 85 55
-0.119745 -0.032514 -1.009114 121 87 51
-0.104203 -0.035312 -1.015685 123 85 50
-0.167718 -0.031726 -0.878887 114 60 20
-0.381218 0.199324 -0.857762 76 55 33
-0.383370 0.198752 -0.828262 71 53 26
-0.421852 0.200013 -0.842762 66 49 28
0.055754 -0.035140 -1.017077 140 101 55
0.077433 -0.035455 -1.016374 144 103 62
0.087032 -0.036212 -1.017090 146 101 57
0.069228 -0.033097 -0.988757 172 116 63
0.081343 -0.032302 -1.000850 165 107 63
0.099400 -0.032675 -1.001253 167 108 60
-0.092498 -0.040611 -1.027481 134 100 59
-0.077933 -0.040345 -1.028882 134 99 60
-0.073173 -0.044081 -1.031178 135 101 61
-0.068836 -0.037125 -1.023601 113 87 57
-0.088261 -0.035443 -1.020725 104 85 52
-0.287400 0.110467 -0.796194 148 90 31
-0.287441 0.082943 -0.798262 146 87 29
-0.181866 -0.034802 -0.752012 121 63 20
-0.023247 -0.039669 -1.032890 116 92 58
-0.008401 -0.041313 -1.031845 125 94 58
0.176937 -0.039266 -0.693543 133 79 45
0.170011 -0.039815 -0.668824 129 80 43
-0.287665 0.080700 -0.911762 147 88 32
-0.124136 -0.030791 -0.960262 131 86 55
-0.240645 0.528625 -0.670025 182 172 160
-0.239429 0.543036 -0.646012 183 174 159
-0.241998 0.512273 -0.668830 180 172 156
-0.015982 -0.033196 -0.912168 152 107 58
-0.024759 -0.032910 -0.900324 151 103 64
-0.252768 0.332141 -0.841731 204 193 174
-0.251547 0.339121 -0.829262 206 193 176
0.097887 -0.035097 -0.832262 151 100 52
-0.103929 -0.037937 -0.658887 132 70 14
-0.288172 -0.011615 -0.681262 139 72 15
0.499969 -0.042000 -0.653512 166 105 54
-0.135745 -0.037334 -0.683075 121 61 13
0.195488 -0.035068 -0.956573 161 102 44
0.252576 -0.037006 -0.889137 170 110 50
0.220990 -0.036875 -0.875606 168 106 52
-0.274130 -0.027373 -0.934762 123 65 20
-0.273699 -0.026102 -0.982193 123 66 20
0.233689 -0.039728 -0.710887 146 93 44
-0.285356 0.114882 -0.658887 147 83 28
-0.286564 0.116437 -0.627262 146 85 28
-0.131438 -0.037560 -0.661262 125 65 14
-0.125557 -0.038341 -0.633684 126 65 19
-0.288534 0.029440 -0.859262 142 79 23
-0.289954 0.035063 -0.835180 139 82 20
-0.288700 0.015271 -0.834032 139 78 22
-0.192251 -0.041414 -1.017554 125 92 61
-0.167466 -0.042377 -1.018962 121 90 55
-0.191195 -0.035708 -1.018313 114 85 54
-0.162248 -0.037368 -1.019273 112 83 52
-0.286743 0.164490 -0.940762 145 91 33
-0.245498 0.464476 -0.739449 222 210 194
-0.238354 -0.027529 -0.986326 103 58 20
-0.285907 -0.023726 -0.873262 130 66 16
0.237634 -0.041095 -0.644262 144 94 44
0.004668 -0.038079 -0.659262 129 69 21
-0.285778 0.138423 -0.704262 151 91 37
-0.285718 0.124407 -0.696012 149 90 32
-0.092727 -0.035002 -0.782450 127 70 14
-0.288098 0.064704 -0.964512 138 86 27
0.289981 -0.037148 -0.883262 160 101 50
0.325119 -0.037618 -0.901512 160 101 40
-0.288233 -0.019620 -0.790262 131 69 19
0.200836 -0.038510 -0.760137 144 90 45
0.169346 -0.037595 -0.770262 144 93 47
-0.322515 0.199850 -0.898762 92 66 34
-0.325667 0.199297 -0.868699 86 62 30
-0.349801 0.199618 -0.889512 81 60 25
-0.288013 -0.017585 -0.870635 130 68 14
-0.271721 0.262072 -0.647584 61 50 35
-0.286788 0.115360 -0.838762 146 89 31
-0.042264 -0.035510 -0.728512 126 67 12
-0.026225 -0.035252 -0.724762 130 72 15
-0.468473 0.201120 -0.825637 61 43 27
-0.453221 0.200838 -0.838512 61 43 18
-0.288873 0.031206 -0.775137 142 79 21
-0.288086 0.018410 -0.778512 142 78 25
-0.056548 -0.033102 -0.837449 138 89 49
-0.245778 0.415692 -0.670762 205 195 180
-0.246326 0.426727 -0.690262 218 208 195
-0.246288 0.407957 -0.688262 223 208 197
-0.274512 0.262661 -0.698914 63 54 36
0.117355 -0.039119 -0.664512 135 80 38
0.439061 -0.038550 -0.825012 160 101 57
-0.287781 0.003507 -0.698262 137 71 18
-0.287193 -0.023712 -0.682663 137 74 21
0.223338 -0.038971 -0.747887 141 90 50
-0.283925 0.263376 -0.746314 99 88 67
0.100980 -0.033032 -0.965262 166 109 64
0.120218 -0.033726 -0.954512 164 106 66
0.451114 -0.037597 -0.845262 155 96 50
0.468117 -0.037911 -0.847387 162 105 49
-0.287591 0.046164 -0.724012 145 82 25
-0.287533 0.053794 -0.698233 143 81 23
-0.285935 0.164455 -0.815762 147 88 33
-0.285054 0.157410 -0.791762 147 88 29
0.388879 -0.041633 -0.716262 144 89 36
0.362858 -0.041549 -0.721262 150 95 41
-0.292006 0.192746 -0.836262 116 80 39
-0.287262 0.184532 -0.791262 160 107 48
-0.289212 0.188621 -0.794262 113 76 36
-0.061419 -0.035777 -0.703074 119 62 14
0.346248 -0.037984 -0.873825 176 121 60
0.327954 -0.038586 -0.861762 169 110 43
-0.330854 0.197976 -0.804262 89 64 30
0.488531 -0.040316 -0.723762 167 107 57
-0.483988 0.198248 -0.652762 70 47 31
0.105744 -0.032756 -0.996456 160 105 61
0.169817 -0.035419 -0.916949 159 103 56
0.183975 -0.034956 -0.934012 156 99 53
0.170084 -0.034909 -0.949343 160 102 59
-0.251847 0.327123 -0.813262 216 201 185
-0.443562 0.198535 -0.763637 62 43 26
-0.466274 0.199909 -0.782903 61 45 28
0.278939 -0.037865 -0.848262 163 103 41
0.289045 -0.038525 -0.818137 161 102 48
-0.289068 0.261279 -0.656764 53 43 35
-0.284831 0.260539 -0.668896 65 52 43
-0.285916 0.259810 -0.626451 54 46 28
-0.283026 -0.023630 -0.977296 125 72 22
-0.251906 -0.028605 -0.997565 108 63 22
-0.264541 -0.037529 -1.013659 100 67 36
-0.288340 -0.024521 -0.999832 119 70 30
-0.274932 -0.031697 -1.010174 87 57 24
-0.254580 -0.033200 -1.011324 89 57 24
-0.276521 -0.027847 -1.002019 98 61 21
0.432897 -0.042176 -0.642762 136 82 39
0.428410 -0.041791 -0.672262 142 86 44
0.347467 -0.038705 -0.841012 167 108 47
-0.288527 0.042201 -0.877762 137 77 23
-0.288110 0.016409 -0.875262 138 77 21
-0.284635 0.260883 -0.686476 97 82 66
0.012911 -0.032704 -0.967140 150 104 62
0.014971 -0.031360 -0.983262 148 101 62
-0.058073 -0.033792 -0.796012 121 64 23
-0.286603 0.118690 -0.765762 142 86 35
-0.285110 0.131888 -0.741512 149 89 39
0.408547 -0.042455 -0.656199 133 82 34
0.407332 -0.042103 -0.683762 148 93 43
-0.252534 -0.038613 -1.013689 97 66 32
-0.233258 -0.033982 -1.016000 99 70 41
-0.216262 -0.035852 -1.017269 102 73 43
-0.264643 -0.033616 -0.663637 124 63 19
0.142954 -0.034542 -0.939186 160 107 61
0.151498 -0.033717 -0.952762 160 103 61
-0.289551 -0.007948 -0.743447 136 72 20
-0.288335 0.015167 -0.754137 138 73 20
0.214786 -0.034234 -0.973887 164 103 47
-0.232911 -0.034713 -0.686262 121 61 19
-0.452761 0.201330 -0.859824 59 44 24
-0.242493 0.490620 -0.652262 182 171 160
-0.285356 0.171561 -0.682949 152 95 42
-0.286560 0.184501 -0.681762 158 105 52
-0.290053 0.188657 -0.671262 125 85 42
-0.297721 0.192354 -0.681512 118 79 41
-0.248571 0.356007 -0.659262 221 207 195
-0.247453 0.376791 -0.704595 221 209 192
-0.246979 0.384840 -0.665199 222 208 195
0.457147 -0.036976 -0.897762 155 97 50
0.493156 -0.037562 -0.872762 159 101 50
0.297936 -0.038335 -0.858262 163 104 43
0.031878 -0.033862 -0.901512 156 109 63
-0.289071 -0.005070 -0.828262 134 69 26
0.162313 -0.034739 -1.016495 142 92 42
0.104789 -0.034627 -0.896950 155 105 56
0.100392 -0.035053 -0.867262 156 105 58
-0.069307 -0.035910 -0.673262 119 60 14
-0.072342 -0.036639 -0.631512 116 60 13
-0.284774 0.150976 -0.714042 155 96 43
0.116673 -0.037548 -0.736324 139 86 46
0.150389 -0.039067 -0.701574 138 89 41
-0.450508 0.197050 -0.667762 68 47 23
-0.007313 -0.034525 -0.809012 133 87 47
-0.012210 -0.034916 -0.778262 131 84 39
-0.288507 0.059247 -0.843604 147 83 35
-0.288274 0.041440 -0.794762 141 78 23
-0.288058 0.057195 -0.803762 144 84 29
0.270902 -0.038526 -0.802262 154 98 44
-0.287918 -0.018005 -0.927414 122 67 18
-0.284092 -0.023548 -0.931513 125 67 12
0.347088 -0.035944 -0.943262 157 104 48
0.327277 -0.036886 -0.916762 162 105 45
0.142835 -0.037272 -0.803262 145 95 53
-0.244364 0.517884 -0.685884 184 174 157
0.205744 -0.040724 -0.651262 141 89 41
-0.437505 0.196837 -0.721512 62 46 24
-0.413539 0.196263 -0.707949 68 50 27
0.303817 -0.041207 -0.708262 145 91 44
0.309347 -0.040637 -0.730137 148 93 38
-0.183707 -0.036836 -0.633887 120 59 20
-0.170237 -0.036597 -0.663606 117 60 20
-0.088182 -0.032236 -0.927546 135 87 53
-0.093142 -0.031589 -0.961262 133 87 54
-0.212425 -0.026741 -0.978887 94 54 22
-0.200119 -0.028748 -0.960262 107 66 45
-0.226100 -0.027731 -0.969762 97 52 25
-0.319984 0.194766 -0.653762 83 54 29
-0.319835 0.195311 -0.692137 87 58 30
-0.288343 -0.000004 -0.976513 126 69 24
-0.288462 0.009417 -0.955387 123 71 21
-0.288111 -0.018306 -0.977995 126 68 16
-0.288821 -0.006207 -0.946262 123 68 21
-0.286373 0.141452 -0.897012 153 89 40
0.396926 -0.040730 -0.762012 153 99 49
0.193856 -0.037908 -0.786262 144 93 49
0.202271 -0.036836 -0.822262 146 94 43
0.376934 -0.040117 -0.768262 136 90 44
0.366950 -0.039520 -0.801262 142 90 41
-0.271235 -0.029846 -0.801762 125 63 22
-0.286478 -0.024207 -0.794774 130 65 13
-0.011565 -0.033759 -0.849137 145 98 58
0.291540 -0.040127 -0.753668 155 99 49
0.082784 -0.037128 -0.733262 137 86 46
0.093384 -0.037935 -0.712637 139 87 46
-0.215381 -0.034415 -0.736449 122 62 10
-0.165886 -0.036320 -0.688106 121 62 11
0.070375 -0.034767 -0.842699 156 104 56
-0.288563 -0.008837 -0.886262 136 74 23
-0.288551 -0.001964 -0.856887 131 69 21
0.485099 -0.040143 -0.749074 167 107 47
0.512197 -0.039887 -0.766262 155 98 47
0.501581 -0.039459 -0.775262 165 105 48
-0.287581 0.082449 -0.973262 141 85 31
-0.014249 -0.037217 -0.665324 127 68 15
0.007704 -0.037337 -0.673762 131 73 20
-0.288129 -0.023728 -0.743886 131 70 20
-0.219188 -0.029897 -0.906262 123 64 17
-0.247524 -0.028392 -0.951762 121 62 24
-0.288663 0.060475 -0.919262 144 88 29
-0.288105 0.045561 -0.898137 142 85 24
0.077638 -0.034628 -0.887887 162 112 64
0.444183 -0.041607 -0.658887 156 97 38
0.475932 -0.042320 -0.638262 155 94 43
-0.285778 0.027589 -0.645591 144 80 25
-0.231434 -0.032403 -0.791512 122 63 17
0.421175 -0.041274 -0.733512 156 99 44
0.417999 -0.041683 -0.703137 155 95 46
0.433944 -0.041117 -0.707762 155 95 49
-0.250622 0.330072 -0.785762 217 204 182
-0.250705 0.313059 -0.783262 217 203 190
-0.240864 -0.033465 -0.739762 126 66 19
0.014595 -0.034246 -0.846762 154 101 56
-0.244165 0.425211 -0.653366 191 181 166
-0.244634 0.454179 -0.649012 183 172 160
-0.244825 0.426260 -0.638368 182 174 158
-0.291862 0.002530 -0.996242 123 68 26
-0.293763 -0.016609 -1.001576 119 67 25
-0.027115 -0.034875 -0.763501 127 70 17
0.138560 -0.034896 -0.903262 157 105 56
-0.286489 0.085404 -0.722262 144 83 28
-0.285995 0.122167 -0.721262 145 86 28
-0.287051 0.076420 -0.718262 147 86 24
0.042682 -0.030390 -0.993370 153 103 67
0.057584 -0.031963 -0.984877 154 103 69
0.046991 -0.032516 -0.970115 160 109 62
0.033005 -0.032434 -0.962512 150 103 65
-0.250937 0.271608 -0.669063 143 131 113
-0.249668 0.297249 -0.666762 213 198 184
-0.273665 0.262381 -0.667891 60 52 39
0.129592 -0.031331 -0.997294 144 94 37
0.161191 -0.030556 -1.003884 154 97 46
0.142735 -0.032985 -1.008000 132 81 37
0.151460 -0.036759 -1.018073 138 85 36
-0.284914 0.151898 -0.740762 161 105 40
-0.285518 0.155303 -0.728762 157 99 42
0.251757 -0.033967 -0.992032 172 110 49
0.235059 -0.034159 -0.962375 175 114 53
-0.426029 0.196056 -0.654762 74 51 34
-0.128984 -0.035789 -0.745887 121 62 12
-0.040289 -0.036126 -0.680262 130 68 19
-0.142352 -0.035334 -0.767262 121 60 10
-0.111936 -0.035075 -0.791387 126 69 12
0.164273 -0.032980 -0.964661 160 101 53
0.136364 -0.032152 -0.979262 155 99 57
0.145059 -0.032192 -0.989262 157 99 49
-0.263764 -0.030676 -0.806512 129 68 13
-0.202955 -0.032104 -0.831449 130 69 16
0.252821 -0.040000 -0.698762 143 90 41
0.355314 -0.042390 -0.648012 140 85 41
0.375817 -0.042070 -0.662840 138 84 39
0.352946 -0.042181 -0.629387 141 86 47
-0.301882 0.196903 -0.854012 95 64 37
-0.288246 0.188578 -0.829262 156 107 51
-0.306898 0.196447 -0.809512 91 60 30
-0.286417 0.174485 -0.846262 150 92 37
-0.286513 0.182497 -0.835762 150 95 38
-0.290748 0.192692 -0.884262 127 88 42
-0.250539 0.328630 -0.734012 216 205 188
-0.248962 0.302433 -0.698927 217 201 187
-0.249919 0.319555 -0.698515 216 201 187
-0.250049 0.296564 -0.711298 215 199 186
0.087551 -0.033987 -0.932574 159 109 66
0.056558 -0.033148 -0.943887 160 109 66
0.243362 -0.035989 -0.925699 170 103 50
0.241973 -0.036277 -0.908512 167 102 46
0.076823 -0.036102 -0.797262 152 104 52
0.361092 -0.036137 -0.934262 103 58 32
0.376874 -0.035763 -0.944012 179 118 57
0.032646 -0.034910 -0.822824 147 99 61
-0.255934 0.303664 -0.869463 200 187 168
-0.255399 0.303752 -0.860291 178 165 145
-0.245792 0.398114 -0.646699 222 209 197
0.294250 -0.039663 -0.783262 153 97 50
0.318852 -0.040729 -0.765262 152 97 43
-0.211674 -0.035470 -0.670887 121 60 19
-0.247523 0.448908 -0.700009 187 174 164
-0.244753 0.496323 -0.690751 184 171 161
-0.243145 0.484893 -0.671262 180 173 158
-0.246121 0.467006 -0.686262 179 171 156
-0.288132 0.028468 -0.805754 142 81 21
-0.287352 0.018019 -0.809186 141 81 25
-0.188866 -0.030357 -0.924543 100 56 19
0.147563 -0.037872 -0.738512 138 86 39
0.046982 -0.035387 -0.788356 148 100 53
0.066791 -0.036632 -0.757262 147 98 55
0.038732 -0.035953 -0.755168 139 91 46
0.459036 -0.039558 -0.779262 162 104 49
0.450017 -0.039793 -0.755762 165 104 57
-0.287958 0.035796 -0.689762 143 79 20
-0.244060 0.472922 -0.656262 180 173 159
0.316285 -0.037541 -0.881012 162 102 47
0.263492 -0.039180 -0.783637 154 100 48
-0.246196 0.439984 -0.748262 219 208 192
-0.245914 0.426959 -0.750262 219 209 193
-0.277823 0.266231 -0.791464 117 109 84
-0.288273 0.267337 -0.799053 112 103 82
-0.002976 -0.029661 -0.990766 134 97 62
-0.024201 -0.030935 -0.998633 120 91 54
-0.031541 -0.030604 -0.993935 146 99 58
-0.249260 0.351971 -0.750324 217 203 193
-0.250788 0.325075 -0.756262 216 206 187
-0.254253 0.275209 -0.786621 112 103 81
-0.257397 0.271584 -0.779952 113 103 82
-0.274928 0.266408 -0.774674 109 100 77
-0.253486 0.284027 -0.788902 207 196 175
-0.439650 0.199303 -0.795146 60 42 22
-0.287583 0.032901 -0.729262 141 80 20
-0.285150 0.134892 -0.659262 152 91 40
-0.284932 0.149897 -0.641262 149 88 34
-0.289169 0.188619 -0.736762 154 108 52
-0.286462 0.184497 -0.753262 155 103 50
-0.296713 0.193023 -0.738012 126 89 45
-0.307975 0.194710 -0.697762 88 60 34
-0.285401 0.170437 -0.716262 148 95 40
-0.285386 0.180446 -0.706262 150 96 45
-0.289093 0.188615 -0.697262 154 107 54
-0.296382 0.192668 -0.701262 127 88 47
-0.045422 -0.033493 -1.016160 122 90 56
-0.054004 -0.037472 -1.027370 114 86 55
-0.058272 -0.044436 -1.033245 118 90 59
-0.042034 -0.042554 -1.028426 126 93 58
-0.034798 -0.039726 -1.032169 124 96 59
-0.286855 0.106440 -0.697262 148 88 28
-0.287792 0.094844 -0.781762 142 84 22
-0.288553 0.067226 -0.783762 146 86 28
0.119774 -0.038179 -0.709762 134 84 45
-0.411443 0.197890 -0.754262 64 46 27
-0.286389 0.146708 -0.936262 147 90 33
-0.285955 0.158450 -0.932262 149 91 29
0.034898 -0.033479 -0.918512 151 104 61
0.030992 -0.033398 -0.941481 150 104 67
-0.232019 -0.041067 -1.019395 114 85 52
-0.249933 0.350186 -0.805074 216 202 186
-0.248396 0.369012 -0.798262 216 203 188
-0.249432 0.375688 -0.822512 217 204 190
0.382839 -0.036676 -0.906637 177 120 61
0.369076 -0.036681 -0.897762 175 124 52
0.355525 -0.037564 -0.895012 174 118 53
-0.377643 0.198104 -0.806387 72 50 24
-0.415933 0.198019 -0.774762 66 49 24
-0.288740 0.031451 -0.750262 144 84 24
-0.288640 0.056470 -0.751262 143 84 25
-0.287284 0.068422 -0.740262 146 86 27
-0.288831 0.035990 -0.958606 129 75 30
-0.289176 0.017548 -0.976546 126 77 24
-0.289211 0.036476 -0.977262 127 75 27
-0.355380 0.197913 -0.785262 77 53 26
-0.374416 0.197501 -0.776512 76 53 26
-0.244835 0.436451 -0.716823 213 206 188
-0.455478 0.197858 -0.737262 64 44 30
0.034233 -0.038451 -0.650262 129 71 19
-0.080390 -0.033392 -0.858965 121 67 16
-0.092500 -0.034100 -0.811887 125 70 19
0.406577 -0.038622 -0.846637 166 104 53
0.426031 -0.038957 -0.826762 165 106 47
0.377380 -0.038490 -0.841762 176 117 58
-0.247166 0.397986 -0.748762 219 206 193
-0.248474 0.372519 -0.748762 216 204 191
-0.248540 0.367361 -0.725824 220 204 191
-0.287962 0.012398 -0.674262 142 82 20
-0.288833 0.065054 -0.686075 143 81 29
0.309880 -0.039894 -0.804512 161 98 53
0.357846 -0.041718 -0.700262 146 90 38
0.364327 -0.042299 -0.664262 144 92 39
-0.002623 -0.035264 -1.023718 115 89 57
-0.288559 -0.015075 -0.957262 125 66 22
-0.286875 -0.020162 -0.963140 126 65 18
-0.279070 -0.025901 -0.947762 124 65 18
-0.245493 0.412927 -0.735262 220 208 191
0.455065 -0.038822 -0.795262 157 98 56
