ply
format ascii 1.0
element vertex 1293
property float x
property float y
property float z
property uchar red
property uchar green
property uchar blue
end_header
-0.158798 -0.233460 0.405089 0 0 255
-0.151714 -0.371137 0.431089 0 0 255
-0.239616 -0.355996 0.290183 0 0 255
-0.340505 -0.138075 0.422883 0 0 255
-0.116442 -0.355780 0.352009 0 0 255
-0.044483 -0.390565 0.428096 0 0 255
-0.035665 -0.367185 0.427090 0 0 255
-0.329610 -0.147733 0.521983 0 0 255
-0.292091 -0.333185 0.297090 0 0 255
-0.280197 -0.255073 0.429089 0 0 255
-0.408344 -0.219235 0.447089 0 0 255
-0.256087 -0.385979 0.285089 0 0 255
-0.439673 -0.291365 0.410241 0 0 255
-0.244346 -0.380351 0.277090 0 0 255
-0.162253 -0.157313 0.497989 0 0 255
-0.384407 -0.208728 0.409090 0 0 255
-0.294709 -0.324694 0.181089 0 0 255
-0.009736 -0.351829 0.449089 0 0 255
-0.193233 -0.473471 0.511422 0 0 255
-0.209795 -0.175744 0.490134 0 0 255
-0.153339 -0.225146 0.505089 0 0 255
-0.423378 -0.361611 0.507734 0 0 255
-0.478659 -0.245059 0.526028 0 0 255
-0.213350 -0.427003 0.336289 0 0 255
-0.341735 -0.437652 0.485229 0 0 255
-0.394769 -0.212958 0.406097 0 0 255
-0.298627 -0.337814 0.215089 0 0 255
-0.329062 -0.455664 0.487089 0 0 255
-0.099750 -0.434094 0.405089 0 0 255
-0.157647 -0.469772 0.405196 0 0 255
-0.341889 -0.238555 0.345089 0 0 255
-0.079959 -0.308824 0.469791 0 0 255
0.012867 -0.354028 0.500105 0 0 255
-0.306092 -0.317718 0.205090 0 0 255
-0.446173 -0.176937 0.476113 0 0 255
-0.237395 -0.374372 0.339089 0 0 255
-0.235331 -0.440891 0.443089 0 0 255
-0.213609 -0.333540 0.181089 0 0 255
-0.305238 -0.416772 0.490187 0 0 255
-0.490427 -0.330812 0.519710 0 0 255
-0.220913 -0.336965 0.290197 0 0 255
-0.019832 -0.341660 0.511090 0 0 255
-0.110333 -0.302090 0.403588 0 0 255
-0.243941 -0.297096 0.290129 0 0 255
-0.452469 -0.319671 0.521089 0 0 255
-0.159407 -0.448399 0.403089 0 0 255
-0.308280 -0.162602 0.518151 0 0 255
-0.418956 -0.308994 0.438150 0 0 255
-0.345447 -0.163819 0.311089 0 0 255
-0.116008 -0.443245 0.431089 0 0 255
-0.405299 -0.319265 0.496739 0 0 255
-0.257748 -0.294034 0.290176 0 0 255
-0.152301 -0.217602 0.493089 0 0 255
-0.178417 -0.347836 0.430112 0 0 255
-0.342734 -0.357917 0.367089 0 0 255
-0.173207 -0.337402 0.296120 0 0 255
-0.287049 -0.220217 0.297090 0 0 255
-0.314090 -0.201874 0.434099 0 0 255
-0.038903 -0.202041 0.408701 0 0 255
-0.246077 -0.319798 0.499427 0 0 255
-0.281891 -0.174246 0.344531 0 0 255
-0.125365 -0.304552 0.334127 0 0 255
-0.334838 -0.426144 0.405348 0 0 255
-0.054699 -0.348473 0.431089 0 0 255
-0.096936 -0.405010 0.411511 0 0 255
-0.229157 -0.413360 0.405493 0 0 255
-0.243541 -0.461505 0.501090 0 0 255
-0.406198 -0.362522 0.509981 0 0 255
-0.261064 -0.151492 0.449089 0 0 255
-0.375439 -0.217243 0.390518 0 0 255
-0.153290 -0.376884 0.359089 0 0 255
-0.066816 -0.305194 0.451089 0 0 255
-0.390731 -0.312354 0.338170 0 0 255
-0.143330 -0.443858 0.331089 0 0 255
-0.070423 -0.357291 0.434740 0 0 255
-0.164392 -0.366128 0.469089 0 0 255
-0.372202 -0.248381 0.340159 0 0 255
-0.397296 -0.279716 0.473090 0 0 255
-0.302653 -0.372440 0.396183 0 0 255
-0.102622 -0.384918 0.431473 0 0 255
-0.251125 -0.349098 0.338191 0 0 255
-0.087930 -0.318645 0.423670 0 0 255
-0.065213 -0.346858 0.386120 0 0 255
-0.256283 -0.463839 0.494170 0 0 255
-0.060351 -0.272619 0.441089 0 0 255
-0.256432 -0.471049 0.499597 0 0 255
-0.183926 -0.372688 0.430054 0 0 255
-0.283662 -0.312915 0.510277 0 0 255
-0.406986 -0.320340 0.334099 0 0 255
-0.267556 -0.312139 0.290094 0 0 255
-0.260425 -0.155828 0.418096 0 0 255
-0.016936 -0.266302 0.510091 0 0 255
-0.337335 -0.368451 0.363090 0 0 255
-0.276571 -0.078374 0.517760 0 0 255
-0.305688 -0.438400 0.488124 0 0 255
-0.159237 -0.359331 0.462151 0 0 255
-0.247504 -0.228224 0.290165 0 0 255
-0.032729 -0.278735 0.510095 0 0 255
-0.398526 -0.367120 0.363854 0 0 255
-0.178495 -0.191375 0.398127 0 0 255
-0.421581 -0.275096 0.420111 0 0 255
-0.234934 -0.210731 0.290140 0 0 255
-0.281526 -0.290211 0.290155 0 0 255
-0.097236 -0.419429 0.430119 0 0 255
-0.307603 -0.290225 0.428135 0 0 255
-0.222487 -0.131659 0.453090 0 0 255
-0.370423 -0.429843 0.416184 0 0 255
-0.250799 -0.386834 0.402104 0 0 255
0.008555 -0.321205 0.511651 0 0 255
-0.392242 -0.358373 0.358095 0 0 255
-0.235697 -0.220701 0.345559 0 0 255
-0.221604 -0.183266 0.410227 0 0 255
-0.297618 -0.317063 0.290132 0 0 255
-0.426681 -0.200089 0.478097 0 0 255
-0.227347 -0.352921 0.398130 0 0 255
-0.278510 -0.492229 0.488252 0 0 255
-0.295696 -0.152577 0.341089 0 0 255
-0.184744 -0.411150 0.333090 0 0 255
-0.426478 -0.185518 0.495089 0 0 255
-0.329148 -0.152182 0.446317 0 0 255
-0.254045 -0.279818 0.297090 0 0 255
-0.211879 -0.302754 0.428145 0 0 255
-0.349252 -0.131791 0.336138 0 0 255
-0.033101 -0.411769 0.469089 0 0 255
-0.139160 -0.227062 0.323089 0 0 255
-0.376096 -0.435829 0.414133 0 0 255
-0.412412 -0.341600 0.509090 0 0 255
-0.410673 -0.310831 0.457650 0 0 255
-0.278917 -0.156580 0.417090 0 0 255
-0.281206 -0.469385 0.505089 0 0 255
-0.090462 -0.268088 0.491090 0 0 255
-0.355771 -0.285340 0.345123 0 0 255
-0.463425 -0.339696 0.525279 0 0 255
-0.441679 -0.392440 0.415089 0 0 255
-0.119981 -0.358035 0.387089 0 0 255
-0.393617 -0.380593 0.361090 0 0 255
-0.295320 -0.296627 0.173089 0 0 255
-0.230624 -0.377556 0.271089 0 0 255
-0.406687 -0.305920 0.348080 0 0 255
-0.361691 -0.410052 0.419813 0 0 255
-0.436251 -0.233458 0.471089 0 0 255
-0.056154 -0.364800 0.434656 0 0 255
-0.315577 -0.326097 0.511090 0 0 255
-0.200508 -0.342938 0.212453 0 0 255
-0.295020 -0.298809 0.512785 0 0 255
-0.237578 -0.444810 0.369786 0 0 255
-0.330411 -0.264441 0.345089 0 0 255
-0.408197 -0.351939 0.514286 0 0 255
-0.396527 -0.377704 0.416153 0 0 255
-0.151839 -0.430501 0.346471 0 0 255
-0.129092 -0.363839 0.387089 0 0 255
-0.310118 -0.170886 0.523179 0 0 255
-0.305520 -0.364782 0.293089 0 0 255
-0.322978 -0.337962 0.515089 0 0 255
-0.321573 -0.268296 0.304427 0 0 255
-0.478492 -0.237878 0.451089 0 0 255
-0.187560 -0.467486 0.506662 0 0 255
-0.209216 -0.414884 0.412320 0 0 255
-0.057568 -0.299303 0.417931 0 0 255
-0.376814 -0.229976 0.396159 0 0 255
-0.401345 -0.430572 0.417090 0 0 255
-0.269463 -0.484094 0.494248 0 0 255
-0.440761 -0.263601 0.424437 0 0 255
-0.125840 -0.274026 0.402116 0 0 255
-0.326101 -0.395191 0.373089 0 0 255
-0.244920 -0.357003 0.297090 0 0 255
-0.068679 -0.285583 0.451089 0 0 255
-0.157387 -0.377123 0.429411 0 0 255
-0.022681 -0.407502 0.457089 0 0 255
-0.462526 -0.296437 0.529507 0 0 255
-0.241563 -0.352940 0.187090 0 0 255
-0.091002 -0.427314 0.401089 0 0 255
-0.271797 -0.115645 0.518161 0 0 255
-0.241427 -0.416434 0.482115 0 0 255
-0.316070 -0.352532 0.301089 0 0 255
-0.255417 -0.166866 0.427090 0 0 255
-0.454268 -0.246121 0.522096 0 0 255
-0.371231 -0.359217 0.499089 0 0 255
-0.105775 -0.216187 0.487359 0 0 255
-0.122388 -0.357613 0.455090 0 0 255
-0.413020 -0.370426 0.415089 0 0 255
-0.180989 -0.418244 0.444122 0 0 255
-0.209341 -0.123284 0.513089 0 0 255
-0.337880 -0.383026 0.365089 0 0 255
-0.415459 -0.247482 0.424131 0 0 255
-0.446434 -0.269587 0.419766 0 0 255
-0.139062 -0.216051 0.398686 0 0 255
-0.341938 -0.340554 0.511594 0 0 255
-0.246539 -0.203682 0.347089 0 0 255
-0.220134 -0.382856 0.297090 0 0 255
-0.378987 -0.394986 0.305090 0 0 255
-0.117654 -0.387381 0.428117 0 0 255
-0.441881 -0.190802 0.483090 0 0 255
-0.244638 -0.437450 0.478301 0 0 255
-0.050671 -0.287795 0.413631 0 0 255
-0.315958 -0.452058 0.395675 0 0 255
-0.200561 -0.104627 0.501090 0 0 255
-0.207582 -0.439780 0.395089 0 0 255
-0.197501 -0.280656 0.431089 0 0 255
-0.234529 -0.360259 0.297090 0 0 255
-0.135538 -0.206692 0.325441 0 0 255
-0.286830 -0.369474 0.273089 0 0 255
0.003619 -0.265065 0.510751 0 0 255
-0.188362 -0.259315 0.297090 0 0 255
-0.252010 -0.418433 0.404059 0 0 255
-0.349147 -0.340404 0.403336 0 0 255
-0.440536 -0.252788 0.465089 0 0 255
-0.077334 -0.342723 0.406111 0 0 255
-0.268417 -0.457342 0.509090 0 0 255
-0.249810 -0.481443 0.489089 0 0 255
-0.226179 -0.377089 0.289090 0 0 255
-0.021996 -0.269526 0.517914 0 0 255
-0.160149 -0.376511 0.310099 0 0 255
-0.312311 -0.383336 0.400990 0 0 255
-0.031601 -0.384729 0.463170 0 0 255
-0.244651 -0.411373 0.396092 0 0 255
-0.388705 -0.375091 0.354111 0 0 255
-0.160585 -0.424216 0.353742 0 0 255
-0.223589 -0.198760 0.414433 0 0 255
-0.341916 -0.276514 0.341089 0 0 255
-0.394540 -0.362209 0.418120 0 0 255
-0.278302 -0.295272 0.436714 0 0 255
-0.229113 -0.197535 0.408141 0 0 255
-0.219675 -0.357520 0.218419 0 0 255
-0.299794 -0.261536 0.434182 0 0 255
-0.386745 -0.307445 0.376113 0 0 255
-0.235510 -0.131658 0.485089 0 0 255
-0.253397 -0.405088 0.407184 0 0 255
-0.222593 -0.264523 0.297090 0 0 255
-0.133884 -0.196154 0.319089 0 0 255
-0.242518 -0.131825 0.435090 0 0 255
-0.074097 -0.373859 0.435777 0 0 255
-0.291720 -0.365475 0.253089 0 0 255
-0.345148 -0.361571 0.492117 0 0 255
-0.275975 -0.196563 0.335090 0 0 255
-0.397777 -0.331073 0.526924 0 0 255
-0.175617 -0.426678 0.438129 0 0 255
-0.319656 -0.155912 0.453090 0 0 255
-0.111076 -0.371333 0.331089 0 0 255
-0.122726 -0.364527 0.355453 0 0 255
-0.106524 -0.252235 0.334200 0 0 255
-0.323656 -0.395307 0.396838 0 0 255
-0.143691 -0.465624 0.405550 0 0 255
-0.200940 -0.334816 0.191089 0 0 255
-0.399478 -0.306070 0.385953 0 0 255
-0.338688 -0.397768 0.355795 0 0 255
0.011590 -0.255244 0.504404 0 0 255
-0.107123 -0.281073 0.502088 0 0 255
-0.403528 -0.322045 0.453090 0 0 255
-0.136028 -0.218862 0.495089 0 0 255
-0.243576 -0.413059 0.490367 0 0 255
-0.200218 -0.504006 0.505089 0 0 255
-0.162148 -0.365927 0.323261 0 0 255
-0.361632 -0.220305 0.465110 0 0 255
-0.359554 -0.387348 0.488831 0 0 255
-0.290272 -0.347207 0.219089 0 0 255
-0.328848 -0.137763 0.516129 0 0 255
-0.273632 -0.375295 0.265089 0 0 255
-0.354031 -0.388573 0.481096 0 0 255
-0.255726 -0.117264 0.521089 0 0 255
-0.348984 -0.359272 0.391097 0 0 255
-0.049859 -0.237479 0.503089 0 0 255
-0.116931 -0.299178 0.499518 0 0 255
-0.304049 -0.299525 0.187090 0 0 255
-0.191599 -0.420260 0.401089 0 0 255
-0.124140 -0.299028 0.403761 0 0 255
-0.288209 -0.330039 0.195090 0 0 255
-0.257097 -0.369504 0.338185 0 0 255
-0.292475 -0.176246 0.344709 0 0 255
-0.149671 -0.165896 0.496132 0 0 255
-0.345011 -0.328284 0.396128 0 0 255
-0.197415 -0.087230 0.490146 0 0 255
-0.325386 -0.318144 0.407090 0 0 255
-0.160553 -0.182315 0.397067 0 0 255
-0.060043 -0.258194 0.506260 0 0 255
-0.376748 -0.360360 0.371288 0 0 255
-0.136622 -0.352037 0.391089 0 0 255
-0.123304 -0.393400 0.307090 0 0 255
-0.075910 -0.261189 0.511090 0 0 255
-0.419540 -0.266682 0.429089 0 0 255
-0.269079 -0.224137 0.291089 0 0 255
-0.370287 -0.396557 0.303277 0 0 255
-0.103330 -0.394854 0.437090 0 0 255
-0.094937 -0.415593 0.402129 0 0 255
-0.311602 -0.269058 0.434108 0 0 255
-0.118304 -0.432851 0.431089 0 0 255
0.000746 -0.286611 0.517089 0 0 255
-0.390833 -0.140968 0.423089 0 0 255
-0.354859 -0.268160 0.345609 0 0 255
-0.378762 -0.311844 0.407090 0 0 255
-0.161563 -0.311012 0.303773 0 0 255
-0.080323 -0.192859 0.421426 0 0 255
-0.116879 -0.403486 0.437343 0 0 255
-0.329342 -0.375215 0.394140 0 0 255
-0.164702 -0.168359 0.499619 0 0 255
-0.340550 -0.353899 0.404127 0 0 255
-0.102512 -0.299479 0.499469 0 0 255
-0.145580 -0.369600 0.323374 0 0 255
-0.325259 -0.258788 0.296090 0 0 255
-0.123294 -0.151464 0.427545 0 0 255
-0.363526 -0.418336 0.423325 0 0 255
-0.337894 -0.145897 0.514124 0 0 255
-0.216764 -0.350923 0.405443 0 0 255
-0.383072 -0.290876 0.408199 0 0 255
-0.244026 -0.434689 0.456333 0 0 255
-0.236895 -0.278378 0.297410 0 0 255
-0.334407 -0.166260 0.315090 0 0 255
-0.388628 -0.384528 0.349089 0 0 255
-0.456528 -0.328188 0.527142 0 0 255
-0.328755 -0.367727 0.497089 0 0 255
-0.133222 -0.362943 0.351089 0 0 255
-0.161536 -0.363166 0.426164 0 0 255
-0.253929 -0.378197 0.281089 0 0 255
-0.159687 -0.380959 0.318466 0 0 255
-0.285349 -0.313989 0.296243 0 0 255
-0.207854 -0.376074 0.299972 0 0 255
-0.417433 -0.289052 0.424125 0 0 255
-0.155062 -0.425440 0.444627 0 0 255
-0.436908 -0.284537 0.371090 0 0 255
-0.345910 -0.371542 0.486124 0 0 255
-0.244377 -0.344801 0.296308 0 0 255
-0.451574 -0.289460 0.523089 0 0 255
-0.158501 -0.297205 0.304156 0 0 255
-0.497226 -0.230803 0.518310 0 0 255
-0.332252 -0.381812 0.376545 0 0 255
-0.328699 -0.238498 0.299089 0 0 255
-0.025219 -0.264466 0.512102 0 0 255
-0.154490 -0.344449 0.470125 0 0 255
-0.174105 -0.380659 0.430816 0 0 255
-0.159578 -0.181694 0.363090 0 0 255
-0.305427 -0.345752 0.296113 0 0 255
-0.215605 -0.215016 0.303523 0 0 255
-0.279319 -0.103838 0.518277 0 0 255
-0.272057 -0.208294 0.303866 0 0 255
-0.149331 -0.337656 0.473090 0 0 255
-0.063051 -0.376308 0.435574 0 0 255
-0.211026 -0.328296 0.411089 0 0 255
-0.398865 -0.303309 0.462098 0 0 255
-0.312435 -0.442699 0.398091 0 0 255
-0.024444 -0.280572 0.512153 0 0 255
-0.201517 -0.471635 0.509925 0 0 255
-0.471572 -0.304573 0.529411 0 0 255
-0.261271 -0.303393 0.290176 0 0 255
-0.416971 -0.293501 0.384890 0 0 255
-0.354611 -0.149433 0.447931 0 0 255
-0.432477 -0.265437 0.426921 0 0 255
-0.203380 -0.427766 0.326179 0 0 255
-0.239506 -0.270556 0.290124 0 0 255
-0.301544 -0.357506 0.283089 0 0 255
-0.145853 -0.436174 0.404141 0 0 255
-0.364751 -0.423858 0.416102 0 0 255
-0.231235 -0.246315 0.290150 0 0 255
-0.372410 -0.445337 0.422332 0 0 255
-0.368913 -0.383825 0.310172 0 0 255
-0.275541 -0.295883 0.290183 0 0 255
-0.224436 -0.346325 0.290145 0 0 255
-0.337639 -0.347302 0.396107 0 0 255
-0.396552 -0.325550 0.336102 0 0 255
-0.278637 -0.378483 0.253089 0 0 255
-0.234661 -0.438222 0.431089 0 0 255
-0.154528 -0.266218 0.506123 0 0 255
-0.100799 -0.350557 0.404131 0 0 255
-0.153851 -0.393841 0.304125 0 0 255
-0.064386 -0.294160 0.415089 0 0 255
-0.153199 -0.469310 0.394116 0 0 255
-0.275627 -0.338624 0.187090 0 0 255
-0.104909 -0.414831 0.404134 0 0 255
-0.207294 -0.269006 0.508009 0 0 255
-0.471450 -0.245209 0.520137 0 0 255
-0.488590 -0.322528 0.514113 0 0 255
-0.255357 -0.096782 0.521089 0 0 255
-0.183609 -0.246628 0.303089 0 0 255
-0.409761 -0.293650 0.454113 0 0 255
-0.144466 -0.449518 0.501293 0 0 255
-0.210328 -0.327523 0.429089 0 0 255
-0.311073 -0.403891 0.495440 0 0 255
-0.192849 -0.321459 0.297072 0 0 255
-0.382825 -0.172149 0.446122 0 0 255
-0.227967 -0.418951 0.417090 0 0 255
-0.165222 -0.353658 0.468121 0 0 255
-0.273944 -0.190443 0.423089 0 0 255
-0.229712 -0.226373 0.290114 0 0 255
-0.379342 -0.456790 0.409090 0 0 255
-0.196585 -0.304428 0.433089 0 0 255
-0.129188 -0.328329 0.332121 0 0 255
-0.227932 -0.417321 0.397089 0 0 255
-0.191339 -0.275440 0.507806 0 0 255
-0.127383 -0.362750 0.449089 0 0 255
-0.208946 -0.378083 0.259090 0 0 255
-0.292811 -0.142216 0.411089 0 0 255
-0.107786 -0.274382 0.497089 0 0 255
-0.233442 -0.432689 0.478244 0 0 255
-0.229688 -0.423693 0.371090 0 0 255
-0.131393 -0.419847 0.501090 0 0 255
-0.258113 -0.178070 0.418120 0 0 255
-0.246892 -0.225462 0.336232 0 0 255
-0.194999 -0.318085 0.432689 0 0 255
-0.244432 -0.385662 0.253089 0 0 255
-0.210362 -0.096687 0.499089 0 0 255
-0.209977 -0.424855 0.403364 0 0 255
-0.354869 -0.227199 0.465089 0 0 255
-0.227509 -0.334054 0.297024 0 0 255
-0.208646 -0.315275 0.297090 0 0 255
-0.268292 -0.379007 0.341089 0 0 255
-0.258347 -0.378708 0.265089 0 0 255
-0.295680 -0.422540 0.491090 0 0 255
-0.213241 -0.341563 0.202058 0 0 255
-0.328906 -0.327510 0.508161 0 0 255
-0.137997 -0.325670 0.335090 0 0 255
-0.326717 -0.409114 0.418248 0 0 255
-0.269472 -0.163963 0.382537 0 0 255
-0.292611 -0.209532 0.437497 0 0 255
-0.259884 -0.316738 0.297262 0 0 255
-0.400533 -0.313857 0.373089 0 0 255
-0.313510 -0.441013 0.494085 0 0 255
-0.193884 -0.338446 0.219089 0 0 255
-0.077373 -0.264492 0.457175 0 0 255
-0.357484 -0.234261 0.396185 0 0 255
-0.161510 -0.415319 0.442137 0 0 255
-0.210694 -0.181059 0.411089 0 0 255
-0.346523 -0.374303 0.366595 0 0 255
-0.129473 -0.378309 0.309089 0 0 255
-0.300740 -0.334497 0.227089 0 0 255
-0.162298 -0.373137 0.424214 0 0 255
-0.015098 -0.258018 0.512196 0 0 255
-0.125625 -0.397201 0.432103 0 0 255
-0.182442 -0.274515 0.506707 0 0 255
-0.171872 -0.246439 0.298119 0 0 255
-0.240747 -0.216496 0.297090 0 0 255
-0.006313 -0.342533 0.511949 0 0 255
-0.199914 -0.414593 0.369089 0 0 255
-0.324867 -0.426906 0.413945 0 0 255
-0.103618 -0.392666 0.405089 0 0 255
-0.276048 -0.347200 0.211089 0 0 255
-0.261101 -0.378107 0.277090 0 0 255
-0.145312 -0.429578 0.439089 0 0 255
-0.060528 -0.283488 0.415089 0 0 255
-0.224696 -0.438974 0.369654 0 0 255
-0.211827 -0.407062 0.338805 0 0 255
-0.216640 -0.291559 0.290201 0 0 255
-0.416508 -0.297949 0.490210 0 0 255
-0.345135 -0.387648 0.490252 0 0 255
-0.338924 -0.445789 0.481090 0 0 255
-0.242925 -0.164687 0.495089 0 0 255
-0.238842 -0.372101 0.296115 0 0 255
-0.116756 -0.158005 0.421089 0 0 255
-0.229049 -0.448862 0.433089 0 0 255
-0.240841 -0.149346 0.465089 0 0 255
-0.328541 -0.443474 0.400714 0 0 255
-0.491690 -0.258104 0.523537 0 0 255
-0.143972 -0.212065 0.330402 0 0 255
-0.263628 -0.496976 0.488695 0 0 255
-0.377588 -0.213871 0.337243 0 0 255
-0.207229 -0.399389 0.415073 0 0 255
-0.424854 -0.156240 0.415089 0 0 255
-0.261311 -0.225163 0.409903 0 0 255
-0.251440 -0.125265 0.365089 0 0 255
-0.095399 -0.411145 0.432144 0 0 255
-0.242827 -0.380735 0.285089 0 0 255
-0.168944 -0.360771 0.315090 0 0 255
-0.342656 -0.407410 0.383089 0 0 255
-0.376566 -0.219197 0.363090 0 0 255
-0.314307 -0.342980 0.413089 0 0 255
-0.200169 -0.406749 0.406228 0 0 255
-0.221574 -0.268925 0.511090 0 0 255
-0.196240 -0.366304 0.253089 0 0 255
-0.280262 -0.372404 0.279090 0 0 255
-0.425827 -0.372657 0.412104 0 0 255
-0.233293 -0.425480 0.487727 0 0 255
-0.158680 -0.215034 0.409090 0 0 255
-0.148914 -0.449980 0.409631 0 0 255
-0.487405 -0.238774 0.524026 0 0 255
-0.410697 -0.313217 0.517089 0 0 255
-0.284216 -0.125929 0.518117 0 0 255
-0.081196 -0.288270 0.494204 0 0 255
-0.142162 -0.151628 0.494170 0 0 255
-0.473448 -0.234626 0.529249 0 0 255
-0.243694 -0.178369 0.414697 0 0 255
-0.133649 -0.302715 0.332100 0 0 255
-0.219948 -0.424092 0.375449 0 0 255
-0.057189 -0.379687 0.467089 0 0 255
-0.152132 -0.418873 0.343090 0 0 255
-0.146778 -0.427277 0.502153 0 0 255
-0.443862 -0.199178 0.481533 0 0 255
-0.309700 -0.391158 0.401156 0 0 255
-0.230571 -0.347861 0.192074 0 0 255
-0.320299 -0.367082 0.487089 0 0 255
-0.223114 -0.229285 0.348489 0 0 255
-0.270129 -0.382548 0.254306 0 0 255
-0.199447 -0.318547 0.424092 0 0 255
-0.092889 -0.370419 0.395089 0 0 255
-0.282588 -0.314601 0.502124 0 0 255
-0.386093 -0.382914 0.363685 0 0 255
-0.141427 -0.343240 0.475089 0 0 255
-0.173612 -0.309203 0.433089 0 0 255
-0.293809 -0.267208 0.432108 0 0 255
-0.322531 -0.341239 0.297090 0 0 255
-0.181914 -0.421204 0.453090 0 0 255
-0.484442 -0.336485 0.510171 0 0 255
-0.228949 -0.216403 0.340237 0 0 255
-0.374219 -0.358748 0.485089 0 0 255
-0.228062 -0.403912 0.407090 0 0 255
-0.309220 -0.352910 0.255089 0 0 255
-0.300543 -0.297584 0.434591 0 0 255
-0.336763 -0.385900 0.389090 0 0 255
-0.368275 -0.433217 0.423737 0 0 255
-0.189320 -0.485206 0.501090 0 0 255
-0.161049 -0.233649 0.509090 0 0 255
-0.045021 -0.388536 0.471089 0 0 255
-0.085996 -0.198844 0.421508 0 0 255
-0.145346 -0.224798 0.402932 0 0 255
-0.416169 -0.361760 0.500163 0 0 255
-0.130575 -0.314985 0.339905 0 0 255
-0.160976 -0.256097 0.298145 0 0 255
-0.381375 -0.230510 0.419089 0 0 255
-0.426003 -0.327712 0.511761 0 0 255
-0.248963 -0.378549 0.404118 0 0 255
-0.234260 -0.204345 0.341089 0 0 255
-0.090008 -0.151601 0.424116 0 0 255
-0.288561 -0.148888 0.373089 0 0 255
-0.360083 -0.252516 0.345775 0 0 255
-0.089779 -0.300852 0.498811 0 0 255
-0.242827 -0.128018 0.371090 0 0 255
-0.322907 -0.359259 0.503107 0 0 255
-0.138371 -0.369750 0.360305 0 0 255
-0.093655 -0.220323 0.479703 0 0 255
-0.490317 -0.245372 0.516237 0 0 255
-0.032884 -0.393881 0.457089 0 0 255
0.016446 -0.326145 0.509090 0 0 255
-0.324890 -0.332065 0.261090 0 0 255
-0.127655 -0.438684 0.493089 0 0 255
-0.215456 -0.207806 0.407723 0 0 255
-0.430530 -0.171713 0.491943 0 0 255
-0.348202 -0.189272 0.321089 0 0 255
-0.184279 -0.282800 0.430016 0 0 255
-0.334404 -0.166264 0.365089 0 0 255
-0.258100 -0.204146 0.298159 0 0 255
-0.117569 -0.249787 0.340049 0 0 255
-0.049955 -0.307530 0.407090 0 0 255
-0.371934 -0.207856 0.389090 0 0 255
-0.209066 -0.407674 0.406195 0 0 255
-0.433954 -0.242665 0.469089 0 0 255
-0.419604 -0.289367 0.461089 0 0 255
-0.347760 -0.353749 0.502959 0 0 255
-0.029269 -0.384668 0.421089 0 0 255
-0.244880 -0.444718 0.499089 0 0 255
-0.122022 -0.368820 0.335090 0 0 255
0.014092 -0.348506 0.505871 0 0 255
-0.365345 -0.158642 0.449591 0 0 255
-0.465165 -0.236463 0.529510 0 0 255
-0.141248 -0.203216 0.363090 0 0 255
-0.172746 -0.168741 0.395089 0 0 255
-0.433330 -0.305043 0.361090 0 0 255
-0.241210 -0.366496 0.229089 0 0 255
-0.172080 -0.443396 0.508056 0 0 255
-0.130465 -0.229545 0.506157 0 0 255
-0.248672 -0.269280 0.297090 0 0 255
-0.162546 -0.443472 0.429089 0 0 255
-0.307132 -0.363437 0.277090 0 0 255
-0.230191 -0.342877 0.297090 0 0 255
-0.226924 -0.279139 0.296866 0 0 255
-0.045857 -0.403297 0.466103 0 0 255
-0.272096 -0.130065 0.516298 0 0 255
-0.234636 -0.140475 0.453090 0 0 255
-0.232746 -0.292334 0.290111 0 0 255
-0.405081 -0.308440 0.489089 0 0 255
-0.017875 -0.326185 0.439089 0 0 255
-0.272442 -0.323083 0.507089 0 0 255
-0.259836 -0.365202 0.229089 0 0 255
-0.232923 -0.258557 0.297090 0 0 255
-0.392595 -0.455825 0.415089 0 0 255
-0.214842 -0.205044 0.299772 0 0 255
-0.153063 -0.436024 0.420173 0 0 255
-0.394994 -0.439666 0.413089 0 0 255
-0.388094 -0.277475 0.401089 0 0 255
-0.048059 -0.295616 0.404100 0 0 255
-0.113467 -0.308828 0.337089 0 0 255
-0.171806 -0.376824 0.424124 0 0 255
-0.291276 -0.118570 0.522286 0 0 255
-0.167508 -0.383570 0.319900 0 0 255
-0.208819 -0.288948 0.290171 0 0 255
-0.415935 -0.216957 0.445700 0 0 255
-0.156828 -0.270054 0.298259 0 0 255
-0.128137 -0.218577 0.501090 0 0 255
-0.119908 -0.175392 0.423572 0 0 255
-0.339717 -0.325428 0.405089 0 0 255
-0.111356 -0.404711 0.404208 0 0 255
-0.317530 -0.148083 0.523089 0 0 255
-0.156326 -0.352732 0.476698 0 0 255
-0.318114 -0.314670 0.403089 0 0 255
-0.237205 -0.184833 0.411089 0 0 255
-0.108100 -0.167870 0.425004 0 0 255
-0.102589 -0.204673 0.479089 0 0 255
-0.057467 -0.223354 0.499089 0 0 255
-0.177642 -0.363941 0.433454 0 0 255
-0.161822 -0.403661 0.361536 0 0 255
-0.256921 -0.414448 0.399113 0 0 255
-0.223874 -0.347206 0.201089 0 0 255
-0.358955 -0.358510 0.504340 0 0 255
-0.097699 -0.414980 0.409641 0 0 255
-0.355119 -0.360809 0.327460 0 0 255
-0.218900 -0.373626 0.304026 0 0 255
-0.265171 -0.355676 0.201089 0 0 255
-0.208483 -0.337864 0.415089 0 0 255
-0.337404 -0.202498 0.432137 0 0 255
-0.204717 -0.295821 0.435090 0 0 255
-0.220284 -0.438534 0.429089 0 0 255
-0.068287 -0.334588 0.403545 0 0 255
-0.243389 -0.137902 0.483090 0 0 255
-0.221940 -0.346519 0.183089 0 0 255
-0.265680 -0.382086 0.404183 0 0 255
-0.151988 -0.437710 0.507914 0 0 255
-0.251896 -0.332999 0.297090 0 0 255
-0.426668 -0.226166 0.442237 0 0 255
-0.082444 -0.251123 0.519090 0 0 255
-0.378632 -0.215955 0.413089 0 0 255
-0.339469 -0.410124 0.343090 0 0 255
-0.224951 -0.237569 0.297554 0 0 255
-0.326906 -0.338092 0.411668 0 0 255
-0.337106 -0.188079 0.323520 0 0 255
-0.189997 -0.504609 0.503609 0 0 255
-0.389629 -0.366195 0.366491 0 0 255
-0.189570 -0.509001 0.493089 0 0 255
-0.315314 -0.207396 0.440237 0 0 255
-0.386895 -0.314654 0.504921 0 0 255
-0.191092 -0.301368 0.181089 0 0 255
-0.159959 -0.447531 0.509163 0 0 255
-0.414495 -0.334608 0.517595 0 0 255
-0.422845 -0.202388 0.444182 0 0 255
-0.413733 -0.324637 0.512109 0 0 255
-0.206956 -0.332817 0.290165 0 0 255
-0.247477 -0.280377 0.290119 0 0 255
-0.316116 -0.139137 0.518097 0 0 255
-0.099776 -0.247937 0.334120 0 0 255
-0.262619 -0.368279 0.296138 0 0 255
-0.222040 -0.230972 0.290096 0 0 255
-0.238745 -0.260585 0.290140 0 0 255
-0.302216 -0.324735 0.290199 0 0 255
-0.258523 -0.277928 0.290102 0 0 255
-0.266781 -0.328245 0.496096 0 0 255
-0.266521 -0.384488 0.265089 0 0 255
-0.383222 -0.298086 0.342095 0 0 255
-0.346822 -0.388723 0.329849 0 0 255
-0.425090 -0.365072 0.353090 0 0 255
-0.177140 -0.259281 0.297090 0 0 255
-0.022503 -0.354342 0.459089 0 0 255
-0.219837 -0.338653 0.404151 0 0 255
-0.336163 -0.126280 0.419089 0 0 255
-0.240172 -0.237781 0.297090 0 0 255
-0.309805 -0.355655 0.297090 0 0 255
-0.039669 -0.413583 0.475089 0 0 255
-0.291933 -0.337154 0.290166 0 0 255
-0.213513 -0.408136 0.413987 0 0 255
-0.038362 -0.362951 0.433291 0 0 255
-0.400599 -0.316270 0.459089 0 0 255
-0.419721 -0.316595 0.375089 0 0 255
-0.071008 -0.296817 0.459089 0 0 255
0.025432 -0.332805 0.503089 0 0 255
-0.421009 -0.194104 0.454084 0 0 255
-0.241291 -0.383147 0.411553 0 0 255
-0.466249 -0.265610 0.457089 0 0 255
-0.222625 -0.285887 0.296748 0 0 255
-0.274871 -0.181631 0.419089 0 0 255
-0.288176 -0.182993 0.336091 0 0 255
-0.343266 -0.137463 0.341219 0 0 255
-0.204491 -0.429745 0.369089 0 0 255
-0.259220 -0.418283 0.488150 0 0 255
-0.090555 -0.284747 0.394106 0 0 255
-0.457040 -0.189658 0.469089 0 0 255
-0.092284 -0.237364 0.337089 0 0 255
-0.292677 -0.228546 0.303089 0 0 255
-0.252863 -0.245866 0.297010 0 0 255
-0.145717 -0.402887 0.308910 0 0 255
-0.121426 -0.344727 0.461089 0 0 255
-0.295556 -0.363176 0.295089 0 0 255
-0.271216 -0.354784 0.290222 0 0 255
-0.202195 -0.344013 0.290175 0 0 255
-0.367428 -0.285653 0.409800 0 0 255
-0.285948 -0.342827 0.198667 0 0 255
-0.193514 -0.219913 0.303439 0 0 255
-0.233846 -0.156604 0.405089 0 0 255
-0.312335 -0.282795 0.439089 0 0 255
-0.195148 -0.325295 0.190927 0 0 255
-0.148583 -0.193660 0.394255 0 0 255
-0.357594 -0.156076 0.451089 0 0 255
-0.052318 -0.367099 0.428101 0 0 255
-0.075191 -0.260731 0.437090 0 0 255
-0.185177 -0.326057 0.296887 0 0 255
-0.319510 -0.226866 0.479089 0 0 255
-0.232831 -0.429928 0.380277 0 0 255
-0.249262 -0.392968 0.409916 0 0 255
-0.307987 -0.442237 0.409836 0 0 255
-0.164356 -0.254516 0.407090 0 0 255
-0.406212 -0.336445 0.520045 0 0 255
-0.188974 -0.401988 0.335271 0 0 255
-0.386691 -0.290810 0.399090 0 0 255
-0.240575 -0.350770 0.335090 0 0 255
-0.159237 -0.359331 0.435854 0 0 255
-0.379496 -0.385825 0.307360 0 0 255
-0.235410 -0.384932 0.255089 0 0 255
-0.370040 -0.277832 0.404162 0 0 255
-0.367226 -0.382751 0.487457 0 0 255
-0.251756 -0.407664 0.399090 0 0 255
-0.217675 -0.368103 0.296133 0 0 255
-0.320996 -0.346184 0.417090 0 0 255
-0.099366 -0.148078 0.418119 0 0 255
-0.205258 -0.335480 0.199089 0 0 255
-0.097464 -0.270178 0.494124 0 0 255
-0.331667 -0.326897 0.296091 0 0 255
-0.152988 -0.450204 0.505089 0 0 255
-0.291712 -0.166276 0.418930 0 0 255
-0.347236 -0.142399 0.423089 0 0 255
-0.324494 -0.120761 0.419089 0 0 255
-0.282503 -0.177008 0.422708 0 0 255
-0.354890 -0.387225 0.347089 0 0 255
-0.217163 -0.357740 0.229089 0 0 255
-0.269556 -0.301556 0.297185 0 0 255
-0.137472 -0.326493 0.390091 0 0 255
-0.334844 -0.277241 0.257089 0 0 255
-0.072547 -0.324180 0.417090 0 0 255
-0.252007 -0.323577 0.495089 0 0 255
-0.150303 -0.418022 0.513089 0 0 255
-0.380733 -0.365271 0.360100 0 0 255
-0.236606 -0.345833 0.181089 0 0 255
-0.099322 -0.214447 0.483090 0 0 255
-0.236666 -0.427629 0.454220 0 0 255
-0.234230 -0.390507 0.404090 0 0 255
-0.335595 -0.142061 0.418133 0 0 255
-0.317587 -0.263385 0.290191 0 0 255
-0.124207 -0.421761 0.435090 0 0 255
-0.392771 -0.370568 0.415089 0 0 255
-0.446381 -0.373893 0.402111 0 0 255
-0.312800 -0.326734 0.300157 0 0 255
-0.300791 -0.282304 0.431089 0 0 255
-0.266129 -0.403714 0.403313 0 0 255
-0.145987 -0.405430 0.301089 0 0 255
-0.231170 -0.376699 0.296112 0 0 255
-0.181581 -0.339147 0.297090 0 0 255
-0.085221 -0.214950 0.416117 0 0 255
-0.135212 -0.244427 0.394198 0 0 255
-0.443322 -0.177691 0.485089 0 0 255
-0.258009 -0.267568 0.295089 0 0 255
-0.243479 -0.301543 0.296609 0 0 255
-0.139309 -0.334777 0.341724 0 0 255
-0.322316 -0.211858 0.439089 0 0 255
-0.401477 -0.295487 0.494120 0 0 255
-0.175447 -0.151491 0.496160 0 0 255
-0.319026 -0.331851 0.407090 0 0 255
-0.232877 -0.385187 0.273089 0 0 255
-0.180783 -0.355289 0.427090 0 0 255
-0.076637 -0.202368 0.414175 0 0 255
-0.139321 -0.308700 0.339490 0 0 255
-0.279800 -0.367366 0.296107 0 0 255
-0.338394 -0.379619 0.327089 0 0 255
-0.270985 -0.343981 0.193089 0 0 255
-0.282001 -0.259686 0.436868 0 0 255
-0.380691 -0.322558 0.337089 0 0 255
-0.342463 -0.378831 0.353090 0 0 255
-0.146180 -0.383547 0.317089 0 0 255
-0.421829 -0.393822 0.416241 0 0 255
-0.079967 -0.240059 0.517089 0 0 255
-0.138667 -0.237142 0.395089 0 0 255
-0.190465 -0.319940 0.203090 0 0 255
-0.232420 -0.330069 0.292052 0 0 255
-0.356845 -0.283653 0.402139 0 0 255
-0.449452 -0.240682 0.463090 0 0 255
-0.062738 -0.387966 0.434134 0 0 255
-0.137947 -0.295968 0.337421 0 0 255
-0.413297 -0.276932 0.469032 0 0 255
-0.255195 -0.491603 0.492500 0 0 255
-0.224656 -0.396264 0.405089 0 0 255
-0.314350 -0.294523 0.435085 0 0 255
-0.433129 -0.189969 0.480120 0 0 255
-0.277191 -0.483132 0.483090 0 0 255
-0.185230 -0.221750 0.403943 0 0 255
-0.210251 -0.491427 0.509647 0 0 255
-0.042180 -0.319733 0.411089 0 0 255
-0.378114 -0.213045 0.353090 0 0 255
-0.410048 -0.334146 0.342527 0 0 255
-0.080267 -0.405120 0.411089 0 0 255
-0.052415 -0.279420 0.353090 0 0 255
-0.260470 -0.371652 0.402248 0 0 255
-0.325356 -0.370305 0.404028 0 0 255
-0.225919 -0.139268 0.513089 0 0 255
-0.035609 -0.297170 0.401089 0 0 255
-0.364065 -0.302481 0.407090 0 0 255
-0.135379 -0.359557 0.453090 0 0 255
-0.223498 -0.381298 0.304131 0 0 255
-0.407802 -0.375400 0.501090 0 0 255
-0.231424 -0.175295 0.412788 0 0 255
-0.455533 -0.306212 0.527090 0 0 255
-0.335353 -0.317389 0.398136 0 0 255
-0.401313 -0.314354 0.516118 0 0 255
-0.226174 -0.418043 0.453090 0 0 255
-0.351389 -0.154494 0.353064 0 0 255
-0.308026 -0.364007 0.396108 0 0 255
-0.413786 -0.220331 0.400145 0 0 255
-0.069395 -0.403573 0.405089 0 0 255
-0.207489 -0.492039 0.500130 0 0 255
-0.318850 -0.190678 0.327398 0 0 255
-0.432275 -0.362536 0.423470 0 0 255
-0.036786 -0.421258 0.461089 0 0 255
-0.232063 -0.233849 0.297090 0 0 255
-0.161705 -0.275533 0.295089 0 0 255
-0.404201 -0.265155 0.427090 0 0 255
-0.047487 -0.214624 0.413601 0 0 255
-0.102759 -0.418204 0.437463 0 0 255
-0.023558 -0.423411 0.443089 0 0 255
-0.160980 -0.161245 0.347089 0 0 255
-0.101847 -0.401024 0.404154 0 0 255
-0.400748 -0.315243 0.345089 0 0 255
-0.492427 -0.320229 0.524118 0 0 255
-0.226774 -0.271930 0.290116 0 0 255
-0.149839 -0.441084 0.500099 0 0 255
-0.272740 -0.374726 0.303330 0 0 255
-0.099138 -0.297329 0.401615 0 0 255
-0.418781 -0.353938 0.359971 0 0 255
-0.201758 -0.296307 0.290119 0 0 255
0.024193 -0.349184 0.501090 0 0 255
-0.255063 -0.311295 0.505089 0 0 255
-0.281569 -0.349701 0.205090 0 0 255
-0.156775 -0.374361 0.465504 0 0 255
-0.301342 -0.321807 0.195090 0 0 255
-0.113342 -0.420204 0.436539 0 0 255
-0.403122 -0.306021 0.373089 0 0 255
-0.049814 -0.287248 0.405089 0 0 255
-0.400864 -0.292726 0.387868 0 0 255
-0.316680 -0.275976 0.435090 0 0 255
-0.224974 -0.142728 0.463090 0 0 255
-0.063867 -0.338886 0.397089 0 0 255
-0.217825 -0.375312 0.285973 0 0 255
-0.405659 -0.212781 0.405089 0 0 255
-0.400506 -0.274677 0.467089 0 0 255
-0.320375 -0.210620 0.322226 0 0 255
-0.312483 -0.308620 0.219089 0 0 255
-0.309601 -0.232213 0.443089 0 0 255
-0.340267 -0.372690 0.495089 0 0 255
-0.092556 -0.397476 0.433089 0 0 255
-0.302155 -0.367380 0.285089 0 0 255
-0.137501 -0.356225 0.365089 0 0 255
-0.368529 -0.231813 0.341400 0 0 255
-0.129403 -0.205155 0.486100 0 0 255
-0.402949 -0.284568 0.477089 0 0 255
-0.339098 -0.251004 0.347089 0 0 255
-0.429032 -0.211288 0.483090 0 0 255
-0.237202 -0.385842 0.297090 0 0 255
-0.208241 -0.504375 0.503089 0 0 255
-0.328105 -0.395769 0.390282 0 0 255
-0.335340 -0.343466 0.407027 0 0 255
-0.203919 -0.322694 0.297090 0 0 255
-0.432913 -0.179141 0.485089 0 0 255
-0.242665 -0.139772 0.381090 0 0 255
-0.450133 -0.234001 0.475386 0 0 255
-0.223124 -0.411887 0.447089 0 0 255
-0.038506 -0.353558 0.431089 0 0 255
-0.152560 -0.477757 0.399090 0 0 255
-0.370177 -0.311117 0.412579 0 0 255
-0.344914 -0.216768 0.464138 0 0 255
-0.334579 -0.333495 0.506105 0 0 255
-0.290452 -0.348068 0.293089 0 0 255
-0.273282 -0.213818 0.298160 0 0 255
-0.174287 -0.283549 0.427090 0 0 255
-0.391382 -0.236885 0.416179 0 0 255
-0.435571 -0.361083 0.413089 0 0 255
-0.355211 -0.178272 0.446292 0 0 255
-0.140872 -0.385572 0.349089 0 0 255
-0.267506 -0.159603 0.423089 0 0 255
-0.196279 -0.371071 0.261090 0 0 255
-0.156528 -0.255635 0.508138 0 0 255
-0.422206 -0.251780 0.428412 0 0 255
-0.287674 -0.265671 0.438107 0 0 255
-0.034807 -0.401000 0.467089 0 0 255
-0.338981 -0.118133 0.414365 0 0 255
-0.369974 -0.408215 0.416272 0 0 255
-0.275267 -0.229311 0.408657 0 0 255
-0.456957 -0.267956 0.453090 0 0 255
-0.175559 -0.236930 0.298171 0 0 255
-0.419992 -0.385538 0.414164 0 0 255
-0.293807 -0.328864 0.203090 0 0 255
-0.237371 -0.247853 0.296459 0 0 255
-0.048520 -0.320949 0.459089 0 0 255
-0.361443 -0.291325 0.404222 0 0 255
-0.290612 -0.220116 0.303979 0 0 255
-0.229607 -0.434988 0.445697 0 0 255
-0.061690 -0.337499 0.384158 0 0 255
-0.265082 -0.353248 0.297353 0 0 255
-0.378165 -0.350691 0.365089 0 0 255
-0.069027 -0.349288 0.397089 0 0 255
-0.409049 -0.227766 0.405089 0 0 255
-0.049707 -0.374921 0.466016 0 0 255
-0.100148 -0.426026 0.411653 0 0 255
-0.218067 -0.199984 0.340103 0 0 255
-0.392470 -0.209123 0.413557 0 0 255
-0.282605 -0.359668 0.237089 0 0 255
-0.301539 -0.452358 0.391105 0 0 255
-0.061745 -0.434193 0.395089 0 0 255
-0.453467 -0.314380 0.526643 0 0 255
0.004120 -0.347743 0.504090 0 0 255
-0.344252 -0.372857 0.393089 0 0 255
-0.424626 -0.379005 0.341089 0 0 255
0.000597 -0.357102 0.508352 0 0 255
-0.053265 -0.301304 0.447089 0 0 255
-0.298014 -0.275497 0.439089 0 0 255
-0.266345 -0.280540 0.297562 0 0 255
-0.128074 -0.408247 0.440203 0 0 255
-0.278439 -0.328558 0.505565 0 0 255
-0.234082 -0.360961 0.229089 0 0 255
-0.374134 -0.168984 0.445090 0 0 255
-0.058910 -0.293474 0.449089 0 0 255
-0.269067 -0.358158 0.232017 0 0 255
-0.217623 -0.472410 0.510765 0 0 255
-0.068860 -0.415580 0.406393 0 0 255
-0.113760 -0.199932 0.483816 0 0 255
-0.241616 -0.345413 0.405254 0 0 255
-0.217304 -0.115568 0.509090 0 0 255
-0.404684 -0.390954 0.347089 0 0 255
-0.191625 -0.315936 0.426094 0 0 255
-0.341911 -0.392708 0.395526 0 0 255
-0.320049 -0.248355 0.304501 0 0 255
-0.458678 -0.324814 0.520091 0 0 255
-0.054396 -0.200056 0.408138 0 0 255
-0.110197 -0.268803 0.400096 0 0 255
-0.296310 -0.173947 0.338198 0 0 255
-0.443822 -0.277408 0.420147 0 0 255
-0.146629 -0.420067 0.410405 0 0 255
-0.295170 -0.306018 0.510083 0 0 255
-0.080325 -0.188116 0.345089 0 0 255
-0.393248 -0.412627 0.421089 0 0 255
-0.195108 -0.486523 0.509090 0 0 255
-0.170141 -0.423189 0.357089 0 0 255
-0.369446 -0.291681 0.403089 0 0 255
-0.219062 -0.354759 0.297275 0 0 255
-0.260320 -0.362071 0.219089 0 0 255
-0.333972 -0.183712 0.317089 0 0 255
-0.401232 -0.303316 0.501090 0 0 255
-0.239578 -0.434226 0.369842 0 0 255
-0.037464 -0.319693 0.452231 0 0 255
-0.239809 -0.124911 0.437090 0 0 255
-0.235359 -0.457624 0.495089 0 0 255
-0.207515 -0.406686 0.369089 0 0 255
-0.101939 -0.218487 0.362114 0 0 255
0.001196 -0.328264 0.506190 0 0 255
-0.250434 -0.309238 0.511090 0 0 255
-0.348801 -0.143665 0.345089 0 0 255
-0.356357 -0.340254 0.400686 0 0 255
-0.137173 -0.356741 0.465089 0 0 255
-0.398637 -0.452559 0.407456 0 0 255
-0.284934 -0.377920 0.287090 0 0 255
-0.215501 -0.352904 0.209089 0 0 255
-0.302080 -0.291449 0.174210 0 0 255
-0.115121 -0.398800 0.431089 0 0 255
-0.270943 -0.288212 0.290109 0 0 255
-0.063976 -0.367411 0.434583 0 0 255
-0.129978 -0.297311 0.399090 0 0 255
-0.213201 -0.419794 0.374300 0 0 255
-0.380520 -0.412562 0.425089 0 0 255
-0.206154 -0.401077 0.336821 0 0 255
-0.147880 -0.168708 0.415089 0 0 255
-0.363092 -0.214291 0.357089 0 0 255
-0.409152 -0.286148 0.389090 0 0 255
-0.413024 -0.210360 0.449323 0 0 255
-0.486713 -0.269641 0.525089 0 0 255
-0.341540 -0.337457 0.405089 0 0 255
-0.378293 -0.410046 0.417090 0 0 255
-0.250343 -0.350326 0.297090 0 0 255
-0.294707 -0.310466 0.502101 0 0 255
-0.245400 -0.447421 0.433603 0 0 255
-0.266472 -0.133595 0.417090 0 0 255
-0.230649 -0.191400 0.414463 0 0 255
-0.365214 -0.326927 0.339089 0 0 255
-0.469319 -0.237385 0.467089 0 0 255
-0.462240 -0.255942 0.526697 0 0 255
-0.260130 -0.124813 0.517089 0 0 255
-0.334103 -0.364020 0.506764 0 0 255
-0.024035 -0.322158 0.451089 0 0 255
-0.248728 -0.233746 0.409450 0 0 255
-0.035757 -0.306749 0.405089 0 0 255
-0.142897 -0.213752 0.499402 0 0 255
-0.360779 -0.392871 0.321297 0 0 255
-0.405299 -0.319265 0.521555 0 0 255
-0.416130 -0.209207 0.407090 0 0 255
-0.334794 -0.210320 0.329827 0 0 255
-0.341402 -0.368670 0.373089 0 0 255
-0.131675 -0.261145 0.506198 0 0 255
-0.267634 -0.184135 0.349089 0 0 255
-0.417362 -0.227352 0.443089 0 0 255
-0.258434 -0.164046 0.389090 0 0 255
-0.224619 -0.245534 0.297090 0 0 255
-0.101138 -0.286746 0.401516 0 0 255
-0.330690 -0.440102 0.492305 0 0 255
-0.257273 -0.324559 0.290114 0 0 255
-0.178645 -0.198584 0.405464 0 0 255
-0.234023 -0.193550 0.349184 0 0 255
-0.406880 -0.368896 0.347089 0 0 255
-0.165033 -0.424678 0.511260 0 0 255
-0.278545 -0.127059 0.523089 0 0 255
-0.443985 -0.258541 0.470901 0 0 255
-0.065325 -0.263930 0.439089 0 0 255
-0.237189 -0.385863 0.287090 0 0 255
-0.394879 -0.298398 0.347830 0 0 255
-0.330364 -0.271526 0.261090 0 0 255
-0.255086 -0.458334 0.479089 0 0 255
-0.336665 -0.225741 0.475089 0 0 255
-0.175897 -0.173120 0.500643 0 0 255
-0.284287 -0.289599 0.297399 0 0 255
-0.296284 -0.226101 0.440268 0 0 255
-0.245677 -0.446986 0.361090 0 0 255
-0.155810 -0.409317 0.349089 0 0 255
-0.238202 -0.209323 0.297090 0 0 255
-0.403989 -0.183597 0.423089 0 0 255
-0.140249 -0.229076 0.501090 0 0 255
-0.198769 -0.446170 0.390837 0 0 255
-0.217904 -0.218851 0.290140 0 0 255
-0.205953 -0.338113 0.209089 0 0 255
-0.095191 -0.307247 0.401089 0 0 255
-0.469114 -0.338209 0.519090 0 0 255
-0.145351 -0.371825 0.313089 0 0 255
-0.280112 -0.339109 0.195090 0 0 255
-0.369653 -0.401276 0.311089 0 0 255
-0.082324 -0.316278 0.419089 0 0 255
-0.418090 -0.360613 0.417090 0 0 255
-0.311739 -0.302345 0.212594 0 0 255
-0.293483 -0.304943 0.290116 0 0 255
-0.358245 -0.244232 0.340280 0 0 255
-0.045258 -0.374459 0.428227 0 0 255
-0.184442 -0.263933 0.292221 0 0 255
-0.142330 -0.426814 0.332146 0 0 255
-0.296757 -0.277471 0.173089 0 0 255
-0.403327 -0.246866 0.421089 0 0 255
-0.063976 -0.367411 0.392582 0 0 255
-0.183855 -0.209017 0.399103 0 0 255
-0.408224 -0.299785 0.399970 0 0 255
-0.109993 -0.224456 0.369089 0 0 255
-0.438859 -0.385701 0.410304 0 0 255
-0.335230 -0.258025 0.346273 0 0 255
-0.093679 -0.289108 0.493089 0 0 255
-0.187652 -0.284949 0.511510 0 0 255
-0.243907 -0.230674 0.297090 0 0 255
-0.335464 -0.402828 0.380153 0 0 255
-0.125401 -0.347259 0.449089 0 0 255
-0.261724 -0.161234 0.455090 0 0 255
-0.280649 -0.159226 0.339089 0 0 255
-0.227901 -0.165936 0.492611 0 0 255
-0.196144 -0.480069 0.502091 0 0 255
-0.064123 -0.188510 0.413089 0 0 255
-0.357805 -0.369634 0.485089 0 0 255
-0.106282 -0.427564 0.406128 0 0 255
-0.324855 -0.162642 0.457089 0 0 255
-0.008814 -0.249271 0.508097 0 0 255
-0.448530 -0.370519 0.411974 0 0 255
-0.047108 -0.356666 0.435194 0 0 255
-0.163034 -0.435262 0.504152 0 0 255
-0.166917 -0.410555 0.509090 0 0 255
-0.447016 -0.268674 0.461089 0 0 255
-0.288123 -0.287301 0.436858 0 0 255
-0.206727 -0.482068 0.509438 0 0 255
-0.247738 -0.373027 0.336097 0 0 255
-0.339736 -0.444513 0.491090 0 0 255
-0.252305 -0.138798 0.448081 0 0 255
-0.343117 -0.130253 0.421717 0 0 255
-0.357484 -0.234261 0.338104 0 0 255
-0.052043 -0.253099 0.507089 0 0 255
-0.375391 -0.239653 0.397089 0 0 255
-0.017462 -0.344893 0.453090 0 0 255
-0.262343 -0.401301 0.487089 0 0 255
-0.219753 -0.132289 0.487089 0 0 255
-0.141597 -0.469032 0.395089 0 0 255
-0.292637 -0.157379 0.414154 0 0 255
-0.312811 -0.189202 0.323089 0 0 255
-0.091375 -0.354182 0.409090 0 0 255
-0.330405 -0.304751 0.507089 0 0 255
-0.073511 -0.311830 0.463090 0 0 255
-0.470870 -0.266183 0.447089 0 0 255
-0.160721 -0.442613 0.337089 0 0 255
-0.267726 -0.146252 0.417090 0 0 255
-0.459055 -0.182772 0.466122 0 0 255
-0.331693 -0.274744 0.250216 0 0 255
-0.412588 -0.373707 0.423089 0 0 255
-0.299606 -0.332557 0.296800 0 0 255
-0.228934 -0.206907 0.347089 0 0 255
-0.293850 -0.373946 0.297090 0 0 255
-0.428540 -0.196530 0.489089 0 0 255
-0.187150 -0.367627 0.424264 0 0 255
-0.234412 -0.414336 0.451089 0 0 255
-0.406960 -0.372493 0.357738 0 0 255
-0.318615 -0.351107 0.265089 0 0 255
-0.326131 -0.354198 0.511867 0 0 255
-0.465061 -0.251513 0.461089 0 0 255
-0.256758 -0.433315 0.479371 0 0 255
-0.005350 -0.344291 0.447089 0 0 255
-0.035125 -0.394088 0.428528 0 0 255
-0.140181 -0.430188 0.404105 0 0 255
-0.404326 -0.380301 0.355089 0 0 255
-0.146760 -0.159300 0.415989 0 0 255
-0.297592 -0.149601 0.459089 0 0 255
-0.495989 -0.251357 0.521082 0 0 255
-0.322920 -0.183785 0.325090 0 0 255
-0.134476 -0.343556 0.471089 0 0 255
-0.213098 -0.293397 0.297090 0 0 255
-0.224052 -0.194312 0.342125 0 0 255
-0.285299 -0.206122 0.299089 0 0 255
-0.335015 -0.381200 0.401411 0 0 255
-0.062120 -0.271375 0.433089 0 0 255
-0.305624 -0.356608 0.261090 0 0 255
-0.304080 -0.280865 0.438276 0 0 255
-0.211919 -0.224524 0.346542 0 0 255
-0.245636 -0.380048 0.267089 0 0 255
-0.422493 -0.292277 0.444102 0 0 255
-0.139569 -0.427427 0.508254 0 0 255
-0.282887 -0.329021 0.178080 0 0 255
-0.172405 -0.405662 0.450165 0 0 255
-0.144469 -0.428177 0.411089 0 0 255
-0.353745 -0.348077 0.327504 0 0 255
-0.412835 -0.281381 0.458168 0 0 255
-0.029778 -0.350368 0.461564 0 0 255
-0.269779 -0.351498 0.215089 0 0 255
-0.328599 -0.215860 0.475089 0 0 255
-0.068015 -0.268015 0.508393 0 0 255
-0.297314 -0.142593 0.453090 0 0 255
-0.072635 -0.275652 0.445090 0 0 255
-0.269009 -0.168411 0.423447 0 0 255
-0.390118 -0.309593 0.348114 0 0 255
-0.253111 -0.364593 0.342676 0 0 255
-0.132412 -0.323269 0.340237 0 0 255
-0.213301 -0.285635 0.519090 0 0 255
-0.228734 -0.211523 0.413089 0 0 255
-0.373101 -0.291638 0.500212 0 0 255
-0.152582 -0.172494 0.498226 0 0 255
-0.307536 -0.136042 0.521089 0 0 255
-0.286882 -0.369508 0.291089 0 0 255
-0.257409 -0.357846 0.290181 0 0 255
-0.338129 -0.216251 0.439089 0 0 255
-0.224479 -0.376034 0.265089 0 0 255
-0.154731 -0.169121 0.418117 0 0 255
-0.068052 -0.276277 0.484675 0 0 255
-0.172855 -0.427290 0.502114 0 0 255
-0.164135 -0.381421 0.424213 0 0 255
-0.390516 -0.288505 0.499089 0 0 255
-0.376528 -0.146796 0.423089 0 0 255
-0.118398 -0.338056 0.337089 0 0 255
-0.251077 -0.386397 0.291089 0 0 255
-0.409285 -0.324175 0.376615 0 0 255
-0.314435 -0.432116 0.488187 0 0 255
-0.435336 -0.376342 0.418063 0 0 255
-0.316134 -0.407114 0.414646 0 0 255
-0.339118 -0.151420 0.416115 0 0 255
-0.172224 -0.156551 0.500653 0 0 255
-0.040484 -0.411730 0.464184 0 0 255
-0.315822 -0.418772 0.488103 0 0 255
-0.436922 -0.197128 0.477089 0 0 255
-0.079756 -0.405921 0.402134 0 0 255
-0.115557 -0.286446 0.496181 0 0 255
-0.154327 -0.363316 0.458103 0 0 255
-0.478619 -0.323290 0.516162 0 0 255
-0.251274 -0.356308 0.336158 0 0 255
-0.299892 -0.373052 0.403132 0 0 255
-0.491704 -0.232027 0.523221 0 0 255
-0.152998 -0.125332 0.487089 0 0 255
-0.339242 -0.210783 0.466134 0 0 255
-0.318265 -0.135763 0.354101 0 0 255
-0.037941 -0.281721 0.517089 0 0 255
-0.314271 -0.450984 0.492274 0 0 255
-0.190185 -0.433588 0.403764 0 0 255
-0.160623 -0.146789 0.497089 0 0 255
-0.340505 -0.138075 0.514106 0 0 255
-0.275756 -0.172710 0.340160 0 0 255
-0.105670 -0.424802 0.428137 0 0 255
-0.167142 -0.160428 0.419089 0 0 255
-0.328033 -0.405209 0.335090 0 0 255
-0.428654 -0.241659 0.392258 0 0 255
-0.235079 -0.378009 0.277090 0 0 255
-0.410523 -0.303622 0.370103 0 0 255
-0.124649 -0.350343 0.387089 0 0 255
-0.450582 -0.255629 0.460180 0 0 255
-0.302015 -0.421833 0.412600 0 0 255
-0.302353 -0.358021 0.298232 0 0 255
-0.291748 -0.365493 0.279090 0 0 255
-0.394949 -0.307928 0.471089 0 0 255
-0.303851 -0.430117 0.496064 0 0 255
-0.353432 -0.359735 0.492114 0 0 255
-0.305592 -0.267601 0.441089 0 0 255
-0.237891 -0.433152 0.484519 0 0 255
-0.406387 -0.291502 0.378093 0 0 255
-0.405136 -0.338132 0.510125 0 0 255
-0.461478 -0.245971 0.454112 0 0 255
-0.214081 -0.195073 0.415299 0 0 255
-0.330540 -0.432891 0.486132 0 0 255
-0.141034 -0.257621 0.401864 0 0 255
-0.214287 -0.276641 0.297090 0 0 255
-0.119088 -0.331381 0.391089 0 0 255
-0.338414 -0.331196 0.512093 0 0 255
-0.054026 -0.405365 0.479089 0 0 255
-0.229450 -0.133724 0.447089 0 0 255
-0.404511 -0.361448 0.354129 0 0 255
-0.061664 -0.389653 0.476605 0 0 255
-0.399979 -0.223391 0.406141 0 0 255
-0.158708 -0.242795 0.403089 0 0 255
-0.048320 -0.388266 0.464181 0 0 255
-0.166200 -0.171684 0.357089 0 0 255
-0.285485 -0.378103 0.257089 0 0 255
-0.330703 -0.414024 0.388550 0 0 255
-0.205454 -0.227520 0.303089 0 0 255
-0.295512 -0.372633 0.283089 0 0 255
-0.280139 -0.303555 0.506136 0 0 255
-0.348671 -0.370930 0.320165 0 0 255
0.010608 -0.315154 0.507089 0 0 255
-0.421301 -0.191920 0.487089 0 0 255
-0.027495 -0.260893 0.519090 0 0 255
-0.370922 -0.365781 0.323089 0 0 255
-0.148491 -0.376198 0.352799 0 0 255
-0.282971 -0.345674 0.219089 0 0 255
-0.140045 -0.396902 0.298194 0 0 255
-0.243439 -0.379774 0.296135 0 0 255
-0.449686 -0.188660 0.475089 0 0 255
-0.132372 -0.401499 0.437873 0 0 255
-0.157769 -0.225598 0.405089 0 0 255
-0.272040 -0.383270 0.287090 0 0 255
-0.220287 -0.360281 0.290169 0 0 255
-0.202872 -0.216390 0.342288 0 0 255
-0.078108 -0.421471 0.397089 0 0 255
-0.438533 -0.295381 0.521089 0 0 255
-0.412359 -0.311905 0.484217 0 0 255
-0.288273 -0.294510 0.517413 0 0 255
-0.248298 -0.480095 0.496986 0 0 255
-0.247244 -0.135574 0.375362 0 0 255
-0.100621 -0.374157 0.401089 0 0 255
-0.400018 -0.375185 0.423089 0 0 255
-0.354299 -0.161091 0.446132 0 0 255
-0.427026 -0.244216 0.405089 0 0 255
-0.411870 -0.368507 0.506278 0 0 255
-0.440797 -0.194854 0.441089 0 0 255
-0.150843 -0.275727 0.509731 0 0 255
-0.312143 -0.435714 0.413089 0 0 255
-0.399601 -0.365433 0.512093 0 0 255
-0.227659 -0.341264 0.411484 0 0 255
-0.039664 -0.212012 0.406367 0 0 255
-0.153137 -0.361461 0.319089 0 0 255
-0.103643 -0.368969 0.375089 0 0 255
-0.286528 -0.103688 0.522209 0 0 255
-0.397640 -0.297786 0.404111 0 0 255
-0.404837 -0.323713 0.490300 0 0 255
-0.143717 -0.413470 0.510992 0 0 255
-0.378351 -0.223841 0.353558 0 0 255
-0.077849 -0.367970 0.391089 0 0 255
-0.255789 -0.226387 0.296992 0 0 255
0.008107 -0.339111 0.509090 0 0 255
-0.299579 -0.406053 0.493089 0 0 255
-0.202410 -0.220838 0.304205 0 0 255
-0.198687 -0.455603 0.503089 0 0 255
-0.291901 -0.332391 0.189089 0 0 255
-0.354656 -0.365257 0.499322 0 0 255
-0.213703 -0.337115 0.296513 0 0 255
-0.212374 -0.431124 0.437090 0 0 255
-0.304822 -0.402537 0.401089 0 0 255
-0.110418 -0.439684 0.425546 0 0 255
-0.466946 -0.267168 0.523089 0 0 255
-0.214601 -0.380373 0.254867 0 0 255
-0.211607 -0.304953 0.291089 0 0 255
-0.318558 -0.401543 0.355089 0 0 255
-0.351146 -0.329822 0.513391 0 0 255
-0.155206 -0.138596 0.411704 0 0 255
-0.204240 -0.441305 0.403089 0 0 255
-0.423271 -0.233487 0.395089 0 0 255
-0.280496 -0.217382 0.295089 0 0 255
-0.145144 -0.321895 0.336181 0 0 255
-0.323748 -0.212769 0.328469 0 0 255
-0.330508 -0.190991 0.325597 0 0 255
-0.081958 -0.298240 0.496809 0 0 255
-0.151031 -0.204705 0.396139 0 0 255
-0.167912 -0.438771 0.431089 0 0 255
-0.347561 -0.206598 0.363090 0 0 255
-0.084021 -0.275842 0.495089 0 0 255
-0.291555 -0.320315 0.297090 0 0 255
-0.388171 -0.215869 0.408104 0 0 255
-0.247760 -0.453667 0.419089 0 0 255
-0.347434 -0.391484 0.356508 0 0 255
-0.380901 -0.277636 0.403089 0 0 255
0.015957 -0.269544 0.511090 0 0 255
-0.350896 -0.168409 0.313089 0 0 255
-0.135869 -0.463012 0.398648 0 0 255
-0.425144 -0.206225 0.450075 0 0 255
-0.273397 -0.285032 0.435090 0 0 255
-0.226853 -0.115469 0.506129 0 0 255
-0.151318 -0.245202 0.406123 0 0 255
-0.235225 -0.422447 0.399090 0 0 255
-0.393357 -0.300787 0.389090 0 0 255
-0.153969 -0.159150 0.498604 0 0 255
-0.343955 -0.370296 0.503089 0 0 255
-0.195558 -0.425154 0.334480 0 0 255
-0.011223 -0.338548 0.508121 0 0 255
-0.427977 -0.369282 0.422028 0 0 255
-0.252147 -0.451719 0.480583 0 0 255
-0.266072 -0.218710 0.297090 0 0 255
