ply
format ascii 1.0
element vertex 1248
property float x
property float y
property float z
property uchar red
property uchar green
property uchar blue
end_header
2.044477 1.465508 -0.946973 111 91 88
2.034150 1.476144 -0.938299 133 107 105
2.036386 1.479308 -0.934737 132 105 105
2.032828 1.469180 -0.929399 121 100 97
1.702828 1.592707 -1.087469 143 139 139
2.026248 1.295775 -0.529989 199 132 87
1.680494 1.490527 -0.525185 208 133 100
1.162073 1.303256 -0.665968 96 91 93
1.158495 1.279406 -0.664006 91 90 96
1.961167 1.272695 -0.527849 177 116 82
1.963042 1.311883 -0.528294 168 111 81
1.863577 1.595838 -0.533528 196 120 87
1.882576 1.604232 -0.542007 194 120 89
1.179585 1.284376 -0.695100 170 163 148
1.497223 1.342750 -0.597558 89 67 63
1.485531 1.342185 -0.584444 57 67 74
1.486012 1.351710 -0.592666 56 49 47
1.490821 1.347823 -0.599285 51 42 40
1.481223 1.342916 -0.571287 74 89 100
1.477993 1.351279 -0.574065 61 61 58
1.460231 1.358636 -0.553040 49 57 69
1.469227 1.341381 -0.559104 75 90 99
1.447277 1.334496 -0.547132 63 77 88
1.911667 1.262195 -0.526764 169 110 84
1.502966 1.326708 -0.603539 93 82 80
1.462948 1.413648 -0.540166 136 140 147
1.456611 1.426905 -0.541700 95 105 121
1.441488 1.429927 -0.542351 135 147 167
1.466198 1.432976 -0.543531 97 109 124
1.487368 1.360424 -0.597356 50 52 67
1.492936 1.358898 -0.631745 69 85 103
1.501204 1.347848 -0.625092 58 64 74
1.491022 1.355570 -0.613531 53 51 61
1.486477 1.369319 -0.622846 54 46 49
1.472416 1.425010 -0.613295 108 128 156
1.499832 1.354130 -0.648603 75 89 108
1.507339 1.349499 -0.637297 54 42 38
1.515881 1.348490 -0.639020 50 41 37
1.522252 1.357325 -0.662135 65 72 86
1.534441 1.369672 -0.653582 73 81 99
1.527028 1.358051 -0.647513 52 43 40
1.848167 1.336446 -0.526012 200 124 94
1.852372 1.357420 -0.526613 200 123 94
1.823422 1.369283 -0.526463 194 123 96
1.427383 1.315527 -0.543006 94 111 122
1.427670 1.325971 -0.540171 76 97 109
1.435930 1.323337 -0.546246 91 108 120
1.637946 1.557572 -0.522641 212 221 229
1.470848 1.375236 -0.708911 52 42 39
1.932918 1.332383 -0.527091 163 108 81
1.181036 1.477029 -0.675903 151 157 168
1.213098 1.467171 -0.675200 141 144 151
1.560916 1.381440 -0.523298 195 122 97
1.734306 1.603333 -0.544682 212 147 118
1.746994 1.608497 -0.546884 201 135 109
1.755772 1.600758 -0.551427 221 154 123
1.742959 1.598680 -0.550037 177 132 126
1.558311 1.452331 -0.523335 205 126 93
1.471428 1.381642 -0.597198 59 51 50
1.468524 1.398792 -0.575513 182 180 168
2.028039 1.557106 -0.542616 190 116 86
2.018682 1.563931 -0.553045 176 112 89
2.033254 1.559616 -0.553877 177 113 86
1.148749 1.372759 -0.673548 135 144 157
1.146469 1.388170 -0.674857 138 146 159
1.796230 1.343133 -0.525557 197 124 94
1.753716 1.566573 -0.523734 206 130 102
1.765112 1.576496 -0.524237 203 128 101
1.777865 1.598641 -0.530830 202 126 96
1.763661 1.588084 -0.526544 198 127 98
1.897326 1.593494 -0.535786 193 118 83
1.510433 1.416191 -0.522037 204 127 96
1.579644 1.304691 -0.522239 166 106 87
1.595438 1.286981 -0.522157 168 111 89
1.422917 1.236945 -0.517978 157 106 88
1.407917 1.232695 -0.518579 104 108 116
1.597815 1.572947 -0.535758 212 189 184
1.590258 1.564381 -0.529984 230 210 204
1.581793 1.565879 -0.538603 159 132 115
1.939887 1.251757 -0.527772 168 111 79
1.890917 1.240695 -0.526156 169 113 81
1.486042 1.465941 -0.520141 106 124 136
1.472930 1.475511 -0.516908 160 171 177
1.480873 1.485488 -0.518365 208 210 215
1.482516 1.489751 -0.537144 206 214 206
1.477713 1.489768 -0.526174 227 228 227
1.488939 1.497376 -0.526894 231 238 226
1.475976 1.486999 -0.538448 170 172 174
1.529912 1.383662 -0.676534 75 79 98
1.527100 1.388617 -0.692717 54 57 68
1.526192 1.378374 -0.698633 91 123 150
1.529987 1.393863 -0.691783 56 49 49
1.531439 1.372465 -0.679470 82 83 94
1.529720 1.364512 -0.676830 82 83 94
1.534025 1.392887 -0.680339 49 40 37
1.855423 1.543343 -0.527393 200 128 101
1.882064 1.565774 -0.523227 176 113 89
1.159592 1.238683 -0.681884 107 93 82
1.961455 1.574938 -0.534850 173 109 80
1.978644 1.555761 -0.529409 173 112 82
1.577765 1.557950 -0.529958 213 216 202
1.538054 1.541340 -0.527900 232 242 234
1.542944 1.548057 -0.534303 213 221 214
1.556201 1.557239 -0.534412 203 211 205
1.542294 1.530304 -0.517911 213 221 205
1.544125 1.544485 -0.518882 205 219 205
1.531679 1.535665 -0.535260 222 226 217
1.536807 1.541479 -0.517439 203 213 199
1.551706 1.547901 -0.522930 230 236 227
1.536241 1.542757 -0.538136 136 132 124
1.522058 1.465930 -0.644098 76 91 117
1.510864 1.464362 -0.640906 93 112 141
1.157277 1.244730 -0.668480 144 150 181
1.159057 1.267166 -0.665390 95 97 122
1.154235 1.254218 -0.663619 105 110 139
1.603636 1.392348 -0.524054 198 126 101
1.625917 1.387195 -0.524478 199 127 99
1.821918 1.283195 -0.525080 206 130 90
1.778667 1.305508 -0.524883 210 134 93
1.825777 1.598611 -0.534188 202 127 93
1.817998 1.603398 -0.534445 200 124 90
1.798086 1.605006 -0.537009 199 126 95
1.893106 1.383571 -0.527433 163 106 86
1.561072 1.311531 -0.522461 173 112 92
1.611659 1.337888 -0.523232 179 116 95
1.963648 1.341758 -0.528548 166 108 82
1.766916 1.434604 -0.527174 203 132 101
1.737689 1.245354 -0.522978 166 106 81
1.567536 1.546909 -0.525547 237 247 250
1.571071 1.559682 -0.533619 221 166 142
1.574849 1.527147 -0.522866 239 245 246
1.583831 1.545914 -0.523493 244 245 243
1.674964 1.556186 -0.523204 214 136 104
1.675044 1.535245 -0.524774 214 133 98
1.196898 1.335802 -0.703428 137 124 115
1.201252 1.353875 -0.704430 133 121 117
1.194419 1.358638 -0.678802 131 122 125
1.196905 1.347508 -0.684303 115 103 105
1.437481 1.416015 -0.529738 96 109 123
1.465488 1.424598 -0.523287 95 113 125
1.446743 1.413038 -0.526425 104 115 128
1.441021 1.425927 -0.521534 103 118 129
1.444095 1.421551 -0.536059 95 105 121
1.449477 1.402235 -0.528106 159 161 166
1.446282 1.409287 -0.533262 148 150 155
2.003353 1.410788 -0.531139 193 119 86
1.970713 1.387890 -0.530119 186 117 89
1.430602 1.427413 -0.540482 100 115 139
1.508152 1.461149 -0.703045 79 90 110
1.958157 1.242570 -0.528350 180 120 82
1.973376 1.248492 -0.528339 172 113 81
1.694918 1.471070 -0.525596 210 134 100
1.899692 1.411997 -0.528575 161 105 83
1.996085 1.572100 -0.540903 176 113 82
1.982308 1.577211 -0.538708 176 113 82
1.675100 1.595390 -0.538407 206 190 181
1.690073 1.598152 -0.537273 182 185 198
1.673225 1.594324 -0.548710 248 212 208
2.005888 1.305227 -0.529768 200 130 88
1.239645 1.548060 -0.674812 125 122 123
1.226376 1.537369 -0.671984 130 130 134
2.012017 1.273057 -0.528850 200 130 88
2.023043 1.252570 -0.528692 199 130 88
1.256690 1.585502 -0.702210 128 121 115
1.406284 1.318474 -0.536356 84 101 115
1.726293 1.451914 -0.525811 209 134 103
1.722982 1.479527 -0.525579 210 136 101
1.266932 1.600237 -0.685075 124 120 120
1.248972 1.583719 -0.671726 122 117 115
1.990918 1.283195 -0.528908 184 121 87
1.994917 1.438695 -0.530303 185 119 90
1.984807 1.476684 -0.531345 184 120 93
2.005425 1.475149 -0.531183 192 125 95
2.007171 1.553837 -0.535962 184 120 85
2.002714 1.521191 -0.524796 187 118 86
2.013649 1.538203 -0.529739 188 119 87
1.994731 1.535369 -0.527704 180 115 83
1.099257 1.243332 -0.648859 139 149 179
1.111987 1.231922 -0.646814 139 149 178
1.098690 1.258832 -0.655019 112 116 146
1.243569 1.508148 -0.689699 133 132 137
1.231840 1.465991 -0.701562 139 134 135
1.234899 1.481079 -0.691656 137 135 140
1.209509 1.489026 -0.674857 136 139 146
1.218523 1.454607 -0.680284 136 134 139
1.220625 1.485841 -0.677128 138 139 145
1.232080 1.496301 -0.682048 134 131 135
1.464921 1.387663 -0.685876 52 42 39
1.463021 1.396591 -0.680973 54 41 36
1.462198 1.398695 -0.703422 103 84 85
1.466476 1.393380 -0.665487 122 104 99
1.514769 1.462853 -0.633281 81 94 105
1.927248 1.296502 -0.527313 166 110 81
1.718699 1.510008 -0.526435 208 130 101
1.745792 1.533383 -0.526829 208 130 102
1.725599 1.498770 -0.526445 208 132 102
1.739297 1.569871 -0.523185 204 129 104
1.734727 1.584008 -0.525508 205 131 102
1.492417 1.332445 -0.520639 164 104 89
1.433417 1.323133 -0.521239 141 117 116
1.460214 1.286122 -0.519071 164 105 86
1.652921 1.581642 -0.531266 187 201 223
1.628364 1.582591 -0.538581 243 228 223
1.645687 1.585868 -0.537007 245 237 238
1.430402 1.445515 -0.517651 174 180 167
1.429334 1.433041 -0.529797 174 180 167
1.650262 1.388581 -0.523984 203 128 94
1.483479 1.498528 -0.536372 171 173 164
1.471992 1.443066 -0.567678 90 103 119
1.471131 1.438371 -0.559881 90 103 116
1.164712 1.257439 -0.700273 111 98 87
1.769917 1.526445 -0.527726 207 130 99
1.228566 1.567307 -0.669759 139 139 145
1.241477 1.566440 -0.672447 128 124 126
1.837830 1.539066 -0.527545 200 128 106
1.842835 1.553780 -0.525575 197 127 104
1.968919 1.551210 -0.527355 173 112 81
1.943975 1.566744 -0.528982 167 108 84
1.966464 1.533871 -0.525496 166 106 80
1.260870 1.576543 -0.692672 128 123 123
1.265398 1.597632 -0.691937 126 125 126
1.259140 1.577656 -0.683462 130 127 130
1.265879 1.600104 -0.679945 124 116 114
1.456388 1.332327 -0.520506 164 105 89
1.526237 1.361696 -0.522613 162 105 86
1.404247 1.273047 -0.542698 67 86 99
1.562455 1.357105 -0.522291 188 117 97
1.562981 1.342132 -0.522425 181 116 94
1.530950 1.262789 -0.520483 162 106 87
1.642417 1.475321 -0.525232 207 127 99
1.503961 1.345699 -0.613908 61 76 93
1.519833 1.348653 -0.632091 38 38 46
1.519154 1.346832 -0.611718 45 41 42
1.514435 1.335801 -0.605020 59 60 89
1.527901 1.347235 -0.616745 47 48 51
1.189476 1.413958 -0.673933 148 152 165
1.204165 1.395145 -0.681304 140 145 152
1.210581 1.410757 -0.684002 137 137 144
1.216043 1.433607 -0.682301 137 136 143
1.530694 1.432757 -0.522531 203 124 98
1.582076 1.434445 -0.524113 202 125 95
1.131648 1.361743 -0.672305 157 158 160
1.851917 1.485195 -0.528669 197 129 105
1.478304 1.366619 -0.580689 51 46 45
1.469429 1.379330 -0.577944 57 48 47
1.768075 1.465101 -0.527013 205 130 104
1.748918 1.471695 -0.526511 204 133 101
1.729671 1.334813 -0.524754 204 129 96
1.420889 1.340027 -0.535947 43 42 52
1.413420 1.303819 -0.521542 94 113 134
1.412538 1.321998 -0.524743 55 58 67
1.430604 1.340428 -0.523038 52 57 67
1.411376 1.303347 -0.540133 92 107 120
1.817476 1.550104 -0.527611 201 128 101
1.808233 1.523342 -0.529146 202 129 98
1.403420 1.284844 -0.542682 70 85 93
1.700375 1.593510 -0.530652 180 182 194
1.942422 1.382325 -0.528968 160 104 82
1.907825 1.588719 -0.556832 184 119 84
1.508550 1.461564 -0.621726 86 102 118
1.472302 1.437836 -0.620795 92 111 129
1.487062 1.451680 -0.607997 90 108 122
1.496356 1.457370 -0.610679 89 102 113
1.478696 1.443193 -0.605417 91 103 116
1.497118 1.459438 -0.624380 81 95 106
1.498671 1.455687 -0.637292 99 121 147
1.480780 1.444268 -0.629455 94 111 129
1.747120 1.596154 -0.530762 214 138 106
1.758248 1.604837 -0.535111 207 133 103
1.467262 1.433291 -0.702256 99 124 149
1.149509 1.303020 -0.664469 142 139 142
1.127223 1.331389 -0.668274 148 146 148
1.149372 1.324488 -0.665843 166 167 168
1.736917 1.431695 -0.526675 207 132 104
1.910138 1.594035 -0.547534 180 113 89
1.887128 1.606371 -0.548617 204 118 82
1.890556 1.596114 -0.557594 156 98 73
1.688713 1.598592 -0.545825 198 172 170
1.704021 1.602563 -0.542238 197 181 184
1.717241 1.605672 -0.544050 225 160 139
1.693981 1.437321 -0.524915 209 135 102
1.174137 1.319154 -0.669555 116 108 108
1.177815 1.338905 -0.670987 117 107 105
1.406191 1.261657 -0.547483 51 66 74
1.539230 1.276508 -0.520723 165 109 89
1.458208 1.335759 -0.552685 67 82 86
1.469790 1.398596 -0.555766 79 64 57
1.470964 1.367719 -0.560789 49 43 48
1.486246 1.450806 -0.692937 98 122 153
1.489427 1.453858 -0.676129 84 110 137
1.471793 1.439521 -0.691104 98 120 150
1.475241 1.439354 -0.671165 101 126 157
1.486103 1.447506 -0.680926 91 119 155
1.496500 1.454890 -0.685981 86 112 147
1.504419 1.458362 -0.694193 104 128 158
1.519913 1.364524 -0.709276 80 80 89
1.505670 1.460965 -0.648022 87 116 158
1.875804 1.537118 -0.528536 178 117 98
1.902804 1.552146 -0.524945 173 115 96
1.792624 1.573100 -0.523278 202 129 96
1.823607 1.564212 -0.524024 200 128 101
1.784894 1.581229 -0.524009 203 129 101
1.819764 1.577965 -0.524868 201 129 99
1.796075 1.592956 -0.528834 202 128 96
1.616918 1.419695 -0.524411 204 132 101
1.439212 1.450426 -0.529683 129 134 119
1.443871 1.442521 -0.518640 100 117 132
1.441189 1.443930 -0.539085 161 169 175
1.439661 1.450701 -0.518000 128 141 141
1.453898 1.454157 -0.519302 106 121 134
1.443769 1.459751 -0.520773 139 147 137
1.458512 1.463302 -0.516953 179 188 171
1.453801 1.432296 -0.519613 102 115 130
1.810792 1.238195 -0.524104 172 113 78
1.953533 1.435725 -0.531063 160 104 87
1.904274 1.472790 -0.530603 164 108 90
1.466998 1.398453 -0.612625 199 196 189
1.466936 1.413561 -0.619892 190 182 181
1.900794 1.303820 -0.526086 180 115 86
1.902105 1.321977 -0.526129 165 108 82
1.535093 1.352447 -0.629429 44 42 39
1.547585 1.368674 -0.632509 84 84 97
1.675417 1.241195 -0.522393 166 108 81
1.452175 1.357260 -0.522393 150 130 127
1.444438 1.361445 -0.524458 160 174 176
1.207706 1.375347 -0.701398 120 113 110
1.211479 1.390342 -0.703616 128 116 112
1.206061 1.373288 -0.686467 172 176 184
1.213039 1.391776 -0.693099 168 173 180
1.183187 1.374268 -0.673768 155 163 173
1.177333 1.393502 -0.673662 145 151 161
1.193210 1.373131 -0.677489 155 163 171
1.198275 1.412516 -0.676015 149 156 166
1.960630 1.518170 -0.528786 179 116 90
1.501637 1.459030 -0.676712 71 93 117
1.494933 1.368737 -0.521802 189 119 94
1.492467 1.392367 -0.522094 196 121 97
1.469792 1.384195 -0.522760 199 184 181
1.880480 1.496227 -0.529852 191 126 104
2.018394 1.484676 -0.529655 189 123 91
2.038504 1.483912 -0.526795 188 121 89
1.740028 1.552832 -0.526151 204 126 101
1.155891 1.342699 -0.668435 123 119 121
1.569667 1.259321 -0.520852 164 108 87
1.415899 1.287422 -0.520218 63 81 105
1.847323 1.583762 -0.526974 196 122 94
1.706855 1.262195 -0.523023 184 117 92
1.706729 1.301883 -0.523415 198 125 93
1.159730 1.427570 -0.675375 152 157 171
1.508249 1.344504 -0.604428 50 50 54
1.505291 1.354464 -0.659298 86 101 122
1.490037 1.361424 -0.654337 73 93 115
1.622124 1.524023 -0.524021 212 137 100
1.606995 1.548025 -0.524056 250 250 249
1.609913 1.566218 -0.530061 185 186 189
1.626832 1.551097 -0.523365 254 251 251
1.469563 1.434231 -0.584904 93 107 121
1.915144 1.373512 -0.527730 159 103 83
1.943419 1.404695 -0.529246 160 105 86
1.461257 1.473512 -0.520011 172 186 173
1.468099 1.479549 -0.532800 128 127 128
1.474181 1.482298 -0.523990 196 206 194
1.963387 1.423834 -0.530252 170 107 83
1.469418 1.223195 -0.517505 159 105 87
1.495293 1.264195 -0.519773 160 104 85
1.454980 1.257633 -0.518667 159 106 85
1.860919 1.239695 -0.525662 174 113 81
1.841762 1.269070 -0.525275 186 122 83
1.771917 1.319695 -0.524453 199 125 94
1.624782 1.443717 -0.524456 208 133 99
1.112905 1.276017 -0.660144 126 128 141
1.252349 1.538112 -0.692240 132 132 138
1.249372 1.534032 -0.703700 134 133 138
1.252149 1.556987 -0.682037 124 120 121
1.581148 1.564779 -0.545437 126 104 104
1.218297 1.421254 -0.688441 142 144 151
1.219037 1.412974 -0.704650 142 142 150
1.218019 1.405000 -0.698112 140 142 149
1.602386 1.361422 -0.523953 191 123 100
1.938492 1.526009 -0.529147 162 103 83
1.929212 1.549636 -0.524945 166 105 82
1.948402 1.542216 -0.523904 166 106 84
1.923079 1.565585 -0.525402 173 106 81
1.470030 1.357951 -0.563317 42 41 40
1.858514 1.565470 -0.522860 194 122 95
1.866703 1.572808 -0.523928 195 123 94
1.876532 1.582947 -0.527966 190 122 95
1.718318 1.572920 -0.523430 206 130 98
1.459942 1.383739 -0.545107 82 85 86
1.445303 1.374420 -0.536211 131 127 125
1.468165 1.361222 -0.521524 166 123 116
1.444437 1.381635 -0.530925 180 191 194
1.456216 1.385902 -0.524630 200 211 208
1.162731 1.400008 -0.674344 160 170 183
1.856672 1.514790 -0.529466 202 132 106
1.921917 1.278695 -0.527373 169 110 81
1.873168 1.265195 -0.525432 171 111 84
1.939608 1.457569 -0.530002 163 110 90
1.933895 1.490487 -0.531608 165 109 93
1.845965 1.372569 -0.526537 195 121 94
1.773130 1.550401 -0.526703 204 128 103
1.796135 1.547564 -0.527978 205 131 101
1.168056 1.255208 -0.688117 132 117 105
1.168626 1.266555 -0.673542 93 93 114
1.165905 1.260199 -0.669954 145 151 178
1.663560 1.311556 -0.523395 180 120 93
1.494205 1.500649 -0.542598 91 69 67
1.497979 1.507655 -0.541514 173 177 172
1.483293 1.364730 -0.697638 49 39 36
1.480493 1.369181 -0.672092 51 44 39
1.395585 1.268555 -0.521669 86 106 118
1.424640 1.266477 -0.518009 45 60 72
1.381094 1.238181 -0.520908 62 79 88
1.378191 1.259639 -0.540766 74 86 96
1.612869 1.574511 -0.535822 246 230 222
1.622526 1.569679 -0.528832 243 242 239
1.534419 1.401445 -0.523237 200 124 98
1.892098 1.457947 -0.529396 186 122 103
1.246428 1.526488 -0.687176 135 137 142
1.672481 1.373242 -0.524545 209 134 103
1.673917 1.398695 -0.524258 210 135 98
1.788455 1.447166 -0.527544 197 130 103
1.439918 1.303298 -0.519788 163 106 89
1.819390 1.403404 -0.527380 198 128 103
1.804329 1.438235 -0.526879 198 129 106
1.837980 1.462133 -0.528808 198 128 105
1.201871 1.508135 -0.673629 144 148 156
1.833807 1.387211 -0.526718 202 127 98
1.736763 1.303914 -0.524118 190 122 95
1.777230 1.264850 -0.524163 179 113 91
1.751917 1.296695 -0.524695 173 109 85
1.170193 1.463312 -0.676518 153 161 172
1.473086 1.378695 -0.672166 52 41 39
1.482621 1.371017 -0.654595 50 42 41
1.472321 1.384619 -0.648247 52 43 42
1.372833 1.242564 -0.541577 53 50 52
1.383944 1.238892 -0.543492 57 53 54
1.390701 1.256530 -0.541763 57 72 82
1.571417 1.409695 -0.523600 199 126 95
2.028625 1.351525 -0.529798 196 127 88
1.996356 1.344508 -0.529273 196 128 89
1.978941 1.377186 -0.529194 194 126 94
1.522380 1.332648 -0.615557 54 57 73
1.512307 1.326271 -0.615095 81 81 99
2.044887 1.524355 -0.528516 199 126 87
2.042370 1.494458 -0.522953 196 123 89
2.013097 1.507217 -0.526470 192 122 94
2.037834 1.507855 -0.524279 195 121 89
1.840178 1.605115 -0.550546 202 125 91
1.830862 1.606651 -0.543504 200 122 89
1.188732 1.313448 -0.700997 126 118 112
1.178683 1.308265 -0.673840 139 136 138
1.189439 1.317632 -0.691387 127 115 112
1.191154 1.321317 -0.682351 117 111 120
1.189435 1.332696 -0.677333 116 105 106
1.186138 1.301981 -0.685822 106 102 111
1.197323 1.337067 -0.686122 116 109 110
1.961647 1.478214 -0.530808 167 109 87
1.742736 1.492319 -0.526156 204 130 101
2.005557 1.565176 -0.542327 182 112 85
2.022643 1.563093 -0.547934 180 111 86
1.531042 1.369296 -0.661638 63 61 75
1.849885 1.602936 -0.540354 200 126 93
1.605857 1.252973 -0.521574 160 104 84
1.658669 1.256195 -0.522044 164 109 89
1.795980 1.407320 -0.527295 204 130 102
1.863176 1.603738 -0.542484 197 122 90
1.861742 1.605041 -0.554706 204 126 83
1.896167 1.430664 -0.528599 194 126 95
1.865480 1.408268 -0.528068 196 126 95
1.696793 1.525696 -0.526212 207 127 100
1.706246 1.555202 -0.523884 214 133 101
1.722522 1.546190 -0.526289 212 133 100
1.177425 1.354882 -0.670242 134 131 141
1.167316 1.336316 -0.667594 122 111 111
1.154514 1.359747 -0.671075 173 177 179
1.376480 1.285657 -0.532059 57 71 84
1.372603 1.275648 -0.523219 85 101 113
1.397639 1.317876 -0.532062 66 68 74
1.395819 1.316732 -0.526402 86 103 119
1.391323 1.301955 -0.523359 92 109 122
1.389113 1.284503 -0.520923 67 82 97
1.431066 1.430558 -0.516790 144 153 155
1.426970 1.421719 -0.527573 115 125 132
1.776392 1.611681 -0.541924 192 134 115
1.785996 1.609259 -0.537863 194 127 102
1.759140 1.607713 -0.541493 209 133 101
2.027864 1.458286 -0.529534 194 124 91
1.469059 1.391039 -0.614634 56 46 41
1.483617 1.371493 -0.606960 52 46 44
1.472798 1.386023 -0.623762 56 45 44
1.628974 1.318272 -0.522455 176 115 94
1.617105 1.288445 -0.522245 175 115 90
1.367274 1.236405 -0.521123 60 74 82
1.225193 1.435267 -0.700984 135 125 124
1.942361 1.583018 -0.553300 173 110 86
1.920384 1.589715 -0.555163 192 120 86
1.929058 1.594254 -0.550053 191 119 86
1.926002 1.592018 -0.541862 174 110 86
2.023293 1.324945 -0.529670 189 124 89
1.495214 1.360292 -0.697618 92 100 114
1.493678 1.357077 -0.665933 54 60 72
1.488321 1.362134 -0.683050 88 112 133
1.497636 1.507769 -0.525562 134 138 143
1.499500 1.505878 -0.520200 234 235 231
1.496883 1.502061 -0.533494 149 153 145
1.608293 1.472695 -0.524356 213 134 98
1.651039 1.355030 -0.524296 205 132 105
1.920417 1.359695 -0.527088 160 102 83
1.497049 1.492479 -0.517481 139 157 168
1.513733 1.471401 -0.523705 84 104 116
1.500135 1.484090 -0.520443 130 146 162
1.541094 1.500117 -0.523413 95 112 126
1.708667 1.349695 -0.524476 207 133 100
1.731886 1.401320 -0.525922 207 134 103
1.486838 1.441560 -0.523532 156 182 196
1.518868 1.463444 -0.524102 165 167 178
1.471239 1.467534 -0.519923 106 121 135
1.480936 1.452819 -0.521103 105 121 134
1.685758 1.286606 -0.522478 167 108 86
1.464509 1.411902 -0.681897 155 147 152
1.467588 1.423986 -0.693035 109 118 136
1.469333 1.423504 -0.675799 104 127 155
1.224830 1.515366 -0.674767 136 138 146
1.232574 1.522072 -0.676674 133 136 141
1.919382 1.588234 -0.535918 174 107 79
1.939383 1.584073 -0.536085 164 99 74
1.969057 1.584134 -0.541793 178 112 79
1.952280 1.583573 -0.540258 184 115 85
1.612219 1.574354 -0.541588 246 227 217
1.633324 1.583634 -0.544767 246 223 215
1.626136 1.573311 -0.548348 232 234 235
1.593968 1.568768 -0.541953 241 213 196
1.603817 1.574910 -0.540946 245 236 226
1.766425 1.351371 -0.525026 200 125 97
1.740370 1.364373 -0.525341 204 128 99
1.364368 1.258829 -0.524855 50 62 72
1.361656 1.239603 -0.523892 57 71 81
1.366189 1.260275 -0.532180 52 48 51
1.370743 1.257352 -0.521801 70 87 99
1.372777 1.268373 -0.536633 66 72 90
1.471165 1.437819 -0.574620 94 105 120
1.483864 1.452509 -0.594866 92 105 120
1.485069 1.451713 -0.582047 94 107 123
1.475229 1.435786 -0.606507 91 105 117
1.469916 1.441273 -0.583418 90 105 116
1.495804 1.459565 -0.597973 95 105 120
1.529963 1.528998 -0.514651 208 212 202
1.521904 1.532591 -0.524696 216 220 209
1.530637 1.535125 -0.520877 227 235 222
1.524711 1.533163 -0.535142 159 156 158
1.707417 1.385445 -0.525708 207 132 99
1.468217 1.387136 -0.579455 59 50 50
1.464251 1.377675 -0.557906 39 37 42
1.458300 1.371618 -0.548500 53 58 62
1.464170 1.400385 -0.544229 110 103 101
1.448995 1.390285 -0.536613 200 193 190
1.911518 1.508022 -0.531124 171 113 95
1.898250 1.534399 -0.528870 178 119 99
1.229602 1.456170 -0.694456 140 135 141
1.226375 1.444561 -0.691094 138 136 142
1.226507 1.461923 -0.686342 136 138 144
1.676292 1.446695 -0.524880 211 136 101
1.868513 1.468337 -0.529538 197 126 104
1.878046 1.440550 -0.528288 194 125 104
1.846598 1.429742 -0.528170 198 126 101
1.690543 1.417820 -0.525086 214 138 103
1.916677 1.528294 -0.528850 158 104 93
1.929341 1.514913 -0.531266 157 106 91
1.979681 1.580542 -0.547236 176 110 79
2.003716 1.574228 -0.548413 186 114 80
1.655276 1.588459 -0.546240 249 232 222
1.639544 1.568990 -0.548105 184 160 158
1.514384 1.522541 -0.535052 178 181 177
1.506751 1.515026 -0.524531 115 119 123
1.504980 1.513742 -0.542284 175 180 175
1.518836 1.498968 -0.520626 157 175 189
1.519465 1.517413 -0.517329 172 188 205
1.511928 1.508115 -0.516706 168 173 172
1.819674 1.509143 -0.528818 199 128 100
1.790257 1.510565 -0.528974 205 132 100
1.505402 1.356104 -0.683423 93 72 66
1.526324 1.361571 -0.667668 118 95 88
1.512664 1.359623 -0.693291 88 87 92
1.524084 1.367428 -0.693596 97 77 73
1.780917 1.603381 -0.547697 213 137 103
1.764856 1.605048 -0.549582 215 141 109
1.575918 1.478696 -0.524433 210 133 103
1.541729 1.476038 -0.523617 208 134 102
1.597806 1.538240 -0.523353 214 134 99
1.586284 1.502367 -0.524584 214 132 96
2.027211 1.369984 -0.530460 195 122 88
2.002934 1.386134 -0.529769 192 121 87
2.049417 1.394695 -0.530679 193 124 88
1.978484 1.494303 -0.529874 181 118 91
1.471240 1.415828 -0.591219 216 219 208
1.479374 1.428851 -0.572438 134 139 148
1.476295 1.428677 -0.603495 179 186 182
1.888467 1.339145 -0.525879 191 119 91
1.532235 1.520136 -0.519399 194 207 218
1.562697 1.508052 -0.523055 176 149 138
1.555574 1.526583 -0.522318 231 241 247
1.657533 1.412774 -0.524022 202 126 94
1.483579 1.451347 -0.659722 99 132 158
1.470208 1.435305 -0.645730 93 124 163
1.492624 1.457527 -0.660856 86 121 155
1.468648 1.437268 -0.653573 91 124 161
1.472044 1.434844 -0.631581 100 133 172
1.469143 1.432609 -0.673250 84 113 147
1.485387 1.449319 -0.643448 86 121 155
1.815056 1.464327 -0.528900 201 129 105
1.807217 1.491163 -0.528543 199 127 102
1.876667 1.312024 -0.525567 181 115 87
1.138766 1.249048 -0.657204 143 150 178
1.149129 1.239670 -0.661546 125 131 164
1.112004 1.255233 -0.653910 117 118 148
1.144373 1.272826 -0.661968 89 93 112
1.127038 1.238549 -0.652451 142 149 178
1.483231 1.423329 -0.523887 162 180 198
1.460443 1.407118 -0.525273 173 196 205
1.479918 1.404695 -0.522755 170 140 138
1.779397 1.387585 -0.526981 204 130 100
1.798917 1.377695 -0.526441 202 128 96
1.659980 1.502820 -0.525340 207 128 97
1.649525 1.520102 -0.524638 210 130 97
1.528932 1.339053 -0.520993 179 116 89
1.987467 1.517352 -0.525816 191 123 90
1.467084 1.410077 -0.665584 160 153 152
1.467772 1.405455 -0.648340 186 178 176
1.436806 1.357163 -0.527371 131 140 136
1.414436 1.334337 -0.528223 57 64 67
1.413972 1.335909 -0.532027 51 48 52
1.435030 1.357233 -0.532066 55 56 55
1.437210 1.355893 -0.537615 57 50 51
1.436047 1.345021 -0.540676 47 45 51
1.774220 1.418253 -0.526605 203 131 101
1.671549 1.345024 -0.523375 206 131 99
1.535453 1.381070 -0.654812 43 43 52
1.546721 1.371248 -0.644095 60 64 71
1.541105 1.376439 -0.647922 72 87 108
1.474638 1.408643 -0.557005 213 200 191
1.477727 1.416500 -0.548874 212 204 199
1.481040 1.433769 -0.548375 116 125 133
1.476388 1.422387 -0.575873 221 213 204
1.486873 1.428030 -0.560778 198 191 189
1.473310 1.422701 -0.543399 157 158 164
1.172360 1.292360 -0.669601 97 93 103
1.175044 1.281859 -0.683584 93 96 115
1.182508 1.296165 -0.677248 94 90 96
1.178043 1.283138 -0.674988 88 87 101
2.025483 1.519385 -0.526405 187 122 86
1.508801 1.290782 -0.520720 162 105 89
1.534042 1.312445 -0.521340 162 105 87
1.496376 1.317387 -0.520113 162 104 86
1.374883 1.283989 -0.527984 54 72 87
1.659667 1.589411 -0.536401 215 207 211
1.662603 1.567798 -0.524348 216 141 105
1.678374 1.591307 -0.532565 208 202 204
1.684741 1.572487 -0.524742 203 149 130
1.908144 1.571000 -0.526646 179 112 86
1.895984 1.575837 -0.526184 180 114 89
1.471804 1.423437 -0.659865 162 169 175
1.470204 1.422699 -0.644652 159 168 180
1.120670 1.290683 -0.664133 102 100 105
1.134171 1.284065 -0.662352 96 90 94
1.126656 1.305754 -0.665043 99 96 100
1.720735 1.595080 -0.532046 199 155 136
1.709620 1.600836 -0.535168 231 210 213
1.731491 1.601466 -0.534512 187 172 175
1.535786 1.390709 -0.669147 60 66 74
1.677668 1.324008 -0.523392 199 126 96
1.639895 1.432993 -0.523886 205 128 99
1.654356 1.458226 -0.525057 201 126 92
1.205802 1.437348 -0.675742 143 147 154
1.176919 1.427695 -0.673926 149 158 167
1.201517 1.458800 -0.673431 143 147 155
1.468390 1.392876 -0.653951 70 53 50
1.796120 1.609481 -0.544938 204 125 98
1.808102 1.608818 -0.547234 211 139 112
1.819099 1.609068 -0.544501 168 118 99
1.820417 1.323695 -0.525951 204 128 89
1.815419 1.340695 -0.525645 201 124 86
2.176254 0.853894 -0.823666 51 41 35
2.106415 0.860244 -0.830152 98 78 71
2.105412 0.857920 -0.812243 97 76 71
2.103347 0.866593 -0.796777 33 29 24
2.177996 0.936018 -1.082684 37 50 74
2.182448 0.924595 -1.077970 58 58 56
2.131845 0.823098 -1.045490 49 42 46
2.142816 0.823976 -1.036106 53 45 41
2.182612 0.857052 -1.019411 51 55 54
2.209181 0.922915 -1.077932 74 82 80
2.127347 0.827960 -0.927845 57 42 42
2.145165 0.821722 -0.932695 57 52 57
2.141146 0.821463 -0.920292 57 43 38
2.136782 0.819568 -0.950291 57 53 57
2.106707 0.905353 -0.725139 44 52 65
2.106297 0.893179 -0.727869 45 47 44
2.085051 0.900536 -0.695957 46 52 61
2.095852 0.908748 -0.713562 55 63 79
2.166798 0.842900 -0.714221 50 43 29
2.171189 0.849005 -0.732112 53 36 27
2.174477 0.854571 -0.710756 54 39 28
2.139243 0.831759 -0.701506 42 36 27
2.285397 1.006741 -1.091241 75 75 71
2.304276 1.010878 -1.087566 79 79 73
2.288452 0.986209 -1.086868 57 65 66
2.265481 0.981549 -1.087406 60 68 71
2.284783 0.994408 -1.093208 62 71 74
2.187332 1.007554 -1.085523 56 69 79
2.182034 0.976740 -1.085457 50 62 73
2.044065 0.824524 -1.079278 45 62 81
2.055859 0.836093 -1.080777 47 62 83
2.148294 0.893871 -0.913902 82 84 78
2.143590 0.893040 -0.901760 76 81 78
2.186491 0.893531 -1.030565 79 80 74
2.191668 0.895999 -1.041295 92 94 90
2.176058 0.888453 -1.032408 75 79 75
2.200448 0.900229 -1.044284 78 80 74
2.210219 0.875897 -1.070127 84 92 103
2.202049 0.874658 -1.048934 86 95 105
2.221153 0.868949 -1.085001 81 90 99
2.219556 0.881530 -1.076104 92 103 112
2.268575 1.218393 -1.086404 60 65 67
2.296250 1.221025 -1.088147 45 47 51
2.034332 0.803694 -1.080398 51 59 69
2.203867 1.082589 -1.086047 59 72 82
2.039289 1.044871 -1.081636 71 66 56
2.077184 1.056941 -1.080792 73 68 67
2.051942 1.027165 -1.080895 52 58 93
2.179898 0.848905 -1.046715 59 42 36
2.172456 0.845962 -1.029279 52 57 64
2.207891 0.840194 -1.086046 61 58 64
2.227738 0.848893 -1.086451 89 90 97
2.201581 0.827311 -1.082986 53 57 59
2.113532 0.881909 -0.824697 38 35 30
2.105246 0.876001 -0.796962 51 53 49
2.128034 0.945900 -1.084697 47 61 95
2.052558 1.058806 -1.082498 78 74 73
2.176648 0.855088 -0.909008 45 39 35
2.180607 0.859222 -0.895632 61 46 34
2.176663 0.847204 -0.994772 64 68 66
2.142355 0.822273 -0.899096 60 48 42
2.143226 0.823615 -0.874957 61 41 35
2.264781 1.027609 -1.088738 75 81 82
2.249188 1.006327 -1.089139 69 74 75
2.250118 1.023267 -1.087123 76 82 82
2.118423 0.867317 -0.970438 95 78 74
2.131557 0.875946 -0.991620 88 71 75
2.110724 0.853922 -0.972606 97 82 76
2.117386 0.863007 -0.984751 86 72 74
2.144683 0.874901 -1.040785 91 76 78
2.153822 0.880497 -1.053096 77 72 74
2.145400 0.877388 -1.031103 88 78 80
2.164791 0.881000 -1.041540 91 72 75
2.156057 0.879358 -1.030079 86 75 87
2.186340 0.890956 -1.052211 101 76 67
2.178506 1.020251 -1.084562 45 59 69
2.154706 1.026264 -1.083867 35 46 60
2.153036 1.039731 -1.084428 41 54 68
2.183690 0.866350 -0.856645 55 42 36
2.177422 0.856974 -0.854393 57 41 32
2.184981 0.867449 -0.839563 53 36 32
2.132565 0.895837 -0.840640 53 57 57
2.138672 0.899803 -0.844787 54 52 49
2.116944 0.882286 -0.853505 54 59 59
2.136003 0.895957 -0.861585 54 59 59
2.125062 0.893107 -0.828202 75 79 74
2.141642 0.899685 -0.834172 82 88 84
2.069910 1.202019 -1.087403 83 97 112
2.089365 1.177159 -1.086602 99 109 122
2.070095 1.183206 -1.088138 113 122 136
2.040824 1.205023 -1.087620 111 115 126
2.122808 0.904537 -0.747144 61 64 62
2.316402 1.019227 -1.084632 76 79 72
2.175234 1.182754 -1.083371 115 134 147
2.199148 1.183742 -1.081663 104 125 135
2.205359 1.201136 -1.079173 102 122 132
2.321272 1.172487 -1.088115 90 96 93
2.093081 0.869928 -0.712975 63 66 61
2.098281 0.863087 -0.723331 68 72 66
2.103623 0.857559 -0.714060 68 69 70
2.097774 0.885487 -0.717842 56 61 56
2.096935 0.876807 -0.728377 57 58 56
2.320670 1.051981 -1.086812 52 56 52
2.114762 0.836938 -0.988181 59 42 36
2.112394 0.839778 -0.969279 87 68 58
2.113367 0.842160 -0.985458 89 70 61
2.188502 0.861625 -1.037815 95 100 110
2.190545 0.866452 -1.026480 64 70 69
2.141429 0.769625 -1.081425 39 44 73
2.178436 0.863827 -0.740557 56 47 41
2.183753 0.869917 -0.739158 58 46 40
2.184406 0.868182 -0.755999 60 44 40
2.053055 1.087783 -1.084768 92 91 92
2.130930 0.867501 -1.070614 41 52 69
2.146728 0.878555 -1.059663 57 61 66
2.169116 0.884722 -1.064433 68 65 64
2.176066 0.857538 -0.763410 54 40 31
2.162208 0.839160 -0.747078 81 57 42
2.171071 0.848873 -0.757785 96 68 48
2.147573 0.831028 -0.733752 90 60 41
2.142423 0.830607 -0.732189 109 70 44
2.143311 0.829101 -0.747330 78 56 44
2.152843 0.831632 -0.759479 50 39 31
2.072176 0.794542 -1.080571 46 59 80
2.059155 0.810369 -1.080830 47 59 79
2.273221 0.927545 -1.087445 72 73 69
2.267753 0.911055 -1.084372 65 68 63
2.127956 0.858728 -1.030510 83 71 65
2.070919 1.134695 -1.084714 109 104 108
2.263458 0.931966 -1.089361 71 69 66
2.270007 0.939149 -1.085786 66 68 64
2.266733 0.942070 -1.083484 61 64 61
2.105762 1.172675 -1.083972 95 101 120
2.126987 0.983362 -1.084381 41 57 89
2.141644 0.887277 -0.934438 73 75 70
2.147870 0.886598 -0.939308 85 77 72
2.156316 0.882970 -0.938746 71 61 54
2.142851 0.883621 -0.952776 73 75 70
2.164131 0.885571 -0.946448 66 59 54
2.162980 0.834730 -0.870201 56 43 35
2.152355 0.827859 -0.869606 57 42 35
2.050564 0.976639 -1.081228 35 54 91
2.052525 1.000623 -1.081534 47 61 104
2.060668 0.695320 -1.079986 98 94 91
2.155491 1.155006 -1.083402 114 131 145
2.171976 1.157916 -1.082687 121 141 152
2.143395 1.164790 -1.082493 132 148 164
2.179844 1.094615 -1.085782 86 102 113
2.155642 1.089510 -1.084661 93 114 128
2.145051 1.100285 -1.084710 101 123 140
2.170186 1.106191 -1.085033 106 122 135
2.124257 0.828938 -0.988950 59 43 44
2.134764 0.825172 -1.001530 57 40 41
2.122348 0.827885 -1.032823 56 40 38
2.122187 0.829958 -1.005890 56 40 38
2.116665 0.850126 -1.000153 98 72 66
2.282743 1.145452 -1.088519 67 72 67
2.295263 1.135847 -1.090618 84 88 84
2.231977 1.057598 -1.085171 44 51 53
2.264452 1.046175 -1.087235 72 74 70
2.160082 0.826887 -0.975585 78 80 93
2.169600 0.837785 -0.979493 58 42 32
2.167583 0.836097 -0.956670 57 42 32
2.168966 0.835924 -0.988978 57 39 31
2.123505 0.835376 -0.858199 60 39 35
2.116279 0.844338 -0.880979 99 76 67
2.109043 0.850473 -0.862744 105 78 70
2.138718 0.824122 -0.878572 59 38 34
2.125596 0.833699 -0.873709 59 40 35
2.116255 0.844109 -0.858434 96 74 65
2.134565 0.833266 -0.731350 82 57 41
2.117651 0.850517 -0.712228 45 35 27
2.110444 0.861735 -0.911541 93 83 79
2.118268 0.872373 -0.900135 88 84 80
2.130788 0.882950 -0.913449 77 83 82
2.185678 1.169630 -1.084161 118 135 149
2.205277 1.162720 -1.082324 111 126 135
2.288096 0.950897 -1.084652 68 71 66
2.107572 0.884014 -0.756455 52 56 51
2.233551 1.040367 -1.085957 58 69 74
2.204337 1.052198 -1.086060 52 66 74
2.225735 1.011378 -1.086006 64 75 82
2.220383 1.029401 -1.085944 53 66 72
2.125215 0.888436 -1.083328 42 51 86
2.111904 0.907255 -1.084467 44 61 99
2.078918 1.214195 -1.087129 96 109 126
2.072103 1.233017 -1.087476 93 111 128
2.256797 0.988033 -1.086847 59 72 77
2.226099 0.995876 -1.086080 61 67 83
2.227877 0.915507 -1.079284 68 70 66
2.220955 0.889657 -1.068241 80 89 93
2.231928 0.896784 -1.077964 78 81 82
2.212404 0.909296 -1.074703 82 86 91
2.203232 0.912748 -1.075653 82 89 94
2.199937 0.923779 -1.078133 88 95 102
2.195543 0.968093 -1.083819 55 65 75
2.196748 0.947942 -1.083991 54 68 80
2.209747 0.967647 -1.083853 60 74 84
2.113793 0.851291 -0.766921 94 67 51
2.107102 0.856637 -0.786716 64 49 34
2.131907 1.210790 -1.083732 118 136 150
2.170273 0.837368 -1.040747 52 43 32
2.146136 0.825011 -1.011639 55 45 44
2.164585 0.833426 -1.029739 57 45 42
2.151591 0.825926 -1.036268 53 51 53
2.167675 0.830433 -1.056320 50 50 51
2.139759 0.894609 -0.880433 74 77 66
2.127378 0.902453 -0.761792 38 42 39
2.112214 0.888864 -0.775942 62 65 61
2.119501 0.895312 -0.766627 43 47 44
2.129152 0.901695 -0.773452 50 54 50
2.126740 0.901106 -0.788629 58 62 58
2.155758 0.804094 -1.080623 39 43 45
2.148140 0.786475 -1.082322 38 46 54
2.146578 0.821806 -1.054936 48 49 51
2.147987 0.811643 -1.076065 41 40 42
2.155445 0.818073 -1.071367 40 43 44
2.170539 0.812903 -1.080673 40 43 44
2.312108 1.229340 -1.085617 52 55 58
2.226325 1.223488 -1.081083 57 70 74
2.101933 0.856389 -0.733837 49 48 45
2.101031 0.854688 -0.759751 49 36 29
2.281593 1.025825 -1.087590 74 77 71
2.299731 1.022594 -1.088409 75 77 72
2.157294 0.829252 -0.880610 55 43 35
2.169502 0.840472 -0.903878 61 43 34
2.162486 0.831877 -0.917247 57 43 36
2.171474 0.846746 -0.884272 61 39 31
2.184090 0.867512 -0.813289 52 43 38
2.183507 0.866762 -0.827778 56 43 35
2.108943 0.859635 -0.871008 101 82 77
2.136265 0.832455 -0.741018 39 35 26
2.119006 0.848982 -0.727988 51 37 23
2.116790 0.849505 -0.751871 103 63 47
2.140372 0.830658 -0.759315 36 32 24
2.129899 0.838720 -0.746460 80 58 43
2.111984 0.853804 -0.738637 84 56 37
2.154834 0.916442 -1.082253 46 57 77
2.136415 0.918955 -1.084396 41 57 83
2.161794 0.946930 -1.085161 41 59 83
2.235859 1.171615 -1.085770 76 82 78
2.186193 1.127765 -1.084748 55 70 81
2.207934 1.130696 -1.086806 61 74 79
2.108991 0.925577 -1.083808 36 50 86
2.308560 1.038477 -1.084709 36 41 36
2.149879 0.895334 -0.932449 80 79 75
2.153901 0.889186 -0.936371 75 72 69
2.168016 0.839401 -1.008020 58 39 31
2.158020 0.829154 -1.015746 73 85 110
2.160251 0.829736 -1.000303 71 68 67
2.176252 0.852227 -1.008910 60 45 37
2.058675 0.875653 -1.082400 47 62 84
2.039660 0.879864 -1.081729 37 47 82
2.058766 0.889891 -1.083872 44 53 88
2.141692 0.820383 -0.977774 60 61 72
2.188276 0.874066 -0.722942 55 44 35
2.175377 0.860126 -0.722981 53 42 36
2.190921 0.876119 -0.709551 58 46 38
2.192557 1.152980 -1.084836 70 88 94
2.196580 1.068904 -1.087012 60 73 81
2.224494 1.072840 -1.086425 46 60 67
2.249888 1.161993 -1.087728 82 86 86
2.256299 1.173168 -1.085955 60 67 66
2.257560 1.135949 -1.086775 61 69 65
2.246336 1.120152 -1.087143 72 74 69
2.187360 1.200574 -1.082704 109 132 143
2.159071 1.202863 -1.083330 112 132 143
2.161836 1.173799 -1.083576 113 134 148
2.151415 1.189964 -1.083836 119 140 153
2.109734 0.895478 -0.743164 33 34 32
2.123918 0.740695 -1.081634 41 56 73
2.119378 0.839371 -1.025830 81 60 55
2.118369 0.835381 -1.012289 56 42 34
2.122470 0.847461 -1.033545 106 82 76
2.123373 0.848857 -1.054154 89 68 56
2.116234 1.060359 -1.082981 84 101 114
2.169767 0.827100 -1.069021 44 46 43
2.275153 1.174101 -1.085597 59 66 61
2.266425 1.156486 -1.087460 70 77 74
2.289595 1.167649 -1.087308 72 79 74
2.316206 1.146070 -1.087627 74 77 73
2.324172 1.136852 -1.086754 70 73 68
2.312911 1.131429 -1.088132 72 76 71
2.171194 1.217224 -1.081033 109 127 138
2.198267 1.215062 -1.081225 87 105 117
2.181729 1.230973 -1.079057 100 117 125
2.204587 1.238037 -1.079008 104 121 130
2.110528 0.850026 -0.916989 97 74 66
2.137385 0.823174 -0.904619 55 41 35
2.130874 0.828240 -0.898637 58 41 36
2.112064 0.846800 -0.895415 74 55 50
2.116187 0.841647 -0.910683 64 46 40
2.178245 0.857888 -0.920824 64 64 58
2.182159 0.863640 -0.910283 64 57 49
2.103084 0.778193 -1.081792 46 56 77
2.112784 0.796801 -1.081907 35 51 71
2.107368 0.761003 -1.081543 44 58 73
2.301576 0.994745 -1.083589 67 66 63
2.180236 0.863654 -0.795096 59 53 46
2.180254 0.861524 -0.780233 62 57 52
2.182784 0.864292 -0.764867 58 55 50
2.185750 0.869790 -0.784543 52 39 36
2.083512 0.978809 -1.084283 38 53 89
2.099450 0.993919 -1.082439 40 57 96
2.052167 1.153695 -1.087457 102 100 114
2.035808 1.175049 -1.088279 115 110 122
2.256258 0.963925 -1.078926 61 63 61
2.259189 0.945797 -1.086296 42 46 44
2.235463 0.978192 -1.083794 58 63 64
2.267704 0.969061 -1.079305 61 65 62
2.174136 0.850917 -0.869372 60 42 33
2.309578 1.107718 -1.087548 50 49 48
2.315554 1.085505 -1.088295 29 30 27
2.325864 1.107227 -1.087052 35 36 30
2.139894 0.896664 -1.082846 53 61 77
2.173137 0.921960 -1.080328 60 55 57
2.160553 0.907877 -1.079550 44 53 70
2.158497 0.891619 -1.067253 47 52 70
2.168843 0.905521 -1.073504 46 52 73
2.116952 0.848790 -0.799866 34 29 29
2.118763 0.845361 -0.816505 59 40 33
2.124938 0.841625 -0.792923 61 43 36
2.107108 0.855613 -0.802327 91 71 64
2.167711 0.836470 -0.934728 58 40 33
2.160131 0.828898 -0.937855 66 61 59
2.174788 0.848413 -0.955827 60 43 34
2.156693 0.826270 -0.951620 84 84 91
2.147895 0.827922 -0.817264 57 42 35
2.152959 0.831579 -0.790430 64 50 45
2.164370 0.839081 -0.800932 41 37 34
2.174884 0.851068 -0.799846 42 37 28
2.099189 1.210831 -1.085527 97 114 132
2.109919 1.226695 -1.085010 89 102 118
2.238729 0.876303 -1.086184 67 64 63
2.079142 0.819670 -1.082134 42 57 80
2.101647 0.846869 -1.080202 48 55 77
2.099565 0.860054 -1.081291 40 53 82
2.108309 0.855143 -1.079612 37 51 85
2.138330 0.877440 -1.005435 90 74 82
2.126195 0.865342 -1.005846 89 67 64
2.112303 0.875670 -0.853088 93 77 73
2.118498 0.863381 -1.079423 35 53 83
2.133626 0.882917 -1.080749 45 56 82
2.132026 0.861533 -1.050124 54 52 72
2.138927 0.881669 -1.077073 41 52 73
2.242842 0.958981 -1.084551 55 63 70
2.252524 0.973827 -1.085774 58 63 64
2.099973 0.860451 -0.774090 37 35 30
2.100204 0.867874 -0.786040 64 50 38
2.103222 0.877842 -0.770077 65 68 63
2.167226 0.790709 -1.082935 28 44 55
2.107143 0.874048 -0.813335 78 72 66
2.107942 0.864674 -0.840283 98 77 71
2.108387 0.854472 -0.850622 106 79 71
2.153537 1.013375 -1.082383 28 43 61
2.110330 0.980684 -1.084744 43 57 90
2.117926 1.005664 -1.083355 39 54 85
2.091372 1.072681 -1.081154 95 100 111
2.113883 1.074396 -1.084088 94 105 122
2.076317 1.085501 -1.081779 88 87 91
2.194324 0.868066 -1.042244 86 92 108
2.188817 0.856303 -1.056414 57 60 70
2.139693 0.830077 -0.776520 39 34 29
2.130085 0.837084 -0.770876 54 41 28
2.114726 0.852248 -0.778739 31 32 26
2.140914 0.828573 -0.798980 35 33 29
2.107719 0.846724 -0.953377 97 72 62
2.063148 1.099239 -1.084028 88 80 79
2.087536 1.090535 -1.082252 96 92 93
2.098207 0.806629 -1.082201 40 53 75
2.098753 0.827153 -1.082562 34 43 74
2.178758 1.058304 -1.086732 47 60 70
2.209044 1.005492 -1.084978 53 66 73
2.192527 1.025792 -1.084403 40 56 63
2.163671 0.885872 -1.005598 85 82 88
2.140767 0.880617 -0.992165 87 87 95
2.160272 0.884511 -0.988013 86 80 83
2.167982 0.884509 -1.017431 87 82 87
2.149181 0.879852 -1.009649 81 80 90
2.076283 0.833742 -1.081264 45 61 82
2.071084 0.849004 -1.081395 43 59 81
2.098786 0.727747 -1.080485 48 59 73
2.082479 0.756995 -1.080736 52 62 71
2.092690 0.746923 -1.080165 47 59 75
2.241214 0.922748 -1.081618 66 72 65
2.251617 0.931081 -1.082798 57 53 52
2.231212 0.933473 -1.082639 69 70 65
2.109115 0.841630 -0.949472 95 70 62
2.182679 0.865331 -0.877110 51 37 35
2.109110 0.851855 -0.829584 92 72 64
2.139501 0.881715 -0.968764 79 74 76
2.150456 0.884260 -0.962615 79 72 78
2.159669 0.885159 -0.971492 44 48 52
2.052587 0.770004 -1.079929 57 59 70
2.046463 0.788681 -1.078265 91 89 91
2.070662 0.781875 -1.080054 57 58 69
2.116331 0.868166 -0.930667 83 79 78
2.109156 0.855612 -0.949129 110 80 72
2.129947 0.877634 -0.947671 93 78 75
2.112230 0.859506 -0.923282 102 79 74
2.084567 0.911884 -1.084673 45 64 97
2.105324 0.949404 -1.085853 44 56 90
2.068170 0.945235 -1.082449 39 57 92
2.253013 1.231590 -1.083716 63 67 67
2.232258 0.945015 -1.085365 52 63 68
2.216484 0.942755 -1.083828 53 61 61
2.290607 1.076111 -1.086022 33 34 34
2.289133 1.044078 -1.088184 34 36 36
2.279652 1.057812 -1.086145 33 33 33
2.060933 0.923725 -1.082064 35 49 81
2.077332 1.031107 -1.080600 48 63 92
2.131780 0.821594 -0.969581 62 52 54
2.138352 1.068353 -1.082672 84 100 108
2.165871 0.838936 -0.831935 59 46 37
2.172134 0.845548 -0.847573 61 43 35
2.158460 0.831341 -0.852096 61 44 36
2.148217 0.827126 -0.843643 58 45 35
2.156722 0.832183 -0.826741 62 44 36
2.115016 1.198746 -1.082848 85 98 118
2.163253 1.120259 -1.084302 124 141 154
2.170129 1.141463 -1.084636 119 134 150
2.068614 1.116563 -1.083576 104 100 106
2.106483 1.106513 -1.083120 107 107 114
2.093080 1.152583 -1.083450 108 106 112
2.216193 1.191900 -1.078904 59 72 79
2.232792 1.206143 -1.081261 63 66 67
2.217290 1.172940 -1.081568 86 103 109
2.227098 1.185630 -1.081261 66 71 70
2.115383 1.151295 -1.082705 114 132 147
2.128236 1.179880 -1.082601 107 123 141
2.264716 0.893026 -1.085975 61 49 45
2.057382 0.739574 -1.080884 78 77 85
2.090874 1.015275 -1.082441 47 61 103
2.075525 0.988172 -1.082552 41 63 101
2.140162 0.826000 -0.851675 57 44 37
2.128665 0.831657 -0.850391 57 42 36
2.139193 0.827776 -0.817479 56 43 35
2.269739 1.204345 -1.086712 60 60 64
2.254412 1.188808 -1.085922 47 50 51
2.148448 0.820236 -0.965970 82 83 94
2.109005 0.850695 -0.895677 106 80 72
2.178482 0.852325 -0.971343 59 45 37
2.178843 0.854326 -0.980566 67 56 53
2.131766 0.900077 -0.814633 61 65 62
2.118300 0.890785 -0.806296 66 68 64
2.196869 0.847834 -1.077839 55 45 42
2.212491 0.852658 -1.084037 63 58 62
2.186471 0.845979 -1.066471 58 40 34
2.192394 0.836278 -1.082870 56 53 49
2.181169 0.833618 -1.076453 45 49 51
2.150433 1.220922 -1.083034 90 109 123
2.164826 1.232840 -1.081523 111 127 141
2.107830 0.912881 -0.719022 58 67 79
2.122581 0.911319 -0.740634 35 37 38
2.201248 0.811651 -1.085057 45 50 48
2.176083 0.820835 -1.078731 45 50 48
2.146418 0.755695 -1.082313 37 49 68
2.178938 0.856160 -0.954654 70 69 67
2.173954 0.849658 -0.934565 64 67 64
2.300667 1.083432 -1.086463 33 36 32
2.279532 1.108123 -1.089801 38 38 36
2.297082 1.107906 -1.088527 47 48 45
2.222693 1.155534 -1.086103 63 74 76
2.253115 1.204297 -1.083630 53 55 57
2.254859 1.112430 -1.088712 49 51 48
2.263465 1.074146 -1.085975 45 50 53
2.277812 1.093524 -1.087818 37 39 36
2.248752 1.089964 -1.086199 32 32 31
2.271568 1.186412 -1.085472 55 56 57
2.289873 1.201622 -1.087161 53 58 55
2.313939 1.194472 -1.090706 41 44 43
2.313193 1.208048 -1.088355 50 56 55
2.210382 1.116120 -1.086017 63 68 63
2.231044 1.140047 -1.086170 61 71 67
2.269414 1.000734 -1.090881 56 66 73
2.098782 1.047546 -1.081252 88 106 120
2.136737 1.048744 -1.082766 66 82 92
2.121224 1.015865 -1.083803 73 87 107
2.120928 1.041173 -1.083246 79 90 105
2.237411 0.906496 -1.074046 58 58 56
2.244621 0.916604 -1.079485 70 70 67
2.247675 0.899765 -1.082588 80 92 97
2.244363 0.908475 -1.082952 60 62 61
2.072532 0.728577 -1.080480 116 105 100
2.077960 0.712631 -1.080445 115 104 100
2.094512 0.963598 -1.085616 38 57 95
2.066507 0.965557 -1.083174 36 49 83
2.147617 0.822267 -0.919328 61 52 47
2.182687 0.802694 -1.083304 43 48 54
2.145558 0.902195 -0.873516 35 36 30
2.168193 1.076491 -1.084409 56 71 84
2.188976 1.110803 -1.085262 54 67 82
2.118159 0.848951 -1.069671 31 36 52
2.108358 0.833973 -1.078178 35 41 70
2.120296 0.839278 -1.049488 33 33 48
2.116471 0.828761 -1.069688 26 35 56
2.118598 0.832618 -1.059631 33 42 72
2.225863 1.111097 -1.085431 52 64 74
2.242520 1.096531 -1.087323 46 55 57
2.123959 1.097336 -1.084918 106 116 129
2.146056 0.829162 -0.783224 39 36 32
2.165565 0.839671 -0.773443 49 37 29
2.176280 0.850967 -0.780623 38 33 25
2.151502 1.112859 -1.083623 108 129 150
2.132060 1.125175 -1.083195 117 135 155
2.169322 0.888714 -1.070289 59 64 74
2.175598 0.914543 -1.075285 58 56 63
2.185702 0.905122 -1.078488 54 56 63
2.196501 0.897377 -1.060410 96 83 86
2.200518 0.902773 -1.068247 58 67 72
2.182164 0.895261 -1.072698 62 70 73
2.106639 0.872192 -1.082928 39 55 87
2.083879 0.892435 -1.084114 37 53 86
2.070436 0.863569 -1.081165 36 49 84
2.136551 0.797129 -1.080529 39 45 72
2.131279 0.811038 -1.077093 36 44 63
2.115386 0.821064 -1.079083 30 44 69
2.135118 0.819092 -1.063623 36 41 62
2.126065 0.824839 -1.054761 37 39 47
2.256684 0.918142 -1.089327 65 66 63
2.115222 0.842702 -0.928995 94 73 67
2.123964 0.826621 -0.954447 58 41 34
2.182156 0.949901 -1.084671 38 53 82
2.154840 0.964823 -1.084825 49 61 89
2.165974 0.992306 -1.085901 40 58 87
2.121072 0.878999 -0.885065 86 87 86
2.112864 0.869690 -0.883319 97 85 81
2.128705 0.886218 -0.872136 88 95 99
2.276968 0.956058 -1.080337 71 74 69
2.279741 0.978012 -1.081179 59 67 68
2.295183 0.980516 -1.078646 69 72 66
2.275556 0.967163 -1.071490 65 67 65
2.285048 0.968688 -1.073177 64 69 63
2.296338 0.966959 -1.085528 71 77 70
2.307889 1.056925 -1.089569 31 34 33
2.311769 1.070641 -1.091613 38 41 36
2.211895 0.956614 -1.085614 59 65 73
2.240921 0.969277 -1.084925 55 66 73
2.097005 0.863816 -0.751821 64 67 63
2.098158 0.861776 -0.739775 66 67 67
2.101158 0.875021 -0.744512 61 62 60
2.123064 1.108260 -1.083792 121 132 147
2.097990 1.129537 -1.082315 124 137 148
2.143038 1.142211 -1.084294 123 142 155
2.119945 1.140312 -1.083477 124 141 158
2.310832 0.989076 -1.082370 83 87 83
2.102042 0.889553 -1.083229 41 57 96
2.158445 0.837056 -0.661588 107 72 50
2.171968 0.857340 -0.663451 58 48 44
2.144670 0.834103 -0.669501 62 53 42
2.163465 0.841219 -0.648352 61 57 45
2.167285 0.843119 -0.665778 60 54 42
2.150876 0.835809 -0.639760 58 50 37
2.169495 0.856028 -0.630196 103 78 59
2.113006 0.856759 -0.624775 127 91 75
2.104524 0.862202 -0.634933 104 80 71
2.298534 1.124068 -0.532559 172 114 75
2.298118 1.132110 -0.535163 179 123 82
2.279284 1.133527 -0.532139 183 120 76
2.295299 1.139274 -0.532525 178 126 91
2.277619 1.127309 -0.533053 173 119 88
2.298828 1.115899 -0.533138 177 120 79
2.276542 1.114357 -0.531391 179 114 71
2.302712 1.136925 -0.534452 180 180 172
2.218771 1.230117 -0.527600 192 128 89
2.236667 1.247416 -0.528452 208 130 82
