ply
format ascii 1.0
element vertex 1303
property float x
property float y
property float z
property uchar red
property uchar green
property uchar blue
end_header
0.142477 0.162636 -0.098388 0 255 255
-0.123271 0.122068 -0.108388 0 255 255
0.073658 0.100553 -0.106388 0 255 255
0.210785 0.055962 -0.116285 0 255 255
-0.114359 0.165777 -0.100388 0 255 255
0.207015 0.113109 -0.109307 0 255 255
0.077387 0.193981 -0.100388 0 255 255
0.178168 0.158459 -0.094388 0 255 255
0.049862 0.088792 -0.120388 0 255 255
0.191696 0.173659 -0.100388 0 255 255
0.097335 0.173397 -0.102388 0 255 255
0.215917 0.113976 -0.101366 0 255 255
0.156481 0.123938 -0.108388 0 255 255
0.005781 0.174867 -0.092388 0 255 255
0.095192 0.112006 -0.110388 0 255 255
-0.038584 0.198815 -0.094683 0 255 255
0.186134 0.106128 -0.106388 0 255 255
-0.037397 0.140518 -0.105301 0 255 255
-0.085942 0.159154 -0.105378 0 255 255
-0.047449 0.142235 -0.109380 0 255 255
-0.000593 0.094256 -0.126388 0 255 255
-0.107463 0.130996 -0.113361 0 255 255
-0.067292 0.143426 -0.108388 0 255 255
0.104405 0.119265 -0.110388 0 255 255
-0.020474 0.101888 -0.104388 0 255 255
-0.104261 0.139337 -0.112388 0 255 255
0.031177 0.137761 -0.104388 0 255 255
0.033838 0.197731 -0.100388 0 255 255
-0.053881 0.097574 -0.110442 0 255 255
0.160655 0.081632 -0.115310 0 255 255
-0.103578 0.118793 -0.115309 0 255 255
0.187283 0.159244 -0.100388 0 255 255
0.008906 0.133456 -0.100388 0 255 255
0.145261 0.069431 -0.126388 0 255 255
0.187033 0.167091 -0.098388 0 255 255
0.176181 0.122077 -0.096388 0 255 255
0.053040 0.180783 -0.097317 0 255 255
0.179100 0.146425 -0.092388 0 255 255
0.171708 0.088100 -0.101588 0 255 255
-0.008407 0.165810 -0.094879 0 255 255
0.002798 0.202212 -0.094388 0 255 255
-0.048146 0.218551 -0.100388 0 255 255
-0.024840 0.201133 -0.100388 0 255 255
0.103580 0.100372 -0.112388 0 255 255
0.213845 0.089064 -0.118388 0 255 255
-0.127567 0.134429 -0.113308 0 255 255
0.182949 0.130916 -0.102388 0 255 255
0.170972 0.114091 -0.105352 0 255 255
0.218752 0.126942 -0.114388 0 255 255
-0.051165 0.115812 -0.109306 0 255 255
0.020431 0.201870 -0.101385 0 255 255
0.114712 0.073561 -0.110313 0 255 255
0.087083 0.163431 -0.103154 0 255 255
0.003349 0.179693 -0.102388 0 255 255
0.054606 0.201605 -0.096888 0 255 255
-0.097297 0.174223 -0.101219 0 255 255
-0.089074 0.117510 -0.102870 0 255 255
-0.049599 0.136633 -0.105208 0 255 255
-0.034265 0.182162 -0.099170 0 255 255
0.164471 0.095164 -0.110388 0 255 255
-0.069686 0.112210 -0.104022 0 255 255
0.046855 0.198154 -0.101379 0 255 255
0.182786 0.137406 -0.094388 0 255 255
0.152114 0.187741 -0.099271 0 255 255
0.165150 0.067053 -0.110388 0 255 255
0.017917 0.153562 -0.102388 0 255 255
0.026008 0.184732 -0.092388 0 255 255
0.005964 0.147439 -0.103258 0 255 255
-0.101464 0.180108 -0.101219 0 255 255
-0.044468 0.194648 -0.097265 0 255 255
0.067364 0.181712 -0.098388 0 255 255
-0.056501 0.152137 -0.105309 0 255 255
0.211820 0.156253 -0.100388 0 255 255
0.042326 0.097063 -0.115323 0 255 255
-0.026556 0.135274 -0.106388 0 255 255
-0.002390 0.187065 -0.097224 0 255 255
-0.121268 0.162002 -0.109291 0 255 255
0.196905 0.064447 -0.116388 0 255 255
0.137081 0.120674 -0.102712 0 255 255
0.028388 0.110982 -0.107183 0 255 255
0.134460 0.175236 -0.099046 0 255 255
0.146115 0.138628 -0.107355 0 255 255
-0.061934 0.115661 -0.115368 0 255 255
0.082180 0.195305 -0.094134 0 255 255
-0.127704 0.111751 -0.110388 0 255 255
0.215182 0.139966 -0.105383 0 255 255
-0.126529 0.166164 -0.104388 0 255 255
-0.079588 0.103157 -0.122893 0 255 255
-0.035113 0.163207 -0.101305 0 255 255
-0.006275 0.199268 -0.101298 0 255 255
-0.021309 0.132201 -0.100147 0 255 255
0.056830 0.095779 -0.115346 0 255 255
-0.026939 0.164353 -0.096388 0 255 255
-0.036625 0.120205 -0.102388 0 255 255
-0.017045 0.134848 -0.108388 0 255 255
-0.083190 0.121677 -0.103749 0 255 255
0.144271 0.172893 -0.094388 0 255 255
0.212352 0.076784 -0.123152 0 255 255
0.061579 0.166794 -0.098388 0 255 255
0.022600 0.179615 -0.099380 0 255 255
-0.066328 0.098633 -0.118388 0 255 255
-0.062651 0.113794 -0.103142 0 255 255
0.028370 0.138838 -0.098136 0 255 255
0.042307 0.124920 -0.099327 0 255 255
0.116108 0.133008 -0.101204 0 255 255
0.154319 0.109772 -0.103711 0 255 255
0.155050 0.134002 -0.106388 0 255 255
0.005287 0.115564 -0.102388 0 255 255
-0.032024 0.196298 -0.100388 0 255 255
0.193855 0.134634 -0.094388 0 255 255
-0.045846 0.107343 -0.104063 0 255 255
-0.021384 0.092938 -0.122388 0 255 255
0.199793 0.178008 -0.095728 0 255 255
0.107904 0.161865 -0.096718 0 255 255
0.017692 0.122183 -0.100388 0 255 255
0.113581 0.126425 -0.108388 0 255 255
0.116293 0.172557 -0.098388 0 255 255
-0.121796 0.188529 -0.108388 0 255 255
0.175933 0.110272 -0.098388 0 255 255
-0.042775 0.123302 -0.102388 0 255 255
-0.115966 0.142329 -0.100388 0 255 255
-0.024194 0.152589 -0.103106 0 255 255
0.083837 0.149681 -0.100388 0 255 255
-0.100181 0.194612 -0.092071 0 255 255
-0.014275 0.097366 -0.126388 0 255 255
0.010885 0.087708 -0.111005 0 255 255
-0.020290 0.112529 -0.109357 0 255 255
0.127801 0.160654 -0.100388 0 255 255
0.159412 0.134202 -0.100388 0 255 255
-0.041962 0.095141 -0.111101 0 255 255
-0.014539 0.099610 -0.117367 0 255 255
-0.057574 0.208248 -0.094388 0 255 255
-0.102277 0.105440 -0.122846 0 255 255
0.190096 0.074615 -0.103060 0 255 255
0.125216 0.131655 -0.108388 0 255 255
0.001013 0.115063 -0.108388 0 255 255
0.160801 0.176887 -0.100388 0 255 255
0.047949 0.173101 -0.100388 0 255 255
-0.028433 0.177782 -0.100388 0 255 255
0.162597 0.075527 -0.116388 0 255 255
-0.105651 0.213849 -0.101339 0 255 255
0.094419 0.143477 -0.100600 0 255 255
0.126990 0.189262 -0.094388 0 255 255
-0.104282 0.195090 -0.102388 0 255 255
0.035216 0.195740 -0.094388 0 255 255
0.024937 0.118734 -0.107300 0 255 255
-0.092365 0.220552 -0.100388 0 255 255
0.230384 0.168407 -0.101341 0 255 255
-0.047166 0.148553 -0.105329 0 255 255
-0.075023 0.148535 -0.098227 0 255 255
-0.034071 0.093371 -0.116388 0 255 255
0.189475 0.145549 -0.099240 0 255 255
0.114542 0.112187 -0.111333 0 255 255
-0.029295 0.143836 -0.098388 0 255 255
0.111323 0.145557 -0.106388 0 255 255
0.093688 0.120192 -0.104388 0 255 255
0.209201 0.062997 -0.121421 0 255 255
-0.071315 0.136401 -0.100388 0 255 255
0.100420 0.128320 -0.102388 0 255 255
-0.057803 0.165489 -0.095910 0 255 255
-0.060024 0.123497 -0.108388 0 255 255
0.156204 0.066202 -0.114388 0 255 255
0.060756 0.078106 -0.114388 0 255 255
0.201112 0.136797 -0.101278 0 255 255
0.105170 0.171484 -0.095554 0 255 255
0.082367 0.128822 -0.109365 0 255 255
0.128849 0.138296 -0.098388 0 255 255
0.164463 0.078028 -0.106388 0 255 255
-0.119551 0.180624 -0.112388 0 255 255
-0.023693 0.215283 -0.096388 0 255 255
-0.093730 0.211415 -0.095259 0 255 255
-0.016068 0.113050 -0.102388 0 255 255
0.029376 0.093464 -0.108388 0 255 255
0.138797 0.130726 -0.100747 0 255 255
-0.063298 0.106526 -0.122388 0 255 255
-0.116180 0.175046 -0.100388 0 255 255
0.061042 0.084430 -0.120388 0 255 255
-0.012028 0.212188 -0.101354 0 255 255
-0.133388 0.119268 -0.120388 0 255 255
0.105976 0.104763 -0.108388 0 255 255
-0.115214 0.127545 -0.115365 0 255 255
-0.107235 0.220884 -0.094853 0 255 255
0.182344 0.071164 -0.103644 0 255 255
0.065562 0.135273 -0.096740 0 255 255
0.145531 0.153849 -0.097800 0 255 255
-0.022062 0.186047 -0.093218 0 255 255
0.089365 0.186119 -0.094744 0 255 255
-0.137369 0.114625 -0.114388 0 255 255
-0.059971 0.187745 -0.099207 0 255 255
-0.063859 0.103546 -0.110388 0 255 255
0.041856 0.157227 -0.094304 0 255 255
-0.087412 0.211132 -0.099164 0 255 255
0.135628 0.100146 -0.106388 0 255 255
0.208713 0.151018 -0.091157 0 255 255
0.137779 0.150397 -0.093240 0 255 255
-0.125220 0.184942 -0.102388 0 255 255
0.055076 0.141440 -0.096696 0 255 255
0.123550 0.157975 -0.092388 0 255 255
0.175406 0.142380 -0.099234 0 255 255
0.138364 0.135177 -0.107276 0 255 255
0.099888 0.124238 -0.109240 0 255 255
0.093419 0.135292 -0.109363 0 255 255
-0.074192 0.195346 -0.091988 0 255 255
0.087534 0.131123 -0.102061 0 255 255
-0.004824 0.175146 -0.094021 0 255 255
-0.090074 0.109324 -0.109455 0 255 255
-0.004125 0.204870 -0.099208 0 255 255
0.024804 0.101646 -0.102890 0 255 255
0.040738 0.081765 -0.114388 0 255 255
0.111849 0.082846 -0.110388 0 255 255
0.081746 0.093722 -0.114388 0 255 255
0.186026 0.172581 -0.094388 0 255 255
0.086986 0.090630 -0.108251 0 255 255
0.087215 0.180519 -0.101318 0 255 255
0.150434 0.121974 -0.102322 0 255 255
0.193264 0.060545 -0.123019 0 255 255
-0.006963 0.175153 -0.100388 0 255 255
0.103321 0.144344 -0.099711 0 255 255
-0.058122 0.214886 -0.099280 0 255 255
-0.073814 0.140521 -0.108388 0 255 255
0.180176 0.093419 -0.106814 0 255 255
0.146982 0.129726 -0.100931 0 255 255
0.006265 0.125901 -0.102238 0 255 255
0.198711 0.158447 -0.094388 0 255 255
0.219049 0.155620 -0.095523 0 255 255
0.200856 0.141712 -0.094388 0 255 255
0.066242 0.192854 -0.094410 0 255 255
-0.020423 0.095442 -0.109966 0 255 255
0.166239 0.107339 -0.104168 0 255 255
-0.017441 0.147854 -0.096481 0 255 255
0.049607 0.160678 -0.094128 0 255 255
0.127781 0.068543 -0.110115 0 255 255
0.083367 0.137007 -0.101462 0 255 255
0.028672 0.117300 -0.101082 0 255 255
0.167919 0.173105 -0.094289 0 255 255
0.199811 0.150151 -0.091678 0 255 255
-0.087979 0.198497 -0.092105 0 255 255
0.024804 0.101646 -0.115378 0 255 255
-0.101994 0.111758 -0.109545 0 255 255
0.138966 0.092099 -0.113194 0 255 255
0.134310 0.186006 -0.101385 0 255 255
0.122860 0.128275 -0.101771 0 255 255
0.116222 0.177953 -0.094675 0 255 255
0.171274 0.092552 -0.109316 0 255 255
-0.048769 0.183444 -0.099289 0 255 255
0.209484 0.069315 -0.115279 0 255 255
0.199696 0.105207 -0.107372 0 255 255
-0.071987 0.117377 -0.115375 0 255 255
0.010301 0.102929 -0.115304 0 255 255
-0.017725 0.141536 -0.105302 0 255 255
0.075181 0.138007 -0.103290 0 255 255
-0.115233 0.155401 -0.111358 0 255 255
0.130064 0.091233 -0.113271 0 255 255
-0.009804 0.106362 -0.115375 0 255 255
0.142965 0.124841 -0.109363 0 255 255
-0.106330 0.156269 -0.105243 0 255 255
-0.041336 0.102349 -0.120388 0 255 255
-0.097320 0.144240 -0.100388 0 255 255
0.211899 0.109092 -0.109305 0 255 255
-0.034566 0.203701 -0.094791 0 255 255
0.163504 0.116957 -0.109281 0 255 255
0.216597 0.171557 -0.101368 0 255 255
-0.045281 0.119980 -0.109289 0 255 255
0.022503 0.106813 -0.109262 0 255 255
0.187079 0.077916 -0.109347 0 255 255
0.089703 0.108868 -0.105212 0 255 255
-0.084623 0.117944 -0.115326 0 255 255
-0.099138 0.215634 -0.094388 0 255 255
-0.088827 0.179542 -0.101323 0 255 255
0.169711 0.177773 -0.100388 0 255 255
0.166431 0.105122 -0.110388 0 255 255
-0.126436 0.159701 -0.112677 0 255 255
0.125816 0.169460 -0.092388 0 255 255
0.175990 0.127160 -0.103331 0 255 255
0.060528 0.150060 -0.101256 0 255 255
-0.036073 0.149546 -0.104388 0 255 255
0.125396 0.067911 -0.118388 0 255 255
0.134629 0.170096 -0.094388 0 255 255
0.035333 0.090010 -0.118388 0 255 255
0.124462 0.093382 -0.107062 0 255 255
0.180182 0.177146 -0.094388 0 255 255
0.207104 0.113341 -0.096388 0 255 255
0.024673 0.084558 -0.115177 0 255 255
-0.091596 0.110941 -0.120388 0 255 255
0.196929 0.058931 -0.110388 0 255 255
0.049725 0.082854 -0.122388 0 255 255
-0.013795 0.090385 -0.114388 0 255 255
0.184478 0.113191 -0.104388 0 255 255
0.052077 0.116884 -0.107338 0 255 255
-0.114780 0.123093 -0.102881 0 255 255
0.145864 0.065424 -0.120388 0 255 255
0.081048 0.170032 -0.103283 0 255 255
-0.133019 0.125810 -0.112646 0 255 255
-0.129585 0.145915 -0.105581 0 255 255
-0.080657 0.100370 -0.116388 0 255 255
-0.077625 0.175242 -0.101249 0 255 255
0.224871 0.154047 -0.104388 0 255 255
0.117052 0.188346 -0.100388 0 255 255
0.092326 0.160347 -0.104388 0 255 255
0.011812 0.207320 -0.095848 0 255 255
0.043120 0.199588 -0.095416 0 255 255
0.195618 0.119626 -0.096388 0 255 255
0.036953 0.189101 -0.094751 0 255 255
0.020202 0.111981 -0.101776 0 255 255
0.024768 0.157360 -0.101325 0 255 255
-0.133498 0.117424 -0.110388 0 255 255
0.118540 0.144928 -0.096388 0 255 255
0.022581 0.207472 -0.099214 0 255 255
0.010017 0.096610 -0.108658 0 255 255
-0.078588 0.111343 -0.115307 0 255 255
0.038912 0.099331 -0.110388 0 255 255
-0.097577 0.156748 -0.098388 0 255 255
-0.079323 0.137331 -0.101950 0 255 255
0.215050 0.122878 -0.107351 0 255 255
0.162270 0.166704 -0.102388 0 255 255
-0.079519 0.139549 -0.112388 0 255 255
0.042572 0.189086 -0.098388 0 255 255
-0.055387 0.205267 -0.101386 0 255 255
-0.010131 0.164329 -0.102388 0 255 255
-0.125550 0.122943 -0.115300 0 255 255
-0.113630 0.120509 -0.115351 0 255 255
0.068749 0.093347 -0.115347 0 255 255
0.101189 0.110886 -0.111311 0 255 255
-0.009521 0.112680 -0.109356 0 255 255
-0.020978 0.188870 -0.100388 0 255 255
0.194151 0.115905 -0.106388 0 255 255
0.147061 0.180157 -0.094388 0 255 255
0.010096 0.197268 -0.099182 0 255 255
-0.070704 0.131881 -0.109327 0 255 255
0.073182 0.121636 -0.105167 0 255 255
-0.056917 0.128731 -0.109358 0 255 255
0.170206 0.075823 -0.116388 0 255 255
0.050378 0.168268 -0.092388 0 255 255
0.133119 0.152186 -0.100388 0 255 255
0.144465 0.141404 -0.098388 0 255 255
-0.119956 0.195776 -0.110388 0 255 255
-0.061739 0.155237 -0.104388 0 255 255
-0.005149 0.118490 -0.110388 0 255 255
0.190361 0.108790 -0.098086 0 255 255
0.157487 0.095702 -0.113319 0 255 255
0.225124 0.171447 -0.100388 0 255 255
0.199731 0.155525 -0.100388 0 255 255
0.030803 0.150758 -0.103358 0 255 255
0.140923 0.072068 -0.122388 0 255 255
0.058509 0.161546 -0.099276 0 255 255
-0.034228 0.126448 -0.101064 0 255 255
0.077687 0.158469 -0.104388 0 255 255
-0.038301 0.113016 -0.114388 0 255 255
-0.012708 0.154606 -0.105224 0 255 255
0.140501 0.138642 -0.094388 0 255 255
0.075784 0.094930 -0.107626 0 255 255
-0.066273 0.123753 -0.108388 0 255 255
0.006023 0.169916 -0.102388 0 255 255
-0.129887 0.167453 -0.109360 0 255 255
-0.090677 0.152401 -0.109365 0 255 255
0.203745 0.060807 -0.110388 0 255 255
0.009632 0.137462 -0.108388 0 255 255
-0.032493 0.108644 -0.115373 0 255 255
-0.052388 0.204115 -0.094388 0 255 255
-0.082660 0.190028 -0.103277 0 255 255
-0.071901 0.184572 -0.100388 0 255 255
-0.057954 0.176259 -0.101283 0 255 255
0.123257 0.179537 -0.101309 0 255 255
-0.097968 0.170197 -0.096388 0 255 255
0.016016 0.145722 -0.096971 0 255 255
-0.069968 0.105891 -0.109546 0 255 255
-0.040294 0.211102 -0.094388 0 255 255
-0.070440 0.166057 -0.095988 0 255 255
0.049605 0.082540 -0.110388 0 255 255
-0.045012 0.201283 -0.098388 0 255 255
0.006398 0.142989 -0.098605 0 255 255
0.017601 0.138688 -0.098466 0 255 255
-0.045431 0.130749 -0.100509 0 255 255
0.087327 0.088357 -0.114388 0 255 255
0.096172 0.097816 -0.106081 0 255 255
0.202828 0.146851 -0.099222 0 255 255
0.147712 0.070235 -0.114388 0 255 255
0.157035 0.128009 -0.101321 0 255 255
0.142080 0.161600 -0.091647 0 255 255
0.130931 0.082330 -0.107691 0 255 255
-0.018177 0.173845 -0.093607 0 255 255
0.191662 0.095438 -0.101384 0 255 255
-0.084160 0.102406 -0.110388 0 255 255
-0.041413 0.135633 -0.101618 0 255 255
-0.094580 0.192461 -0.093088 0 255 255
0.113281 0.069837 -0.120388 0 255 255
0.070050 0.079993 -0.123075 0 255 255
0.174442 0.078483 -0.102873 0 255 255
0.218099 0.102427 -0.106388 0 255 255
0.106366 0.163439 -0.102388 0 255 255
0.111187 0.192739 -0.095622 0 255 255
-0.073138 0.119961 -0.109236 0 255 255
0.139658 0.155293 -0.098388 0 255 255
0.207647 0.134289 -0.102388 0 255 255
-0.087792 0.132014 -0.101235 0 255 255
0.126293 0.148379 -0.093928 0 255 255
0.082668 0.107284 -0.111168 0 255 255
-0.005500 0.106412 -0.102388 0 255 255
-0.022527 0.168091 -0.102388 0 255 255
0.088083 0.171616 -0.095977 0 255 255
0.165174 0.132471 -0.106388 0 255 255
0.180633 0.139257 -0.100388 0 255 255
-0.075287 0.114360 -0.103169 0 255 255
0.002746 0.208658 -0.100388 0 255 255
0.007151 0.089142 -0.122797 0 255 255
0.002079 0.159642 -0.095740 0 255 255
0.106923 0.125822 -0.102461 0 255 255
-0.069535 0.101441 -0.122938 0 255 255
0.127709 0.179971 -0.094121 0 255 255
-0.083660 0.181843 -0.099161 0 255 255
0.052342 0.151059 -0.101215 0 255 255
-0.049334 0.170808 -0.101253 0 255 255
0.225349 0.159628 -0.096388 0 255 255
-0.094784 0.205393 -0.096388 0 255 255
0.075826 0.106203 -0.106388 0 255 255
0.156487 0.087516 -0.115384 0 255 255
-0.102933 0.112118 -0.126388 0 255 255
-0.065988 0.166489 -0.103210 0 255 255
0.115146 0.069111 -0.114388 0 255 255
0.127877 0.141345 -0.105166 0 255 255
0.209580 0.142116 -0.093013 0 255 255
0.021316 0.165111 -0.093921 0 255 255
0.173862 0.063710 -0.124388 0 255 255
0.061659 0.175333 -0.090980 0 255 255
-0.013105 0.103344 -0.103874 0 255 255
-0.006088 0.132785 -0.105215 0 255 255
0.137563 0.183318 -0.094388 0 255 255
-0.068307 0.199515 -0.093847 0 255 255
0.024184 0.172580 -0.099296 0 255 255
0.192831 0.064997 -0.109433 0 255 255
0.111043 0.094249 -0.112388 0 255 255
0.085818 0.121071 -0.109280 0 255 255
-0.049184 0.160039 -0.107347 0 255 255
-0.096282 0.103138 -0.114388 0 255 255
-0.035867 0.217054 -0.101364 0 255 255
0.139012 0.100652 -0.112388 0 255 255
0.209467 0.097172 -0.104777 0 255 255
0.156468 0.115373 -0.103166 0 255 255
-0.123117 0.134862 -0.106586 0 255 255
-0.036414 0.176560 -0.095472 0 255 255
0.064302 0.092925 -0.102388 0 255 255
0.155258 0.075134 -0.112388 0 255 255
0.187325 0.139948 -0.101347 0 255 255
0.089413 0.194671 -0.100388 0 255 255
0.061810 0.164563 -0.092811 0 255 255
0.176926 0.112856 -0.104388 0 255 255
0.058847 0.084293 -0.109639 0 255 255
0.029954 0.131804 -0.098727 0 255 255
0.037404 0.156793 -0.100983 0 255 255
-0.101918 0.139856 -0.100388 0 255 255
0.090880 0.100774 -0.112388 0 255 255
0.176894 0.062545 -0.109823 0 255 255
0.164202 0.146681 -0.097798 0 255 255
0.062226 0.187969 -0.099100 0 255 255
-0.034113 0.171393 -0.105331 0 255 255
0.097984 0.180669 -0.101236 0 255 255
0.116524 0.156414 -0.093682 0 255 255
-0.123610 0.116836 -0.120388 0 255 255
0.013414 0.172429 -0.099266 0 255 255
0.066992 0.077609 -0.112388 0 255 255
0.167220 0.143381 -0.105312 0 255 255
-0.053653 0.187462 -0.101339 0 255 255
0.022202 0.128352 -0.098460 0 255 255
0.158017 0.164051 -0.095995 0 255 255
0.206262 0.166955 -0.101283 0 255 255
-0.067686 0.128580 -0.113376 0 255 255
-0.085491 0.126845 -0.109297 0 255 255
-0.088544 0.185860 -0.099196 0 255 255
0.119975 0.148663 -0.101375 0 255 255
0.189795 0.096154 -0.107321 0 255 255
-0.061085 0.134616 -0.107316 0 255 255
0.164485 0.152999 -0.105372 0 255 255
0.194944 0.126311 -0.105330 0 255 255
-0.038661 0.098158 -0.125150 0 255 255
0.111355 0.154113 -0.105357 0 255 255
0.220390 0.118687 -0.110388 0 255 255
0.173895 0.147246 -0.102388 0 255 255
-0.069253 0.107759 -0.121370 0 255 255
0.167400 0.068331 -0.124388 0 255 255
0.055642 0.154076 -0.094789 0 255 255
-0.082245 0.107396 -0.126388 0 255 255
-0.012594 0.199551 -0.099037 0 255 255
0.038025 0.085860 -0.123052 0 255 255
-0.121750 0.116098 -0.126388 0 255 255
0.145794 0.151605 -0.104388 0 255 255
-0.085611 0.201873 -0.098388 0 255 255
-0.059016 0.103829 -0.126388 0 255 255
-0.108782 0.172205 -0.107240 0 255 255
-0.026023 0.147824 -0.106388 0 255 255
0.170967 0.130817 -0.100388 0 255 255
0.019830 0.138914 -0.104388 0 255 255
0.202413 0.123444 -0.101156 0 255 255
-0.117287 0.222600 -0.101376 0 255 255
-0.079591 0.223127 -0.100388 0 255 255
-0.127453 0.179372 -0.104359 0 255 255
-0.081624 0.142500 -0.100090 0 255 255
0.029689 0.097628 -0.104164 0 255 255
0.035151 0.149088 -0.096388 0 255 255
-0.062271 0.192913 -0.097179 0 255 255
-0.117118 0.183974 -0.099446 0 255 255
0.153716 0.152849 -0.097887 0 255 255
-0.072475 0.205399 -0.097086 0 255 255
-0.033984 0.132782 -0.100388 0 255 255
0.055190 0.186385 -0.095335 0 255 255
0.192368 0.086115 -0.104388 0 255 255
0.173520 0.170954 -0.094071 0 255 255
-0.032132 0.215620 -0.095721 0 255 255
0.080765 0.163714 -0.098727 0 255 255
0.099104 0.092405 -0.110388 0 255 255
0.175861 0.132407 -0.094388 0 255 255
-0.106765 0.160719 -0.097971 0 255 255
-0.016876 0.160491 -0.101271 0 255 255
-0.089430 0.222618 -0.095710 0 255 255
0.189788 0.057068 -0.116388 0 255 255
-0.109631 0.153251 -0.098627 0 255 255
0.217031 0.167106 -0.094711 0 255 255
-0.081907 0.136182 -0.107311 0 255 255
-0.132655 0.134239 -0.118388 0 255 255
-0.121115 0.212629 -0.098388 0 255 255
0.012565 0.153475 -0.096941 0 255 255
-0.068704 0.148252 -0.105277 0 255 255
0.175254 0.153151 -0.101360 0 255 255
0.070634 0.115000 -0.102388 0 255 255
0.030250 0.087928 -0.124388 0 255 255
-0.067440 0.190612 -0.099272 0 255 255
-0.038981 0.147553 -0.099128 0 255 255
0.136531 0.065185 -0.114388 0 255 255
-0.089873 0.104268 -0.122388 0 255 255
0.130288 0.075074 -0.122388 0 255 255
0.016762 0.111159 -0.108388 0 255 255
0.052191 0.161829 -0.099254 0 255 255
0.087366 0.169749 -0.103266 0 255 255
0.145070 0.119164 -0.102388 0 255 255
0.099507 0.184638 -0.094388 0 255 255
0.089119 0.124088 -0.103374 0 255 255
-0.060652 0.130164 -0.100617 0 255 255
-0.073837 0.196272 -0.098388 0 255 255
-0.109210 0.115282 -0.108388 0 255 255
-0.128675 0.149850 -0.116388 0 255 255
0.123613 0.074428 -0.121351 0 255 255
-0.067035 0.124695 -0.102388 0 255 255
-0.099898 0.200929 -0.091805 0 255 255
0.213369 0.072109 -0.110388 0 255 255
-0.079925 0.180409 -0.103387 0 255 255
0.069745 0.187224 -0.098388 0 255 255
-0.086773 0.112342 -0.105734 0 255 255
-0.088243 0.164321 -0.097113 0 255 255
-0.055983 0.114421 -0.114388 0 255 255
-0.010447 0.099107 -0.122388 0 255 255
-0.092845 0.174657 -0.094492 0 255 255
-0.035832 0.103500 -0.108388 0 255 255
0.208134 0.129818 -0.106388 0 255 255
-0.126258 0.143421 -0.118388 0 255 255
-0.039211 0.169065 -0.094388 0 255 255
-0.097037 0.130252 -0.108388 0 255 255
0.117409 0.119655 -0.103059 0 255 255
-0.011606 0.171322 -0.100388 0 255 255
-0.004541 0.181463 -0.092226 0 255 255
0.035007 0.089160 -0.109666 0 255 255
0.201148 0.081083 -0.102466 0 255 255
-0.117515 0.132712 -0.113279 0 255 255
-0.044413 0.111077 -0.115359 0 255 255
0.047116 0.098380 -0.112388 0 255 255
0.159515 0.061921 -0.116388 0 255 255
0.205279 0.130913 -0.093993 0 255 255
-0.057767 0.109776 -0.103831 0 255 255
0.046494 0.091178 -0.108607 0 255 255
0.098888 0.116053 -0.105048 0 255 255
0.094885 0.154009 -0.098388 0 255 255
0.096103 0.132119 -0.102388 0 255 255
0.072447 0.147626 -0.101274 0 255 255
0.017400 0.193974 -0.094388 0 255 255
0.082047 0.178218 -0.103365 0 255 255
0.502095 0.279089 0.061612 0 0 255
0.441077 0.321039 0.274299 0 0 255
0.391832 0.309951 -0.117240 0 0 255
0.542418 0.258572 -0.094388 0 0 255
0.431813 0.213196 -0.034006 0 0 255
0.419335 0.350808 -0.000388 0 0 255
0.432927 0.266325 0.163479 0 0 255
0.509936 0.296749 0.211612 0 0 255
0.537066 0.308801 -0.018388 0 0 255
0.415675 0.268664 0.035612 0 0 255
0.445720 0.333139 0.105612 0 0 255
0.370812 0.275173 -0.040388 0 0 255
0.432369 0.234406 -0.116388 0 0 255
0.510597 0.232226 -0.024388 0 0 255
0.451522 0.253376 0.237612 0 0 255
0.430513 0.332586 0.199612 0 0 255
0.495889 0.289287 0.135612 0 0 255
0.447831 0.260504 0.097612 0 0 255
0.470332 0.240991 0.023612 0 0 255
0.491690 0.285467 0.271612 0 0 255
0.376879 0.334971 -0.040388 0 0 255
0.381815 0.255953 -0.094843 0 0 255
0.427290 0.324190 0.050620 0 0 255
0.466633 0.206257 -0.080388 0 0 255
0.480700 0.254414 0.189612 0 0 255
0.393795 0.302770 -0.000388 0 0 255
0.415822 0.294315 0.235208 0 0 255
0.516974 0.270482 0.011612 0 0 255
0.516817 0.216986 -0.073003 0 0 255
0.547372 0.263098 -0.043557 0 0 255
0.411892 0.256174 -0.014388 0 0 255
0.430956 0.316355 0.151612 0 0 255
0.486937 0.334475 0.257612 0 0 255
0.431704 0.380336 -0.037320 0 0 255
0.365781 0.302812 -0.078388 0 0 255
0.420512 0.296798 0.087612 0 0 255
0.398054 0.236867 -0.055350 0 0 255
0.439357 0.276711 0.273612 0 0 255
0.475022 0.208560 -0.036388 0 0 255
0.413349 0.293454 0.191612 0 0 255
0.492819 0.264758 0.233612 0 0 255
0.452674 0.261959 0.055612 0 0 255
0.515504 0.308438 0.029612 0 0 255
0.465196 0.261096 0.135612 0 0 255
0.488059 0.270871 0.099612 0 0 255
0.427164 0.283534 0.125612 0 0 255
0.431927 0.258140 0.202771 0 0 255
0.427080 0.206444 -0.073270 0 0 255
0.447803 0.238107 -0.008388 0 0 255
0.502957 0.284432 0.173612 0 0 255
0.432024 0.330941 0.238223 0 0 255
0.556690 0.287370 -0.071350 0 0 255
0.406327 0.302244 0.031612 0 0 255
0.481402 0.228437 -0.006388 0 0 255
0.435096 0.244070 0.022529 0 0 255
0.555406 0.309287 -0.046388 0 0 255
0.539357 0.240467 -0.066388 0 0 255
0.495742 0.256958 0.037612 0 0 255
0.385230 0.303915 -0.033374 0 0 255
0.468253 0.263477 0.264033 0 0 255
0.529265 0.274333 -0.018388 0 0 255
0.397849 0.331206 -0.015320 0 0 255
0.424164 0.271399 0.067612 0 0 255
0.519953 0.236317 -0.100388 0 0 255
0.501976 0.295520 0.242659 0 0 255
0.397458 0.358094 -0.034388 0 0 255
0.372889 0.255022 -0.064388 0 0 255
0.480395 0.258816 0.071612 0 0 255
0.456324 0.340894 0.255612 0 0 255
0.433656 0.346355 0.029612 0 0 255
0.499300 0.299709 0.101612 0 0 255
0.483473 0.264061 0.160292 0 0 255
0.387779 0.275087 -0.014388 0 0 255
0.451692 0.201281 -0.054388 0 0 255
0.407184 0.327623 0.015070 0 0 255
0.409710 0.278394 0.007612 0 0 255
0.428395 0.313053 0.119612 0 0 255
0.429873 0.325339 0.080409 0 0 255
0.504163 0.245408 0.002057 0 0 255
0.453028 0.251719 0.179612 0 0 255
0.386358 0.251045 -0.032388 0 0 255
0.500604 0.270339 0.203612 0 0 255
0.460136 0.259074 0.209612 0 0 255
0.426424 0.266680 0.231612 0 0 255
0.419861 0.292764 0.163612 0 0 255
0.415022 0.298906 0.059612 0 0 255
0.425429 0.299196 0.261612 0 0 255
0.524231 0.297688 0.005149 0 0 255
0.399559 0.235207 -0.088388 0 0 255
0.493922 0.313607 0.274552 0 0 255
0.509673 0.215118 -0.046388 0 0 255
0.416750 0.313239 0.213612 0 0 255
0.507728 0.282600 0.034686 0 0 255
0.422331 0.316854 0.177612 0 0 255
0.415141 0.236734 -0.033364 0 0 255
0.366158 0.311237 -0.052388 0 0 255
0.526647 0.245346 -0.042388 0 0 255
0.429946 0.213913 -0.098944 0 0 255
0.467782 0.323641 0.273222 0 0 255
0.378346 0.291562 -0.099232 0 0 255
0.368579 0.276031 -0.080388 0 0 255
0.545277 0.287467 -0.034388 0 0 255
0.426376 0.282742 0.211612 0 0 255
0.454452 0.216363 -0.022388 0 0 255
0.473612 0.249536 0.047612 0 0 255
0.449344 0.272877 0.119612 0 0 255
0.422610 0.233868 -0.009478 0 0 255
0.443891 0.278143 0.143612 0 0 255
0.428127 0.276144 0.099612 0 0 255
0.549461 0.262958 -0.070388 0 0 255
0.458547 0.266096 0.159612 0 0 255
0.415092 0.253891 0.011612 0 0 255
0.430527 0.276815 0.185612 0 0 255
0.443025 0.273160 0.249612 0 0 255
0.521969 0.251427 -0.014388 0 0 255
0.417746 0.364272 -0.022388 0 0 255
0.469374 0.260818 0.111612 0 0 255
0.483821 0.255358 0.213612 0 0 255
0.372810 0.288302 -0.060388 0 0 255
0.432697 0.254564 0.043612 0 0 255
0.486790 0.271357 0.123612 0 0 255
0.376524 0.314721 -0.096388 0 0 255
0.458555 0.266120 0.077612 0 0 255
0.496525 0.286901 0.082725 0 0 255
0.453513 0.252984 0.033612 0 0 255
0.485021 0.276321 0.251612 0 0 255
0.489573 0.224141 -0.028388 0 0 255
0.441551 0.339017 0.059612 0 0 255
0.474043 0.256238 0.243612 0 0 255
0.526719 0.226038 -0.055341 0 0 255
0.412812 0.233344 -0.106388 0 0 255
0.383264 0.237403 -0.072388 0 0 255
0.463015 0.231211 0.005612 0 0 255
0.488318 0.251490 0.017612 0 0 255
0.434074 0.300162 0.137612 0 0 255
0.432650 0.296424 0.105612 0 0 255
0.443943 0.328508 0.126590 0 0 255
0.422407 0.313210 0.245612 0 0 255
0.445600 0.210046 -0.083370 0 0 255
0.426381 0.282757 0.049612 0 0 255
0.509727 0.298971 0.048239 0 0 255
0.504763 0.281596 0.225612 0 0 255
0.418476 0.321146 0.031612 0 0 255
0.423441 0.280679 0.249232 0 0 255
0.492319 0.284231 0.155612 0 0 255
0.434397 0.214346 -0.055385 0 0 255
0.432945 0.316599 0.099612 0 0 255
0.508294 0.295237 0.190536 0 0 255
0.485842 0.267436 0.053612 0 0 255
0.438707 0.275801 0.081612 0 0 255
0.494286 0.266338 0.179612 0 0 255
0.432416 0.248252 0.001612 0 0 255
0.529117 0.232286 -0.082388 0 0 255
0.443334 0.265529 0.219612 0 0 255
0.471074 0.206695 -0.058388 0 0 255
0.436741 0.231612 -0.024388 0 0 255
0.478872 0.274397 0.142637 0 0 255
0.554108 0.280647 -0.052388 0 0 255
0.472117 0.259852 0.091612 0 0 255
0.435391 0.328553 0.167612 0 0 255
0.440642 0.258516 0.071612 0 0 255
0.535169 0.257071 -0.028388 0 0 255
0.405384 0.349737 -0.016388 0 0 255
0.453251 0.246720 0.013612 0 0 255
0.368674 0.295275 -0.040388 0 0 255
0.386252 0.314235 -0.016388 0 0 255
0.408202 0.307952 0.012626 0 0 255
0.382979 0.261934 -0.048388 0 0 255
0.393345 0.294373 -0.018388 0 0 255
0.440208 0.329941 0.256425 0 0 255
0.405203 0.283395 0.025872 0 0 255
0.398786 0.264435 -0.002388 0 0 255
0.467816 0.251176 0.225612 0 0 255
0.429246 0.290220 0.071612 0 0 255
0.459112 0.278730 0.271612 0 0 255
0.427168 0.329454 0.219612 0 0 255
0.469750 0.261798 0.175612 0 0 255
0.429266 0.262369 0.021612 0 0 255
0.495561 0.285129 0.113612 0 0 255
0.455936 0.214648 -0.041330 0 0 255
0.500354 0.266150 0.021612 0 0 255
0.400455 0.243120 -0.022388 0 0 255
0.388266 0.272758 -0.033352 0 0 255
0.420804 0.340777 0.015612 0 0 255
0.464597 0.231629 -0.014388 0 0 255
0.448108 0.250064 0.197612 0 0 255
0.532532 0.291408 -0.010388 0 0 255
0.426868 0.309355 0.069612 0 0 255
0.434512 0.259291 0.180689 0 0 255
0.421239 0.311516 0.195612 0 0 255
0.518302 0.291395 0.021612 0 0 255
0.426131 0.286073 0.147612 0 0 255
0.381394 0.243692 -0.050388 0 0 255
0.496845 0.237505 -0.013334 0 0 255
0.412813 0.295470 0.215612 0 0 255
0.378599 0.286640 -0.026388 0 0 255
0.402621 0.318662 -0.002388 0 0 255
0.390663 0.340392 -0.029342 0 0 255
0.491941 0.269380 0.081282 0 0 255
0.450250 0.263960 0.265612 0 0 255
0.459858 0.266699 0.247612 0 0 255
0.410052 0.335091 -0.001310 0 0 255
0.419871 0.307757 0.043612 0 0 255
0.521173 0.228330 -0.038388 0 0 255
0.481436 0.236994 0.009612 0 0 255
0.464129 0.252736 0.065612 0 0 255
0.474457 0.218250 -0.020679 0 0 255
0.477005 0.275113 0.274198 0 0 255
0.373515 0.318042 -0.036388 0 0 255
0.512480 0.261496 -0.003360 0 0 255
0.417558 0.276516 0.197612 0 0 255
0.418480 0.290079 0.035612 0 0 255
0.501173 0.299012 0.265612 0 0 255
0.393052 0.285227 -0.000388 0 0 255
0.453393 0.333450 0.271612 0 0 255
0.542407 0.247866 -0.050388 0 0 255
0.501976 0.295520 0.068616 0 0 255
0.436228 0.269343 0.054657 0 0 255
0.463313 0.258947 0.191612 0 0 255
0.368155 0.270594 -0.058388 0 0 255
0.435981 0.313346 0.259612 0 0 255
0.522572 0.279044 -0.002388 0 0 255
0.440119 0.293556 0.269612 0 0 255
0.425573 0.314137 0.228609 0 0 255
0.399534 0.263043 -0.024388 0 0 255
0.471286 0.338349 0.263612 0 0 255
0.428961 0.283899 0.231612 0 0 255
0.425657 0.294824 0.179612 0 0 255
0.444909 0.264055 0.133612 0 0 255
0.393603 0.236433 -0.037541 0 0 255
0.540020 0.246640 -0.082388 0 0 255
0.442341 0.235039 0.007612 0 0 255
0.544186 0.305025 -0.033280 0 0 255
0.372480 0.259538 -0.080676 0 0 255
0.502368 0.269662 0.047612 0 0 255
0.431396 0.281909 0.169612 0 0 255
0.499260 0.277283 0.242822 0 0 255
0.452786 0.200861 -0.071346 0 0 255
0.479890 0.254726 0.032731 0 0 255
0.503710 0.277716 0.188963 0 0 255
0.435873 0.316610 0.135612 0 0 255
0.433023 0.339126 0.044584 0 0 255
0.491757 0.271593 0.217612 0 0 255
0.398729 0.294433 0.013612 0 0 255
0.450338 0.250294 0.219612 0 0 255
0.445051 0.275585 0.103612 0 0 255
0.529360 0.249659 -0.102388 0 0 255
0.428947 0.297846 0.245612 0 0 255
0.422600 0.267326 0.215612 0 0 255
0.409644 0.267059 0.019612 0 0 255
0.428006 0.306776 0.165612 0 0 255
0.432948 0.330586 0.183612 0 0 255
0.369051 0.317576 -0.072388 0 0 255
0.537457 0.273331 -0.032388 0 0 255
0.481819 0.321141 0.265612 0 0 255
0.496728 0.286823 0.255612 0 0 255
0.423444 0.280687 0.083612 0 0 255
0.386797 0.324737 -0.029300 0 0 255
0.438547 0.342356 0.209612 0 0 255
0.433122 0.272414 0.115612 0 0 255
0.528863 0.309756 -0.004388 0 0 255
0.399554 0.235192 -0.072388 0 0 255
0.444882 0.263982 0.151612 0 0 255
0.497448 0.300468 0.117612 0 0 255
0.437020 0.260243 0.241612 0 0 255
0.517100 0.223303 -0.087727 0 0 255
0.413660 0.245872 -0.002388 0 0 255
0.478103 0.263980 0.227612 0 0 255
0.492695 0.215533 -0.041359 0 0 255
0.447023 0.263980 0.171612 0 0 255
0.471687 0.250098 0.203612 0 0 255
0.516582 0.247067 -0.030388 0 0 255
0.508641 0.257075 0.011612 0 0 255
0.433387 0.298284 0.121612 0 0 255
0.471120 0.270945 0.124645 0 0 255
0.447672 0.248929 0.047612 0 0 255
0.440925 0.331808 0.090735 0 0 255
0.444299 0.223399 -0.035384 0 0 255
0.429450 0.310506 0.085612 0 0 255
0.505056 0.227926 -0.038388 0 0 255
0.428822 0.283534 0.263612 0 0 255
0.433216 0.306919 0.273612 0 0 255
0.414177 0.264955 -0.000388 0 0 255
0.444299 0.223399 -0.012988 0 0 255
0.374197 0.269590 -0.093337 0 0 255
0.487727 0.266712 0.195612 0 0 255
0.373480 0.290048 -0.084388 0 0 255
0.415636 0.282667 0.223612 0 0 255
0.384984 0.241883 -0.086954 0 0 255
0.430841 0.269269 0.037612 0 0 255
0.493145 0.286056 0.097612 0 0 255
0.418930 0.243849 -0.020388 0 0 255
0.425522 0.301303 0.151612 0 0 255
0.495819 0.321448 0.259612 0 0 255
0.432798 0.327377 0.065612 0 0 255
0.441582 0.205161 -0.043724 0 0 255
0.402107 0.278156 -0.010388 0 0 255
0.470898 0.262461 0.151612 0 0 255
0.441485 0.210487 -0.068388 0 0 255
0.421329 0.268636 0.051612 0 0 255
0.501606 0.294556 0.161612 0 0 255
0.422492 0.294950 0.203612 0 0 255
0.504351 0.284966 0.203612 0 0 255
0.423770 0.335256 0.032436 0 0 255
0.442598 0.263612 0.193612 0 0 255
0.419202 0.278021 0.023612 0 0 255
0.454296 0.260605 0.111612 0 0 255
0.461132 0.267249 0.099612 0 0 255
0.383363 0.304632 -0.106015 0 0 255
0.417388 0.315137 0.059511 0 0 255
0.511716 0.223227 -0.060388 0 0 255
0.437700 0.323404 0.113612 0 0 255
0.506604 0.248755 -0.012388 0 0 255
0.494345 0.272741 0.165612 0 0 255
0.477077 0.269723 0.081612 0 0 255
0.431019 0.216706 -0.084388 0 0 255
0.432979 0.288785 0.091612 0 0 255
0.418627 0.280384 0.177612 0 0 255
0.478491 0.273407 0.111612 0 0 255
0.554128 0.294782 -0.044388 0 0 255
0.488008 0.273032 0.067612 0 0 255
0.458097 0.270506 0.145612 0 0 255
0.412384 0.287065 0.049612 0 0 255
0.465121 0.221833 -0.031379 0 0 255
0.472998 0.261655 0.057612 0 0 255
0.432234 0.273019 0.199612 0 0 255
0.420836 0.243117 -0.118388 0 0 255
0.464254 0.202831 -0.044388 0 0 255
0.363543 0.299386 -0.064388 0 0 255
0.434945 0.266003 0.091612 0 0 255
0.524736 0.232034 -0.068388 0 0 255
0.440880 0.281462 0.129612 0 0 255
0.507778 0.284723 0.049612 0 0 255
0.440464 0.258055 0.029612 0 0 255
0.417133 0.285243 0.063612 0 0 255
0.439465 0.255452 0.057612 0 0 255
0.376946 0.268534 -0.070388 0 0 255
0.439441 0.277713 0.157612 0 0 255
0.403862 0.246415 -0.036388 0 0 255
0.447217 0.258905 0.251612 0 0 255
0.489161 0.242597 -0.002388 0 0 255
0.415671 0.305084 0.183608 0 0 255
0.512720 0.272115 0.025612 0 0 255
0.424506 0.297408 0.223612 0 0 255
0.461266 0.256436 0.045612 0 0 255
0.424735 0.359446 -0.010388 0 0 255
0.387487 0.248406 -0.062388 0 0 255
0.441642 0.333676 0.076616 0 0 255
0.540036 0.283053 -0.021884 0 0 255
0.480889 0.262911 0.254173 0 0 255
0.463426 0.262067 0.233612 0 0 255
0.465120 0.244152 0.037612 0 0 255
0.526275 0.264769 -0.008388 0 0 255
0.437286 0.286075 0.115612 0 0 255
0.530912 0.239424 -0.054388 0 0 255
0.489306 0.300384 0.273612 0 0 255
0.412087 0.295749 0.020632 0 0 255
0.455545 0.240505 0.027612 0 0 255
0.483492 0.259769 0.173612 0 0 255
0.448837 0.258077 0.083612 0 0 255
0.380280 0.285439 -0.040388 0 0 255
0.398186 0.253954 -0.013070 0 0 255
0.512745 0.295670 0.034384 0 0 255
0.423636 0.306311 0.099612 0 0 255
0.422263 0.323976 0.189612 0 0 255
0.436609 0.270336 0.261612 0 0 255
0.407367 0.314698 0.025612 0 0 255
0.363752 0.284310 -0.070388 0 0 255
0.436310 0.230750 -0.004388 0 0 255
0.435815 0.257106 0.227612 0 0 255
0.549692 0.257980 -0.056388 0 0 255
0.434102 0.223029 -0.108388 0 0 255
0.486339 0.254784 0.047612 0 0 255
0.439166 0.271416 0.233612 0 0 255
0.421329 0.324335 0.205612 0 0 255
0.532743 0.240864 -0.092388 0 0 255
0.393225 0.249431 -0.044388 0 0 255
0.460830 0.255300 0.167612 0 0 255
0.468898 0.242835 0.009612 0 0 255
0.518355 0.284947 0.009612 0 0 255
0.405873 0.234912 -0.044388 0 0 255
0.376328 0.303048 -0.089408 0 0 255
0.431975 0.275006 0.137612 0 0 255
0.425893 0.264741 0.190892 0 0 255
0.456244 0.271258 0.131612 0 0 255
0.480796 0.268247 0.241612 0 0 255
0.490453 0.276378 0.135612 0 0 255
0.426123 0.268938 0.175612 0 0 255
0.426591 0.253762 0.031612 0 0 255
0.439528 0.272361 0.068624 0 0 255
0.378364 0.263705 -0.034405 0 0 255
0.438807 0.253737 0.213612 0 0 255
0.382143 0.301453 -0.020388 0 0 255
0.418464 0.299727 0.073612 0 0 255
0.424387 0.288885 0.113612 0 0 255
0.430542 0.322941 0.249612 0 0 255
0.445805 0.210577 -0.032388 0 0 255
0.453918 0.226133 -0.004292 0 0 255
0.555095 0.275129 -0.064388 0 0 255
0.381263 0.251881 -0.074388 0 0 255
0.548089 0.264965 -0.083359 0 0 255
0.471270 0.260176 0.216618 0 0 255
0.372638 0.299016 -0.052388 0 0 255
0.481341 0.230603 -0.019384 0 0 255
0.467760 0.256612 0.079612 0 0 255
0.431103 0.275596 0.221612 0 0 255
0.471206 0.237683 -0.002388 0 0 255
0.436368 0.336676 0.225612 0 0 255
0.443219 0.335213 0.243612 0 0 255
0.455552 0.241551 0.001612 0 0 255
0.540008 0.295916 -0.024388 0 0 255
0.427796 0.208311 -0.045482 0 0 255
0.550398 0.276932 -0.040388 0 0 255
0.453113 0.229616 -0.020388 0 0 255
0.366178 0.282187 -0.050388 0 0 255
0.410476 0.298509 0.043612 0 0 255
0.461591 0.329837 0.261612 0 0 255
0.425686 0.245540 0.013612 0 0 255
0.386426 0.264895 -0.022388 0 0 255
0.430571 0.269372 0.249612 0 0 255
0.385778 0.344408 -0.041337 0 0 255
0.536320 0.256629 -0.041331 0 0 255
0.433297 0.239382 -0.014388 0 0 255
0.442169 0.282059 0.261612 0 0 255
0.422877 0.290371 0.099612 0 0 255
0.419920 0.265925 0.011612 0 0 255
0.442460 0.246510 0.035612 0 0 255
0.432395 0.290095 0.159612 0 0 255
0.424614 0.286655 0.191612 0 0 255
0.473977 0.269849 0.099612 0 0 255
0.409973 0.234433 -0.021307 0 0 255
0.379147 0.274116 -0.050388 0 0 255
0.524184 0.261288 -0.022388 0 0 255
0.434494 0.287148 0.252615 0 0 255
0.443747 0.261026 0.045612 0 0 255
0.403318 0.292688 0.001612 0 0 255
0.375521 0.306524 -0.042388 0 0 255
0.451316 0.252841 0.064531 0 0 255
0.397197 0.310033 -0.010388 0 0 255
0.436448 0.253174 0.013612 0 0 255
0.475394 0.273589 0.259612 0 0 255
0.446343 0.262209 0.207612 0 0 255
0.390857 0.282475 -0.024388 0 0 255
0.458697 0.260718 0.123612 0 0 255
0.389665 0.246514 -0.098388 0 0 255
0.414609 0.285574 0.207612 0 0 255
0.430150 0.225604 -0.036388 0 0 255
0.438173 0.218601 -0.024388 0 0 255
0.542338 0.252176 -0.070388 0 0 255
0.446767 0.271724 0.091612 0 0 255
0.459536 0.257510 0.091612 0 0 255
0.468604 0.264392 0.069612 0 0 255
0.501994 0.267663 0.034869 0 0 255
0.465743 0.251359 0.181612 0 0 255
0.372010 0.319702 -0.085630 0 0 255
0.425459 0.319419 0.165612 0 0 255
0.488167 0.272970 0.151612 0 0 255
0.416473 0.319772 0.045612 0 0 255
0.425274 0.291035 0.135612 0 0 255
0.446670 0.212833 -0.052388 0 0 255
0.414781 0.305426 0.223612 0 0 255
0.414936 0.331074 0.024380 0 0 255
0.422309 0.255406 -0.001382 0 0 255
0.493275 0.243160 0.009612 0 0 255
0.479280 0.261386 0.203612 0 0 255
0.479122 0.265731 0.133612 0 0 255
0.418411 0.306640 0.235612 0 0 255
0.528285 0.246859 -0.025977 0 0 255
0.472444 0.257653 0.163612 0 0 255
0.504381 0.277458 0.213612 0 0 255
0.499050 0.277362 0.073612 0 0 255
0.513239 0.226928 -0.048388 0 0 255
0.492193 0.260714 0.205612 0 0 255
0.497861 0.254254 0.025612 0 0 255
0.440814 0.264547 0.107612 0 0 255
0.430986 0.266848 0.077612 0 0 255
0.459451 0.271140 0.259612 0 0 255
0.487318 0.275439 0.265612 0 0 255
0.425874 0.292598 0.058619 0 0 255
0.426102 0.305364 0.129612 0 0 255
0.464896 0.202639 -0.068388 0 0 255
0.432530 0.203901 -0.062388 0 0 255
0.392503 0.261471 -0.036388 0 0 255
0.499488 0.227648 -0.020388 0 0 255
0.413876 0.303631 0.205612 0 0 255
0.454537 0.261229 0.223612 0 0 255
0.515365 0.241108 -0.017232 0 0 255
0.370112 0.281272 -0.092388 0 0 255
0.482303 0.244271 0.025612 0 0 255
0.417547 0.259745 0.025612 0 0 255
0.494356 0.309156 0.263077 0 0 255
0.436697 0.287307 0.139612 0 0 255
0.401432 0.340542 -0.008214 0 0 255
0.405070 0.266308 -0.013348 0 0 255
0.439565 0.322683 0.145612 0 0 255
0.372384 0.292773 -0.072388 0 0 255
0.505346 0.293140 0.229612 0 0 255
0.427126 0.279115 0.157612 0 0 255
0.465974 0.257539 0.253612 0 0 255
0.400838 0.317204 0.009612 0 0 255
0.431396 0.262336 0.063612 0 0 255
0.490452 0.284947 0.125612 0 0 255
0.463236 0.250407 0.026645 0 0 255
0.449648 0.265236 0.235612 0 0 255
0.371675 0.259846 -0.052388 0 0 255
0.418538 0.301841 0.171612 0 0 255
0.488820 0.277989 0.089612 0 0 255
0.428045 0.348480 0.009612 0 0 255
0.424846 0.301562 0.113612 0 0 255
0.496404 0.267666 0.059612 0 0 255
0.433494 0.278962 0.242656 0 0 255
0.430072 0.225401 -0.016388 0 0 255
0.419092 0.280205 0.237612 0 0 255
0.436559 0.284212 0.103612 0 0 255
0.438051 0.218282 -0.044388 0 0 255
0.377853 0.311032 -0.026388 0 0 255
0.435293 0.269702 0.211612 0 0 255
0.422725 0.278811 0.036645 0 0 255
0.451513 0.264514 0.067612 0 0 255
0.460499 0.248861 0.197612 0 0 255
0.407264 0.255278 0.001612 0 0 255
0.428722 0.280794 0.061612 0 0 255
0.490492 0.274221 0.111612 0 0 255
0.446067 0.239167 0.019612 0 0 255
0.476251 0.328960 0.257658 0 0 255
0.410805 0.281244 0.038338 0 0 255
0.479229 0.219519 -0.032388 0 0 255
0.397596 0.274738 0.003612 0 0 255
0.378515 0.252936 -0.041923 0 0 255
0.464768 0.248817 0.213612 0 0 255
0.494442 0.275894 0.229612 0 0 255
0.425545 0.235932 -0.026388 0 0 255
0.484622 0.257193 0.059612 0 0 255
0.450662 0.257376 0.161612 0 0 255
0.381145 0.262638 -0.060388 0 0 255
0.518196 0.304290 0.018781 0 0 255
0.422590 0.267301 0.203612 0 0 255
0.387028 0.288229 -0.010388 0 0 255
0.437858 0.270860 0.175612 0 0 255
0.461828 0.269065 0.115612 0 0 255
0.436369 0.269711 0.127612 0 0 255
0.460499 0.236461 0.017612 0 0 255
0.406371 0.252954 -0.025379 0 0 255
0.483275 0.263545 0.089612 0 0 255
0.500388 0.218831 -0.032388 0 0 255
0.448938 0.263387 0.183612 0 0 255
0.407457 0.244618 -0.012388 0 0 255
0.471342 0.268718 0.249612 0 0 255
0.420990 0.296615 0.048637 0 0 255
0.461159 0.267320 0.273612 0 0 255
0.505326 0.293086 0.057612 0 0 255
0.478427 0.329048 0.273612 0 0 255
0.445222 0.250895 0.021612 0 0 255
0.462688 0.209914 -0.032974 0 0 255
0.489443 0.259628 0.223612 0 0 255
0.529936 0.233372 -0.044388 0 0 255
0.447967 0.324821 0.265612 0 0 255
0.498022 0.254192 0.007612 0 0 255
0.454065 0.248840 0.207612 0 0 255
0.442861 0.253138 0.187612 0 0 255
0.435091 0.204993 -0.082388 0 0 255
0.549977 0.269884 -0.054388 0 0 255
0.391880 0.320643 -0.008388 0 0 255
0.428233 0.237352 0.001612 0 0 255
0.400451 0.282175 0.013612 0 0 255
0.513001 0.237731 -0.036388 0 0 255
0.374977 0.280002 -0.070388 0 0 255
0.466754 0.226086 -0.004388 0 0 255
0.399454 0.349870 -0.026388 0 0 255
0.458832 0.250096 0.055612 0 0 255
0.524736 0.237613 -0.032388 0 0 255
0.425384 0.246675 -0.008388 0 0 255
0.458584 0.210384 -0.052388 0 0 255
0.497807 0.301404 0.254785 0 0 255
0.427941 0.309142 0.141612 0 0 255
0.411322 0.313181 0.037612 0 0 255
0.475677 0.210267 -0.048388 0 0 255
0.429591 0.319022 0.238652 0 0 255
0.422930 0.332290 0.043612 0 0 255
0.463547 0.220296 -0.016388 0 0 255
0.375394 0.296980 -0.030388 0 0 255
0.388000 0.300710 -0.010388 0 0 255
0.469467 0.255481 0.037612 0 0 255
0.422202 0.302577 0.213612 0 0 255
0.447352 0.270418 0.161612 0 0 255
0.446625 0.268522 0.077612 0 0 255
0.399664 0.330355 -0.002388 0 0 255
0.428382 0.299130 0.079612 0 0 255
0.404422 0.264616 0.007612 0 0 255
0.456335 0.254755 0.075612 0 0 255
0.431962 0.308459 0.107612 0 0 255
0.462252 0.253426 0.241612 0 0 255
0.409565 0.289177 0.011612 0 0 255
0.423760 0.231283 -0.109541 0 0 255
0.391869 0.254237 -0.022904 0 0 255
0.477306 0.253575 0.232157 0 0 255
0.469253 0.271662 0.136612 0 0 255
0.411767 0.345144 -0.007358 0 0 255
0.521219 0.266710 0.001612 0 0 255
0.393584 0.264290 -0.012609 0 0 255
0.454610 0.261419 0.139612 0 0 255
0.422780 0.262213 0.041612 0 0 255
0.422405 0.291788 0.253612 0 0 255
0.372318 0.320505 -0.050388 0 0 255
0.483809 0.264937 0.183612 0 0 255
0.429827 0.306076 0.253612 0 0 255
0.434294 0.321500 0.125612 0 0 255
0.381956 0.275180 -0.024388 0 0 255
0.381584 0.238609 -0.060388 0 0 255
0.392180 0.241264 -0.078388 0 0 255
0.478013 0.246877 0.015612 0 0 255
0.444352 0.245859 0.005612 0 0 255
0.397626 0.291560 -0.008388 0 0 255
0.407176 0.291207 0.033612 0 0 255
0.425856 0.320455 0.070966 0 0 255
0.499387 0.285802 0.235612 0 0 255
0.522640 0.220990 -0.064388 0 0 255
0.415352 0.354480 -0.014952 0 0 255
0.430873 0.333525 0.055492 0 0 255
0.499002 0.293354 0.091612 0 0 255
0.411224 0.336784 0.009612 0 0 255
0.447160 0.336887 0.261612 0 0 255
0.387935 0.326443 -0.018388 0 0 255
0.537559 0.245442 -0.040388 0 0 255
0.491450 0.269568 0.245612 0 0 255
0.518534 0.227038 -0.077394 0 0 255
0.424823 0.325136 0.229612 0 0 255
0.498042 0.267038 0.191612 0 0 255
0.434799 0.271202 0.147612 0 0 255
0.491539 0.293099 0.263612 0 0 255
0.513674 0.281350 0.019612 0 0 255
0.453805 0.259323 0.199612 0 0 255
0.446855 0.284545 0.271612 0 0 255
0.397363 0.305685 0.009612 0 0 255
0.494929 0.261807 0.049612 0 0 255
0.423345 0.299995 0.189612 0 0 255
0.418778 0.302018 0.245612 0 0 255
0.369247 0.310050 -0.064388 0 0 255
0.423639 0.306311 0.057612 0 0 255
0.426760 0.255840 0.008647 0 0 255
0.433069 0.324113 0.091612 0 0 255
0.451540 0.208776 -0.062388 0 0 255
0.458972 0.261622 0.177612 0 0 255
0.512988 0.250589 -0.002388 0 0 255
0.438861 0.279045 0.093612 0 0 255
0.402155 0.303846 0.021612 0 0 255
0.392266 0.305499 -0.019361 0 0 255
0.430168 0.259136 0.217612 0 0 255
0.449873 0.271406 0.273612 0 0 255
0.429546 0.295473 0.271612 0 0 255
0.491527 0.324108 0.269612 0 0 255
0.375045 0.288544 -0.049430 0 0 255
0.488391 0.282453 0.145612 0 0 255
0.530849 0.239448 -0.074388 0 0 255
0.397880 0.341905 -0.018388 0 0 255
0.401631 0.235023 -0.030388 0 0 255
0.504533 0.288112 0.215612 0 0 255
0.456917 0.250690 0.228196 0 0 255
0.434536 0.295700 0.149612 0 0 255
0.426591 0.294466 0.234619 0 0 255
0.409246 0.324688 0.003612 0 0 255
0.434983 0.291244 0.129612 0 0 255
0.484722 0.270009 0.169612 0 0 255
0.495818 0.276460 0.175612 0 0 255
0.481459 0.264835 0.105612 0 0 255
0.523702 0.307471 0.009612 0 0 255
0.438458 0.241667 -0.004388 0 0 255
0.446528 0.262689 0.121612 0 0 255
0.491205 0.228394 -0.012388 0 0 255
0.415526 0.290143 0.181612 0 0 255
0.396788 0.272634 -0.020388 0 0 255
0.476674 0.260244 0.047612 0 0 255
0.416596 0.304729 0.033612 0 0 255
0.394223 0.313317 0.001612 0 0 255
0.420186 0.288943 0.077612 0 0 255
0.429587 0.299742 0.093612 0 0 255
0.420574 0.273210 0.225482 0 0 255
0.466176 0.266417 0.085612 0 0 255
0.483270 0.313759 0.273612 0 0 255
0.417556 0.276511 0.213513 0 0 255
0.408288 0.274690 -0.002388 0 0 255
0.419803 0.273506 0.187612 0 0 255
0.546642 0.254809 -0.080388 0 0 255
0.412136 0.318197 0.015612 0 0 255
0.452614 0.233061 0.009612 0 0 255
0.541979 0.263026 -0.034388 0 0 255
0.436565 0.326029 0.265612 0 0 255
0.455976 0.259399 0.257612 0 0 255
0.385381 0.293146 -0.031349 0 0 255
0.506192 0.287474 0.183612 0 0 255
0.404468 0.309384 0.002654 0 0 255
0.428986 0.214281 -0.066388 0 0 255
0.536169 0.267398 -0.023696 0 0 255
0.415390 0.276448 0.047612 0 0 255
0.461590 0.201473 -0.058388 0 0 255
0.385543 0.243340 -0.040388 0 0 255
0.477318 0.264770 0.117612 0 0 255
0.481549 0.284081 0.267612 0 0 255
0.533451 0.232022 -0.062388 0 0 255
0.413186 0.306038 0.051612 0 0 255
0.428813 0.261187 0.051612 0 0 255
0.506257 0.242462 -0.022388 0 0 255
0.407513 0.356383 -0.024388 0 0 255
0.549278 0.312709 -0.038388 0 0 255
0.448431 0.273228 0.258648 0 0 255
0.477438 0.270663 0.152511 0 0 255
0.387417 0.253803 -0.053363 0 0 255
0.385833 0.260839 -0.103236 0 0 255
0.466705 0.214799 -0.041367 0 0 255
0.526965 0.288069 0.000719 0 0 255
0.472934 0.261679 0.185612 0 0 255
0.421153 0.308204 0.079612 0 0 255
0.453980 0.220713 -0.032388 0 0 255
0.432822 0.285646 0.081612 0 0 255
0.381454 0.255012 -0.084388 0 0 255
0.523053 0.236014 -0.090388 0 0 255
0.436535 0.284221 0.149612 0 0 255
0.480563 0.275890 0.131612 0 0 255
0.427874 0.308969 0.264547 0 0 255
0.435776 0.301651 0.264637 0 0 255
0.435475 0.323190 0.158648 0 0 255
0.484555 0.259361 0.237612 0 0 255
0.453773 0.203431 -0.044388 0 0 255
0.364713 0.292511 -0.050388 0 0 255
0.429441 0.324214 0.175612 0 0 255
0.480085 0.266396 0.063612 0 0 255
0.388455 0.312314 -0.026388 0 0 255
0.533582 0.302668 -0.010388 0 0 255
0.545103 0.248973 -0.060388 0 0 255
0.423923 0.270773 0.029612 0 0 255
