ply
format ascii 1.0
element vertex 1257
property float x
property float y
property float z
property uchar red
property uchar green
property uchar blue
end_header
-2.148727 -4.468051 -0.656483 255 0 255
-2.170417 -4.445039 -0.660114 255 0 255
-2.139497 -4.501581 -0.713551 255 0 255
-2.163221 -4.444523 -0.657551 255 0 255
-2.131895 -4.494675 -0.725551 255 0 255
-2.157847 -4.443621 -0.654484 255 0 255
-2.131468 -4.455362 -0.635551 255 0 255
-2.173866 -4.470886 -0.674413 255 0 255
-2.120636 -4.432087 -0.651551 255 0 255
-2.103600 -4.424481 -0.679551 255 0 255
-2.107522 -4.466586 -0.666495 255 0 255
-2.110623 -4.413837 -0.673551 255 0 255
-2.123724 -4.494710 -0.667551 255 0 255
-2.169850 -4.475829 -0.723551 255 0 255
-2.121341 -4.425782 -0.663551 255 0 255
-2.097771 -4.425720 -0.695551 255 0 255
-2.101225 -4.417721 -0.683551 255 0 255
-2.105368 -4.417972 -0.688538 255 0 255
-2.087984 -4.454381 -0.683551 255 0 255
-2.098985 -4.426419 -0.711551 255 0 255
-2.167577 -4.484491 -0.709551 255 0 255
-2.143936 -4.493606 -0.716715 255 0 255
-2.180316 -4.462754 -0.671551 255 0 255
-2.123882 -4.456975 -0.645650 255 0 255
-2.174004 -4.487214 -0.701551 255 0 255
-2.008935 -4.759484 -0.663551 255 0 0
-2.156928 -4.901031 -0.551551 255 0 0
-2.142148 -4.898832 -0.740368 255 0 0
-2.151628 -4.727109 -0.737551 255 0 0
-2.057902 -4.800687 -0.513551 255 0 0
-2.012038 -4.867192 -0.743551 255 0 0
-2.100696 -4.838487 -0.641551 255 0 0
-2.056492 -4.736339 -0.743551 255 0 0
-2.103013 -4.743576 -0.657125 255 0 0
-1.996400 -4.848025 -0.657906 255 0 0
-2.029906 -4.804099 -0.593551 255 0 0
-2.073631 -4.893929 -0.695551 255 0 0
-1.993747 -4.787448 -0.739551 255 0 0
-2.155625 -4.894900 -0.659551 255 0 0
-2.106274 -4.787866 -0.581551 255 0 0
-2.077269 -4.853327 -0.576219 255 0 0
-2.121888 -4.901094 -0.605551 255 0 0
-2.157185 -4.758643 -0.683551 255 0 0
-2.155912 -4.824343 -0.663551 255 0 0
-2.059303 -4.778420 -0.637551 255 0 0
-2.045525 -4.847807 -0.627551 255 0 0
-2.054808 -4.738035 -0.687551 255 0 0
-1.988271 -4.802725 -0.687551 255 0 0
-2.120364 -4.868703 -0.701551 255 0 0
-2.021899 -4.881414 -0.691551 255 0 0
-2.089791 -4.883380 -0.744532 255 0 0
-2.034033 -4.813445 -0.666529 255 0 0
-2.113629 -4.793519 -0.663551 255 0 0
-2.104733 -4.886338 -0.657470 255 0 0
-2.016741 -4.753735 -0.713551 255 0 0
-2.087081 -4.816482 -0.547551 255 0 0
-2.049568 -4.886532 -0.653551 255 0 0
-1.994520 -4.846380 -0.705551 255 0 0
-2.062455 -4.774011 -0.581551 255 0 0
-2.047665 -4.890290 -0.731551 255 0 0
-2.115255 -4.835030 -0.585551 255 0 0
-2.068613 -4.851078 -0.666548 255 0 0
-1.992468 -4.829528 -0.743551 255 0 0
-2.047817 -4.812560 -0.557551 255 0 0
-2.135788 -4.859291 -0.659166 255 0 0
-2.157260 -4.883352 -0.706555 255 0 0
-2.040014 -4.841585 -0.583551 255 0 0
-2.126422 -4.863326 -0.744606 255 0 0
-2.156918 -4.891364 -0.619551 255 0 0
-2.028499 -4.814621 -0.629551 255 0 0
-2.127474 -4.899907 -0.683551 255 0 0
-2.079314 -4.843707 -0.611551 255 0 0
-2.031944 -4.851716 -0.665551 255 0 0
-2.147816 -4.727919 -0.701551 255 0 0
-2.082572 -4.772458 -0.664511 255 0 0
-2.043909 -4.754095 -0.658047 255 0 0
-2.005567 -4.794959 -0.657189 255 0 0
-2.131895 -4.764018 -0.658936 255 0 0
-2.084310 -4.819116 -0.582540 255 0 0
-2.076211 -4.732916 -0.714454 255 0 0
-2.151221 -4.896904 -0.585551 255 0 0
-2.081306 -4.824218 -0.515551 255 0 0
-2.129398 -4.896563 -0.637551 255 0 0
-2.070312 -4.734022 -0.657551 255 0 0
-2.027011 -4.751552 -0.744663 255 0 0
-2.005520 -4.775498 -0.691551 255 0 0
-2.071831 -4.789264 -0.539551 255 0 0
-2.099095 -4.888671 -0.713551 255 0 0
-1.993695 -4.811796 -0.717551 255 0 0
-2.045691 -4.781719 -0.609551 255 0 0
-2.060759 -4.832300 -0.537551 255 0 0
-2.100452 -4.856578 -0.666536 255 0 0
-2.075347 -4.773993 -0.611551 255 0 0
-2.033664 -4.782853 -0.664418 255 0 0
-2.020297 -4.879750 -0.659551 255 0 0
-2.106310 -4.826422 -0.613551 255 0 0
-2.109865 -4.823907 -0.666547 255 0 0
-2.042602 -4.738329 -0.715551 255 0 0
-2.025974 -4.746676 -0.685551 255 0 0
-2.076806 -4.880006 -0.666528 255 0 0
-1.988206 -4.819096 -0.662772 255 0 0
-2.060374 -4.802700 -0.581551 255 0 0
-2.099805 -4.882395 -0.685551 255 0 0
-2.132035 -4.899349 -0.713551 255 0 0
-2.015164 -4.864483 -0.713551 255 0 0
-2.049977 -4.883664 -0.683551 255 0 0
-2.073157 -4.853221 -0.637551 255 0 0
-2.109124 -4.810800 -0.641551 255 0 0
-2.009525 -4.857503 -0.681551 255 0 0
-2.082496 -4.733625 -0.686580 255 0 0
-2.031650 -4.831095 -0.607551 255 0 0
-2.073605 -4.893806 -0.723551 255 0 0
-2.122169 -4.901034 -0.578735 255 0 0
-1.998865 -4.773046 -0.717551 255 0 0
-2.042317 -4.833181 -0.649551 255 0 0
-2.062695 -4.832858 -0.567551 255 0 0
-2.035249 -4.790311 -0.637551 255 0 0
-1.997445 -4.829401 -0.685551 255 0 0
-2.056158 -4.851680 -0.601551 255 0 0
-2.082496 -4.733625 -0.744566 255 0 0
-2.132339 -4.833443 -0.656915 255 0 0
-2.017380 -4.831297 -0.657308 255 0 0
-2.039318 -4.787785 -0.575551 255 0 0
-2.004498 -4.764516 -0.743551 255 0 0
-2.149944 -4.781597 -0.663551 255 0 0
-2.109138 -4.810867 -0.593551 255 0 0
-2.042097 -4.880242 -0.707551 255 0 0
-2.106463 -4.769424 -0.656809 255 0 0
-2.077827 -4.793913 -0.565551 255 0 0
-2.001615 -4.848961 -0.729551 255 0 0
-2.058525 -4.779613 -0.663551 255 0 0
-2.151627 -4.890684 -0.683551 255 0 0
-2.114199 -4.873157 -0.725551 255 0 0
-2.031367 -4.820146 -0.575298 255 0 0
-2.093672 -4.843918 -0.591551 255 0 0
-2.024051 -4.881920 -0.727551 255 0 0
-2.051639 -4.809703 -0.534315 255 0 0
-2.050713 -4.863061 -0.657253 255 0 0
-2.125836 -4.879808 -0.664529 255 0 0
-2.085445 -4.771847 -0.583551 255 0 0
-2.155099 -4.882804 -0.729551 255 0 0
-2.024932 -4.741771 -0.662435 255 0 0
-2.066941 -4.756638 -0.657551 255 0 0
-2.157166 -4.736155 -0.679551 255 0 0
-1.999049 -4.793152 -0.705551 255 0 0
-2.097834 -4.834643 -0.571219 255 0 0
-1.995788 -4.780681 -0.671551 255 0 0
-2.066123 -4.887464 -0.743551 255 0 0
-2.138434 -4.900600 -0.563551 255 0 0
-2.038702 -4.802229 -0.613551 255 0 0
-2.068953 -4.814201 -0.500469 255 0 0
-2.061653 -4.895291 -0.669551 255 0 0
-2.122581 -4.900947 -0.657551 255 0 0
-2.092174 -4.836875 -0.663551 255 0 0
-2.073489 -4.809148 -0.531551 255 0 0
-1.987831 -4.807712 -0.743551 255 0 0
-2.150587 -4.890439 -0.639551 255 0 0
-2.100254 -4.807548 -0.574908 255 0 0
-2.056459 -4.851616 -0.575402 255 0 0
-2.052178 -4.821856 -0.582500 255 0 0
-2.116948 -4.847610 -0.657551 255 0 0
-2.011472 -4.813121 -0.665551 255 0 0
-2.142582 -4.896696 -0.605551 255 0 0
-1.991823 -4.832640 -0.721551 255 0 0
-2.156788 -4.746459 -0.700480 255 0 0
-2.050400 -4.736536 -0.667551 255 0 0
-2.058754 -4.894067 -0.709551 255 0 0
-2.013420 -4.860765 -0.657122 255 0 0
-2.083261 -4.862277 -0.657429 255 0 0
-2.036578 -4.878334 -0.743551 255 0 0
-2.059053 -4.795859 -0.555551 255 0 0
-2.146564 -4.736839 -0.719551 255 0 0
-2.036886 -4.807629 -0.647551 255 0 0
-2.076991 -4.832779 -0.553551 255 0 0
-2.083451 -4.747735 -0.664429 255 0 0
-2.077614 -4.773511 -0.631551 255 0 0
-2.109531 -4.880052 -0.743551 255 0 0
-2.117055 -4.873496 -0.681551 255 0 0
-2.058917 -4.843942 -0.649551 255 0 0
-2.121215 -4.747886 -0.663551 255 0 0
-2.014394 -4.778770 -0.664460 255 0 0
-1.988489 -4.819036 -0.699551 255 0 0
-2.090322 -4.847399 -0.627551 255 0 0
-2.063214 -4.854536 -0.619551 255 0 0
-2.037973 -4.880082 -0.668588 255 0 0
-2.027965 -4.765662 -0.657227 255 0 0
-2.048095 -4.841126 -0.666543 255 0 0
-1.993709 -4.846552 -0.677551 255 0 0
-1.987760 -4.798744 -0.663551 255 0 0
-2.038745 -4.739418 -0.735551 255 0 0
-2.010146 -4.758786 -0.683551 255 0 0
-2.039530 -4.829687 -0.625551 255 0 0
-2.088154 -4.793762 -0.581551 255 0 0
-2.073449 -4.844975 -0.593551 255 0 0
-2.119013 -4.866946 -0.652465 255 0 0
-2.147499 -4.842489 -0.663551 255 0 0
-2.139961 -4.898163 -0.669551 255 0 0
-2.049508 -4.785619 -0.591551 255 0 0
-2.080105 -4.828188 -0.534610 255 0 0
-2.092126 -4.730832 -0.665551 255 0 0
-2.083390 -4.891743 -0.679551 255 0 0
-2.024579 -4.797829 -0.657551 255 0 0
-2.028817 -4.742990 -0.703551 255 0 0
-2.138815 -4.892770 -0.697551 255 0 0
-2.058268 -4.735076 -0.705551 255 0 0
-2.021578 -4.870287 -0.675551 255 0 0
-2.060768 -4.737218 -0.725551 255 0 0
-2.088170 -4.799893 -0.539551 255 0 0
-2.079519 -4.844670 -0.652542 255 0 0
-2.046805 -4.786958 -0.651551 255 0 0
-2.087630 -4.882830 -0.699551 255 0 0
-2.004241 -4.860671 -0.699551 255 0 0
-2.140385 -4.900156 -0.623551 255 0 0
-1.999490 -4.795225 -0.723551 255 0 0
-2.015925 -4.762087 -0.729551 255 0 0
-2.072615 -4.773715 -0.649551 255 0 0
-2.042567 -4.805497 -0.575471 255 0 0
-2.021815 -4.881021 -0.709551 255 0 0
-2.068348 -4.734400 -0.675551 255 0 0
-2.036597 -4.821079 -0.593551 255 0 0
-2.086020 -4.894496 -0.661551 255 0 0
-2.125024 -4.779791 -0.664496 255 0 0
-2.059493 -4.875508 -0.666550 255 0 0
-2.059047 -4.775413 -0.619551 255 0 0
-2.048651 -4.838963 -0.611551 255 0 0
-2.060612 -4.774959 -0.601551 255 0 0
-2.086546 -4.814551 -0.565551 255 0 0
-2.097029 -4.840948 -0.609551 255 0 0
-2.079233 -4.834508 -0.575551 255 0 0
-2.030701 -4.749673 -0.723551 255 0 0
-2.139977 -4.898236 -0.651551 255 0 0
-2.087632 -4.882841 -0.725551 255 0 0
-2.093997 -4.874308 -0.664469 255 0 0
-2.001878 -4.830503 -0.665551 255 0 0
-2.105645 -4.824804 -0.631551 255 0 0
-2.033660 -4.830930 -0.665551 255 0 0
-2.102871 -4.829483 -0.596616 255 0 0
-2.110057 -4.882528 -0.699551 255 0 0
-2.014422 -4.846239 -0.666542 255 0 0
-2.000605 -4.790852 -0.685551 255 0 0
-2.032571 -4.866917 -0.657551 255 0 0
-2.060632 -4.823150 -0.553551 255 0 0
-2.071788 -4.789062 -0.582470 255 0 0
-2.006698 -4.761803 -0.701551 255 0 0
-2.156462 -4.898837 -0.569551 255 0 0
-2.045073 -4.769193 -0.665551 255 0 0
-2.046800 -4.786937 -0.625551 255 0 0
-2.135223 -4.900305 -0.589551 255 0 0
-2.107823 -4.822297 -0.577551 255 0 0
-2.041880 -4.797464 -0.663551 255 0 0
-2.029827 -4.822518 -0.645180 255 0 0
-2.092230 -4.760181 -0.657727 255 0 0
-2.029210 -4.814470 -0.607551 255 0 0
-2.103037 -4.887980 -0.729551 255 0 0
-2.145019 -4.893099 -0.721551 255 0 0
-1.988504 -4.819033 -0.731551 255 0 0
-1.988248 -4.817043 -0.679551 255 0 0
-2.111039 -4.872730 -0.665551 255 0 0
-2.005170 -4.778686 -0.731551 255 0 0
-2.105034 -4.824934 -0.649551 255 0 0
-2.112900 -4.809327 -0.659551 255 0 0
-2.124126 -4.900619 -0.622462 255 0 0
-2.034742 -4.790803 -0.601551 255 0 0
-2.000769 -4.773488 -0.657551 255 0 0
-2.073934 -4.885735 -0.709551 255 0 0
-2.037501 -4.743189 -0.674645 255 0 0
-2.056661 -4.788188 -0.575551 255 0 0
-1.995984 -4.846069 -0.744385 255 0 0
-2.057461 -4.837091 -0.582496 255 0 0
-2.037326 -4.886656 -0.693551 255 0 0
-2.021974 -4.756712 -0.698598 255 0 0
-2.007220 -4.864127 -0.727551 255 0 0
-2.056242 -4.894601 -0.693551 255 0 0
-2.038576 -4.738627 -0.691551 255 0 0
-2.060086 -4.844711 -0.633551 255 0 0
-2.068076 -4.887031 -0.681551 255 0 0
-2.018793 -4.866800 -0.697551 255 0 0
-2.097164 -4.889209 -0.671551 255 0 0
-2.021558 -4.754756 -0.672736 255 0 0
-2.071060 -4.891451 -0.657372 255 0 0
-1.997868 -4.831355 -0.701551 255 0 0
-2.001222 -4.847000 -0.691551 255 0 0
-2.038913 -4.879882 -0.723551 255 0 0
-2.067195 -4.863647 -0.657565 255 0 0
-2.074746 -4.774121 -0.594480 255 0 0
-2.072473 -4.734569 -0.699551 255 0 0
-2.056383 -4.812784 -0.570586 255 0 0
-2.079056 -4.732311 -0.729551 255 0 0
-2.075578 -4.778033 -0.572538 255 0 0
-2.157209 -4.897676 -0.599551 255 0 0
-1.998281 -4.808776 -0.657844 255 0 0
-2.079438 -4.892389 -0.737551 255 0 0
-2.045256 -4.847009 -0.643551 255 0 0
-2.046753 -4.892528 -0.670310 255 0 0
-1.987280 -4.805121 -0.705551 255 0 0
-2.002610 -4.858973 -0.667551 255 0 0
-2.043816 -4.835902 -0.597551 255 0 0
-2.059067 -4.796552 -0.533551 255 0 0
-1.986162 -4.801129 -0.727551 255 0 0
-2.039206 -4.804167 -0.631551 255 0 0
-2.001223 -4.857223 -0.715551 255 0 0
-2.067334 -4.825825 -0.581551 255 0 0
-2.059825 -4.886690 -0.723551 255 0 0
-1.987285 -4.834000 -0.661551 255 0 0
-2.021491 -4.879496 -0.742111 255 0 0
-2.107888 -4.838640 -0.665551 255 0 0
-2.075155 -4.824141 -0.565551 255 0 0
-2.095673 -4.834097 -0.623551 255 0 0
-2.107881 -4.756855 -0.664547 255 0 0
-2.006862 -4.772193 -0.676535 255 0 0
-2.057129 -4.745151 -0.657551 255 0 0
-1.997326 -4.778309 -0.703551 255 0 0
-2.058450 -4.808255 -0.547551 255 0 0
-1.996825 -4.801929 -0.675551 255 0 0
-2.038626 -4.738860 -0.657794 255 0 0
-2.091082 -4.848346 -0.577551 255 0 0
-2.130921 -4.846012 -0.664416 255 0 0
-2.087163 -4.851224 -0.641551 255 0 0
-2.027697 -4.831737 -0.583551 255 0 0
-2.050027 -4.821358 -0.543551 255 0 0
-2.117350 -4.859121 -0.666542 255 0 0
-2.065872 -4.818945 -0.540452 255 0 0
-2.086848 -4.850292 -0.665551 255 0 0
-2.073449 -4.844975 -0.625551 255 0 0
-2.085710 -4.816773 -0.527551 255 0 0
-2.041858 -4.797469 -0.587551 255 0 0
-2.071329 -4.854236 -0.605551 255 0 0
-2.041688 -4.830220 -0.573751 255 0 0
-2.022711 -4.817896 -0.657371 255 0 0
-2.063159 -4.854282 -0.589297 255 0 0
-2.055147 -4.758870 -0.665551 255 0 0
-2.028107 -4.806526 -0.579551 255 0 0
-2.033929 -4.793020 -0.623551 255 0 0
-2.085094 -4.851664 -0.599983 255 0 0
-2.063271 -4.897196 -0.733551 255 0 0
-2.104491 -4.843452 -0.581551 255 0 0
-2.034987 -4.835734 -0.637551 255 0 0
-2.112682 -4.880559 -0.713551 255 0 0
-2.137178 -4.779253 -0.657271 255 0 0
-2.046512 -4.891394 -0.717551 255 0 0
-2.032233 -4.877213 -0.681551 255 0 0
-2.094647 -4.781170 -0.577551 255 0 0
-2.019495 -4.754669 -0.655551 255 0 0
-2.049961 -4.883668 -0.743551 255 0 0
-2.095751 -4.776745 -0.663551 255 0 0
-2.100329 -4.846381 -0.656853 255 0 0
-2.027700 -4.841372 -0.657394 255 0 0
-2.010900 -4.767245 -0.713551 255 0 0
-2.155594 -4.885133 -0.671551 255 0 0
-2.019974 -4.867550 -0.731551 255 0 0
-2.044005 -4.850741 -0.657551 255 0 0
-2.079672 -4.811923 -0.509551 255 0 0
-2.119198 -4.766717 -0.663551 255 0 0
-2.073234 -4.795865 -0.551551 255 0 0
-2.063100 -4.801133 -0.567551 255 0 0
-2.150672 -4.737535 -0.691551 255 0 0
-2.006795 -4.853994 -0.741551 255 0 0
-2.135070 -4.900337 -0.727551 255 0 0
-2.049772 -4.849017 -0.589551 255 0 0
-2.067630 -4.769499 -0.664518 255 0 0
-2.141105 -4.899054 -0.685551 255 0 0
-1.994803 -4.787024 -0.659551 255 0 0
-2.090028 -4.740202 -0.655147 255 0 0
-2.142139 -4.735260 -0.732233 255 0 0
-2.120342 -4.873200 -0.737551 255 0 0
-2.068502 -4.735125 -0.737551 255 0 0
-2.014640 -4.799165 -0.666545 255 0 0
-2.102531 -4.866360 -0.657297 255 0 0
-2.051194 -4.824110 -0.565551 255 0 0
-2.096171 -4.826818 -0.582440 255 0 0
-1.991023 -4.828721 -0.673551 255 0 0
-1.993008 -4.838522 -0.733551 255 0 0
-2.000418 -4.843081 -0.717551 255 0 0
-2.085366 -4.891421 -0.713551 255 0 0
-2.043383 -4.874843 -0.657551 255 0 0
-1.996822 -4.801914 -0.735551 255 0 0
-2.109444 -4.883293 -0.673551 255 0 0
-2.121801 -4.870443 -0.714936 255 0 0
-2.002883 -4.764860 -0.729551 255 0 0
-2.153501 -4.726711 -0.713551 255 0 0
-2.066949 -4.843253 -0.575500 255 0 0
-2.032743 -4.754423 -0.665551 255 0 0
-2.006951 -4.839949 -0.657551 255 0 0
-2.032936 -4.885242 -0.657446 255 0 0
-2.029827 -4.822518 -0.618086 255 0 0
-2.049021 -4.778146 -0.579551 255 0 0
-2.143245 -4.827036 -0.660789 255 0 0
-2.012972 -4.871083 -0.685551 255 0 0
-2.024847 -4.882872 -0.671551 255 0 0
-2.049969 -4.883666 -0.697551 255 0 0
-2.069369 -4.816158 -0.521206 255 0 0
-2.001825 -4.777353 -0.744441 255 0 0
-2.031072 -4.876474 -0.699551 255 0 0
-1.997695 -4.825258 -0.654295 255 0 0
-2.139938 -4.898053 -0.577551 255 0 0
-2.011068 -4.868935 -0.667551 255 0 0
-2.015178 -4.756112 -0.741551 255 0 0
-2.055900 -4.853780 -0.665551 255 0 0
-2.058680 -4.775491 -0.650227 255 0 0
-2.002458 -4.785397 -0.715551 255 0 0
-2.157260 -4.883352 -0.692706 255 0 0
-2.109107 -4.815889 -0.605551 255 0 0
-2.110578 -4.803309 -0.581551 255 0 0
-2.045769 -4.782084 -0.637551 255 0 0
-2.068509 -4.744776 -0.664449 255 0 0
-2.042056 -4.860812 -0.666549 255 0 0
-2.027746 -4.804558 -0.637551 255 0 0
-2.144064 -4.888606 -0.709551 255 0 0
-2.078312 -4.733178 -0.667551 255 0 0
-2.122087 -4.900645 -0.591551 255 0 0
-1.990717 -4.824697 -0.711551 255 0 0
-2.075580 -4.893478 -0.669551 255 0 0
-2.077704 -4.759179 -0.664507 255 0 0
-2.068149 -4.877757 -0.657395 255 0 0
-2.060062 -4.844716 -0.611551 255 0 0
-2.120830 -4.837017 -0.663551 255 0 0
-2.132438 -4.896807 -0.613551 255 0 0
-2.079807 -4.884503 -0.689551 255 0 0
-2.085463 -4.882256 -0.657496 255 0 0
-2.090056 -4.807671 -0.582495 255 0 0
-1.989793 -4.797703 -0.715551 255 0 0
-1.994816 -4.782932 -0.725551 255 0 0
-2.073342 -4.767514 -0.581551 255 0 0
-2.069203 -4.853855 -0.649551 255 0 0
-2.046234 -4.784271 -0.664461 255 0 0
-2.028546 -4.806874 -0.619551 255 0 0
-2.037011 -4.823035 -0.655551 255 0 0
-1.993726 -4.787349 -0.695551 255 0 0
-2.046238 -4.739287 -0.703551 255 0 0
-2.098976 -4.888112 -0.697551 255 0 0
-2.022758 -4.789261 -0.666549 255 0 0
-2.048386 -4.736679 -0.727551 255 0 0
-2.033927 -4.793711 -0.649551 255 0 0
-2.126025 -4.899933 -0.669551 255 0 0
-2.022671 -4.860843 -0.665551 255 0 0
-2.085866 -4.824919 -0.557551 255 0 0
-2.068414 -4.802048 -0.540481 255 0 0
-1.995340 -4.809401 -0.695551 255 0 0
-2.040733 -4.816110 -0.582476 255 0 0
-2.082817 -4.850569 -0.587551 255 0 0
-2.016099 -4.874508 -0.721551 255 0 0
-2.152113 -4.897618 -0.629551 255 0 0
-2.126210 -4.867461 -0.663551 255 0 0
-2.091108 -4.841478 -0.649551 255 0 0
-2.059794 -4.805925 -0.525551 255 0 0
-2.039157 -4.888009 -0.679551 255 0 0
-2.141383 -4.770180 -0.664470 255 0 0
-2.144342 -4.889912 -0.661551 255 0 0
-2.024592 -4.778648 -0.657259 255 0 0
-2.064968 -4.833934 -0.549551 255 0 0
-1.992364 -4.838659 -0.693224 255 0 0
-2.014271 -4.768573 -0.657291 255 0 0
-2.059075 -4.893999 -0.657551 255 0 0
-2.068165 -4.808235 -0.511551 255 0 0
-2.038013 -4.839180 -0.617551 255 0 0
-2.123818 -4.865924 -0.727551 255 0 0
-2.070152 -4.733268 -0.687551 255 0 0
-1.996807 -4.778419 -0.683551 255 0 0
-2.025763 -4.745684 -0.734059 255 0 0
-2.039202 -4.804168 -0.601551 255 0 0
-2.076268 -4.867853 -0.666551 255 0 0
-2.130208 -4.900376 -0.701551 255 0 0
-2.035060 -4.885614 -0.733551 255 0 0
-2.029174 -4.752109 -0.711551 255 0 0
-1.994951 -4.817663 -0.743551 255 0 0
-2.096436 -4.751108 -0.664538 255 0 0
-1.986620 -4.809210 -0.669551 255 0 0
-2.057177 -4.893475 -0.681551 255 0 0
-2.000360 -4.818558 -0.666532 255 0 0
-2.032278 -4.832220 -0.595551 255 0 0
-2.077124 -4.823784 -0.545551 255 0 0
-2.030980 -4.885658 -0.715812 255 0 0
-2.156454 -4.735269 -0.705551 255 0 0
-2.037008 -4.823036 -0.635551 255 0 0
-2.046229 -4.837433 -0.633551 255 0 0
-2.037870 -4.773780 -0.657116 255 0 0
-2.151521 -4.727132 -0.725551 255 0 0
-2.085535 -4.824878 -0.571551 255 0 0
-1.997042 -4.827442 -0.731551 255 0 0
-2.056492 -4.894548 -0.743551 255 0 0
-2.090043 -4.848567 -0.615551 255 0 0
-2.064160 -4.887846 -0.699551 255 0 0
-2.112246 -4.777392 -0.663551 255 0 0
-2.155975 -4.886928 -0.649551 255 0 0
-1.999765 -4.792103 -0.669551 255 0 0
-2.077780 -4.798012 -0.534113 255 0 0
-2.045266 -4.847056 -0.603551 255 0 0
-2.141880 -4.897571 -0.635551 255 0 0
-2.154397 -4.746967 -0.683551 255 0 0
-2.008838 -4.822890 -0.657551 255 0 0
-2.022588 -4.807699 -0.664458 255 0 0
-2.089851 -4.806706 -0.553551 255 0 0
-2.105679 -4.736876 -0.666452 255 0 0
-2.150572 -4.899985 -0.613551 255 0 0
-2.049536 -4.881713 -0.665551 255 0 0
-2.151216 -4.883777 -0.717551 255 0 0
-2.153220 -4.726770 -0.687551 255 0 0
-2.099715 -4.795394 -0.575396 255 0 0
-2.052178 -4.802619 -0.563551 255 0 0
-2.115939 -4.886001 -0.663551 255 0 0
-2.122169 -4.901034 -0.645601 255 0 0
-2.046384 -4.736880 -0.679551 255 0 0
-2.017673 -4.823056 -0.666551 255 0 0
-2.081645 -4.782878 -0.581551 255 0 0
-2.084018 -4.810999 -0.537551 255 0 0
-2.048511 -4.843081 -0.575551 255 0 0
-2.093270 -4.890128 -0.735551 255 0 0
-2.021954 -4.852817 -0.657093 255 0 0
-2.089935 -4.840411 -0.637551 255 0 0
-2.031485 -4.795584 -0.581551 255 0 0
-2.030961 -4.741277 -0.715551 255 0 0
-2.022168 -4.757627 -0.685551 255 0 0
-2.087631 -4.882834 -0.669551 255 0 0
-2.053124 -4.884025 -0.711551 255 0 0
-2.102930 -4.835605 -0.653551 255 0 0
-2.043764 -4.791893 -0.615551 255 0 0
-2.000410 -4.843083 -0.667551 255 0 0
-2.054599 -4.842864 -0.621551 255 0 0
-2.060902 -4.853281 -0.641551 255 0 0
-2.108052 -4.854963 -0.657551 255 0 0
-2.108737 -4.876316 -0.689551 255 0 0
-2.122406 -4.757856 -0.656791 255 0 0
-2.146354 -4.889760 -0.732485 255 0 0
-2.028168 -4.814715 -0.587551 255 0 0
-2.001501 -4.767198 -0.667551 255 0 0
-2.089324 -4.890802 -0.691551 255 0 0
-2.053104 -4.768498 -0.657315 255 0 0
-2.088053 -4.836722 -0.582444 255 0 0
-2.065688 -4.885416 -0.665551 255 0 0
-2.054276 -4.735534 -0.716351 255 0 0
-2.067065 -4.776463 -0.627551 255 0 0
-2.131951 -4.898955 -0.600761 255 0 0
-2.062313 -4.734867 -0.665551 255 0 0
-2.070031 -4.886611 -0.731551 255 0 0
-2.142142 -4.889185 -0.677551 255 0 0
-2.139634 -4.848250 -0.657551 255 0 0
-2.094092 -4.817037 -0.575033 255 0 0
-2.054614 -4.775599 -0.589551 255 0 0
-2.075109 -4.852782 -0.617551 255 0 0
-2.031122 -4.799751 -0.666541 255 0 0
-1.999131 -4.798372 -0.695551 255 0 0
-2.027257 -4.771947 -0.666548 255 0 0
-2.037798 -4.816734 -0.623551 255 0 0
-2.051639 -4.809703 -0.582507 255 0 0
-2.003318 -4.803616 -0.666550 255 0 0
-2.077357 -4.844120 -0.665551 255 0 0
-2.050004 -4.869346 -0.666513 255 0 0
-2.011975 -4.805865 -0.657017 255 0 0
-2.104464 -4.880262 -0.721551 255 0 0
-2.014400 -4.764456 -0.673551 255 0 0
-2.001641 -4.766871 -0.685551 255 0 0
-2.020584 -4.836750 -0.666551 255 0 0
-2.058926 -4.843986 -0.593551 255 0 0
-2.005275 -4.851301 -0.705551 255 0 0
-2.099365 -4.880324 -0.705551 255 0 0
-2.016073 -4.748193 -0.665551 255 0 0
-2.073027 -4.833371 -0.541551 255 0 0
-2.048729 -4.796009 -0.575357 255 0 0
-2.049947 -4.849839 -0.613551 255 0 0
-2.124759 -4.855501 -0.656941 255 0 0
-2.079311 -4.843693 -0.637551 255 0 0
-2.093520 -4.858052 -0.657551 255 0 0
-2.032464 -4.748349 -0.694587 255 0 0
-2.112502 -4.749738 -0.656995 255 0 0
-2.016473 -4.788552 -0.657492 255 0 0
-2.058918 -4.843945 -0.661551 255 0 0
-2.038656 -4.787098 -0.589551 255 0 0
-2.049045 -4.840924 -0.655551 255 0 0
-2.027082 -4.872174 -0.665551 255 0 0
-2.007063 -4.773140 -0.703551 255 0 0
-2.074184 -4.821268 -0.507551 255 0 0
-2.038752 -4.830844 -0.585551 255 0 0
-2.050799 -4.776893 -0.627551 255 0 0
-2.089546 -4.862986 -0.666527 255 0 0
-2.018998 -4.752333 -0.725551 255 0 0
-1.996585 -4.815271 -0.707551 255 0 0
-2.057885 -4.887183 -0.735551 255 0 0
-2.026751 -4.875381 -0.717551 255 0 0
-2.147391 -4.894641 -0.595551 255 0 0
-2.148620 -4.900423 -0.559551 255 0 0
-2.107077 -4.820410 -0.588296 255 0 0
-2.147585 -4.885933 -0.699551 255 0 0
-2.056090 -4.821025 -0.534463 255 0 0
-2.094143 -4.836514 -0.599551 255 0 0
-2.079444 -4.873179 -0.657551 255 0 0
-2.052988 -4.782835 -0.601551 255 0 0
-1.992869 -4.789480 -0.677551 255 0 0
-2.053841 -4.829681 -0.575123 255 0 0
-2.099347 -4.764803 -0.664538 255 0 0
-2.031906 -4.832299 -0.652554 255 0 0
-2.133221 -4.895314 -0.659551 255 0 0
-2.011674 -4.765974 -0.691551 255 0 0
-2.035941 -4.841665 -0.664462 255 0 0
-2.006985 -4.782390 -0.657337 255 0 0
-2.117044 -4.876922 -0.657551 255 0 0
-1.995983 -4.836443 -0.655551 255 0 0
-2.042612 -4.892284 -0.659551 255 0 0
-2.014616 -4.872779 -0.705551 255 0 0
-2.055426 -4.798661 -0.543551 255 0 0
-2.111160 -4.829766 -0.657551 255 0 0
-2.007429 -4.851815 -0.657973 255 0 0
-1.999130 -4.837221 -0.677551 255 0 0
-2.013213 -4.859787 -0.691551 255 0 0
-2.075190 -4.843546 -0.582449 255 0 0
-1.992071 -4.836677 -0.709551 255 0 0
-2.062258 -4.734607 -0.695551 255 0 0
-2.099800 -4.882368 -0.739551 255 0 0
-2.081413 -4.892062 -0.703551 255 0 0
-2.078101 -4.857240 -0.666540 255 0 0
-2.061326 -4.864895 -0.666543 255 0 0
-1.995362 -4.819620 -0.689551 255 0 0
-1.995770 -4.821578 -0.721551 255 0 0
-1.999741 -4.855494 -0.677551 255 0 0
-2.029875 -4.803505 -0.607551 255 0 0
-2.056602 -4.886346 -0.673551 255 0 0
-2.043992 -4.744869 -0.665551 255 0 0
-1.994368 -4.809608 -0.728545 255 0 0
-2.068767 -4.794088 -0.573551 255 0 0
-2.075625 -4.749398 -0.657364 255 0 0
-2.069699 -4.894666 -0.713551 255 0 0
-1.991873 -4.797870 -0.744228 255 0 0
-2.044911 -4.739569 -0.744219 255 0 0
-2.077849 -4.884910 -0.719551 255 0 0
-2.061169 -4.807677 -0.503551 255 0 0
-2.066212 -4.782069 -0.575419 255 0 0
-2.008515 -4.760730 -0.721551 255 0 0
-2.059091 -4.883240 -0.657551 255 0 0
-2.102681 -4.835658 -0.631551 255 0 0
-2.067258 -4.854327 -0.579551 255 0 0
-2.059236 -4.853071 -0.655551 255 0 0
-2.007837 -4.771985 -0.723551 255 0 0
-2.068533 -4.773748 -0.639551 255 0 0
-2.075039 -4.765880 -0.656838 255 0 0
-1.995344 -4.809401 -0.683551 255 0 0
-2.105659 -4.832980 -0.578023 255 0 0
-2.089791 -4.883380 -0.682554 255 0 0
-2.035989 -4.813029 -0.638543 255 0 0
-2.041509 -4.889554 -0.741551 255 0 0
-2.065748 -4.895317 -0.687551 255 0 0
-2.022243 -4.762789 -0.665551 255 0 0
-2.009630 -4.790006 -0.665551 255 0 0
-2.033104 -4.886034 -0.705551 255 0 0
-2.046337 -4.890572 -0.706984 255 0 0
-2.117715 -4.870457 -0.691551 255 0 0
-2.081030 -4.851782 -0.629551 255 0 0
-2.021368 -4.869299 -0.657269 255 0 0
-2.139039 -4.836108 -0.664496 255 0 0
-2.069541 -4.845824 -0.657551 255 0 0
-2.004030 -4.783018 -0.677551 255 0 0
-2.037633 -4.806546 -0.659551 255 0 0
-2.100206 -4.836184 -0.588964 255 0 0
-2.146945 -4.738328 -0.701551 255 0 0
-2.065115 -4.776907 -0.591551 255 0 0
-2.026413 -4.745546 -0.673551 255 0 0
-2.064660 -4.736288 -0.715551 255 0 0
-2.037974 -4.839188 -0.605551 255 0 0
-2.101138 -4.830946 -0.663551 255 0 0
-2.001169 -4.857235 -0.689551 255 0 0
-2.108005 -4.815158 -0.651551 255 0 0
-2.154092 -4.897304 -0.649551 255 0 0
-2.056426 -4.735077 -0.677551 255 0 0
-2.040272 -4.799851 -0.641551 255 0 0
-2.029129 -4.876950 -0.735551 255 0 0
-2.080848 -4.736020 -0.657551 255 0 0
-2.034861 -4.740387 -0.725551 255 0 0
-2.019214 -4.878403 -0.681551 255 0 0
-2.033433 -4.743288 -0.743551 255 0 0
-2.079155 -4.791586 -0.575551 255 0 0
-2.069492 -4.826355 -0.534209 255 0 0
-2.048799 -4.882916 -0.723551 255 0 0
-2.095288 -4.889998 -0.659551 255 0 0
-2.056705 -4.872011 -0.657228 255 0 0
-2.083228 -4.842882 -0.621551 255 0 0
-2.055790 -4.781132 -0.611551 255 0 0
-2.063174 -4.854350 -0.631551 255 0 0
-2.131331 -4.894998 -0.627551 255 0 0
-2.113581 -4.879867 -0.733551 255 0 0
-2.046487 -4.891278 -0.689551 255 0 0
-2.115413 -4.816594 -0.581551 255 0 0
-2.027661 -4.808665 -0.655551 255 0 0
-2.042053 -4.783844 -0.599551 255 0 0
-2.065630 -4.846667 -0.601551 255 0 0
-2.091541 -4.881994 -0.715551 255 0 0
-2.048724 -4.805607 -0.549551 255 0 0
-2.033982 -4.793009 -0.611551 255 0 0
-2.003276 -4.784182 -0.697551 255 0 0
-2.033453 -4.836060 -0.575551 255 0 0
-2.125317 -4.771550 -0.656791 255 0 0
-2.008054 -4.854755 -0.723551 255 0 0
-2.012589 -4.856852 -0.666528 255 0 0
-2.062668 -4.813492 -0.532374 255 0 0
-2.101529 -4.880885 -0.666542 255 0 0
-2.037631 -4.806546 -0.585551 255 0 0
-2.090397 -4.770794 -0.657215 255 0 0
-2.100697 -4.876973 -0.657080 255 0 0
-2.048823 -4.738737 -0.657441 255 0 0
-1.988083 -4.808899 -0.657562 255 0 0
-2.017503 -4.841495 -0.657469 255 0 0
-2.038213 -4.818691 -0.613551 255 0 0
-2.049987 -4.822322 -0.555551 255 0 0
-2.096313 -4.740911 -0.664477 255 0 0
-2.037008 -4.823036 -0.603551 255 0 0
-2.065163 -4.777134 -0.611551 255 0 0
-1.987532 -4.813106 -0.689551 255 0 0
-2.133676 -4.874052 -0.667551 255 0 0
-2.030508 -4.748764 -0.657393 255 0 0
-2.157295 -4.893136 -0.609551 255 0 0
-2.070161 -4.733308 -0.723551 255 0 0
-2.054261 -4.783561 -0.645551 255 0 0
-2.107999 -4.815130 -0.629551 255 0 0
-2.080981 -4.731902 -0.705551 255 0 0
-2.037411 -4.762002 -0.657551 255 0 0
-1.986708 -4.802428 -0.677551 255 0 0
-2.060632 -4.823150 -0.569551 255 0 0
-2.076091 -4.818927 -0.531551 255 0 0
-2.038259 -4.828904 -0.615551 255 0 0
-2.010387 -4.836873 -0.666544 255 0 0
-2.028046 -4.788137 -0.657551 255 0 0
-2.027664 -4.821962 -0.665551 255 0 0
-2.057709 -4.809398 -0.557551 255 0 0
-2.055938 -4.829925 -0.547551 255 0 0
-2.087317 -4.820521 -0.537551 255 0 0
-2.074545 -4.773176 -0.621551 255 0 0
-2.004616 -4.776759 -0.667551 255 0 0
-2.068967 -4.833505 -0.559551 255 0 0
-2.035093 -4.856911 -0.657551 255 0 0
-1.998879 -4.771845 -0.735551 255 0 0
-2.076304 -4.824907 -0.575551 255 0 0
-2.012389 -4.860984 -0.735551 255 0 0
-1.990892 -4.828749 -0.693551 255 0 0
-1.992052 -4.791698 -0.729551 255 0 0
-2.103816 -4.833927 -0.605551 255 0 0
-2.028036 -4.812675 -0.645551 255 0 0
-2.155634 -4.894942 -0.673551 255 0 0
-2.061797 -4.895968 -0.719551 255 0 0
-2.095149 -4.889347 -0.723551 255 0 0
-1.996174 -4.799001 -0.657551 255 0 0
-2.075600 -4.893571 -0.685551 255 0 0
-2.146283 -4.899048 -0.569551 255 0 0
-2.151705 -4.833416 -0.663551 255 0 0
-2.093090 -4.889280 -0.705551 255 0 0
-2.075902 -4.885370 -0.675551 255 0 0
-2.037850 -4.869885 -0.666523 255 0 0
-2.028220 -4.814681 -0.597551 255 0 0
-2.087140 -4.842046 -0.605551 255 0 0
-2.042311 -4.833155 -0.659551 255 0 0
-2.046228 -4.837434 -0.623551 255 0 0
-2.083231 -4.842896 -0.595551 255 0 0
-1.993494 -4.787302 -0.711551 255 0 0
-2.049003 -4.778063 -0.655551 255 0 0
-1.993263 -4.846647 -0.723551 255 0 0
-2.071496 -4.845404 -0.643551 255 0 0
-2.144324 -4.732751 -0.709551 255 0 0
-2.033834 -4.764415 -0.666545 255 0 0
-2.001375 -4.789716 -0.733551 255 0 0
-2.077269 -4.853327 -0.657415 255 0 0
-2.131602 -4.772259 -0.664515 255 0 0
-2.011997 -4.859022 -0.705551 255 0 0
-2.136865 -4.893218 -0.643551 255 0 0
-2.147059 -4.893079 -0.621551 255 0 0
-2.043764 -4.791892 -0.605551 255 0 0
-2.023714 -4.755281 -0.735551 255 0 0
-2.075893 -4.885328 -0.743551 255 0 0
-2.079806 -4.884502 -0.731551 255 0 0
-1.992201 -4.837893 -0.669551 255 0 0
-2.128802 -4.754452 -0.663551 255 0 0
-2.068763 -4.794068 -0.561551 255 0 0
-2.148613 -4.736856 -0.739551 255 0 0
-2.067075 -4.776509 -0.657551 255 0 0
-2.098373 -4.846797 -0.666544 255 0 0
-2.052048 -4.850101 -0.635551 255 0 0
-2.105414 -4.812585 -0.582498 255 0 0
-2.030659 -4.826430 -0.628790 255 0 0
-1.996819 -4.801900 -0.709551 255 0 0
-2.044479 -4.881833 -0.735551 255 0 0
-2.062423 -4.793098 -0.582489 255 0 0
-2.156410 -4.888973 -0.631551 255 0 0
-2.048632 -4.838967 -0.587551 255 0 0
-2.055686 -4.851781 -0.625551 255 0 0
-2.073057 -4.852751 -0.587551 255 0 0
-2.157200 -4.885410 -0.661551 255 0 0
-1.999157 -4.837215 -0.741551 255 0 0
-2.094148 -4.807684 -0.539551 255 0 0
-2.074822 -4.812954 -0.540497 255 0 0
-2.144125 -4.888892 -0.689551 255 0 0
-2.057465 -4.830956 -0.559551 255 0 0
-2.053382 -4.842047 -0.601551 255 0 0
-2.069534 -4.845795 -0.613551 255 0 0
-2.053388 -4.842046 -0.641551 255 0 0
-1.997425 -4.852847 -0.737551 255 0 0
-2.032217 -4.877216 -0.709551 255 0 0
-2.144647 -4.726548 -0.717551 255 0 0
-2.000361 -4.769485 -0.697551 255 0 0
-2.113490 -4.874254 -0.705551 255 0 0
-2.037501 -4.743189 -0.708650 255 0 0
-2.032811 -4.740096 -0.683551 255 0 0
-2.102538 -4.835688 -0.615551 255 0 0
-2.105507 -4.830967 -0.623551 255 0 0
-2.047018 -4.816819 -0.575148 255 0 0
-2.090667 -4.800923 -0.575551 255 0 0
-1.999974 -4.841131 -0.699551 255 0 0
-2.071251 -4.825012 -0.553551 255 0 0
-2.044478 -4.790778 -0.641551 255 0 0
-2.064527 -4.794695 -0.547551 255 0 0
-2.088820 -4.849951 -0.653551 255 0 0
-2.016703 -4.760777 -0.705551 255 0 0
-2.083327 -4.891448 -0.725551 255 0 0
-2.030549 -4.801917 -0.627551 255 0 0
-2.065551 -4.759718 -0.666550 255 0 0
-1.990822 -4.796049 -0.701551 255 0 0
-2.109072 -4.820177 -0.639551 255 0 0
-2.103136 -4.753774 -0.656809 255 0 0
-2.081475 -4.844254 -0.575270 255 0 0
-2.075897 -4.885350 -0.699551 255 0 0
-2.042235 -4.794316 -0.629551 255 0 0
-2.020591 -4.750206 -0.705551 255 0 0
-2.113041 -4.761892 -0.658073 255 0 0
-2.107984 -4.863156 -0.664442 255 0 0
-2.137404 -4.895752 -0.706503 255 0 0
-1.999171 -4.837213 -0.725551 255 0 0
-2.111568 -4.851158 -0.665551 255 0 0
-2.049437 -4.789724 -0.582487 255 0 0
-2.131449 -4.896592 -0.691551 255 0 0
-2.059834 -4.886735 -0.689551 255 0 0
-2.047972 -4.830929 -0.582515 255 0 0
-2.017307 -4.876296 -0.669551 255 0 0
-2.072653 -4.778655 -0.581551 255 0 0
-2.039949 -4.783562 -0.657164 255 0 0
-2.084698 -4.753603 -0.657083 255 0 0
-2.089894 -4.869046 -0.657551 255 0 0
-2.042412 -4.844379 -0.593551 255 0 0
-2.052222 -4.850923 -0.649551 255 0 0
-2.042097 -4.880245 -0.687551 255 0 0
-2.011678 -4.765993 -0.737551 255 0 0
-2.067658 -4.836968 -0.582501 255 0 0
-2.106760 -4.886257 -0.691551 255 0 0
-2.014764 -4.862524 -0.675551 255 0 0
-2.055596 -4.737298 -0.733551 255 0 0
-2.081451 -4.824904 -0.525551 255 0 0
-2.062835 -4.854351 -0.609551 255 0 0
-2.001702 -4.767155 -0.708403 255 0 0
-2.036542 -4.810867 -0.595551 255 0 0
-2.097409 -4.880740 -0.675551 255 0 0
-2.040269 -4.799851 -0.653551 255 0 0
-2.061307 -4.845565 -0.583551 255 0 0
-2.032573 -4.795353 -0.591551 255 0 0
-2.104942 -4.829603 -0.639551 255 0 0
-2.142782 -4.853715 -0.664456 255 0 0
-2.039163 -4.840980 -0.655551 255 0 0
-2.127340 -4.858022 -0.665551 255 0 0
-2.122071 -4.900570 -0.631551 255 0 0
-2.021580 -4.870296 -0.743551 255 0 0
-2.013889 -4.757156 -0.693551 255 0 0
-2.106105 -4.820617 -0.597551 255 0 0
-2.046262 -4.851739 -0.666525 255 0 0
-2.107758 -4.746657 -0.664513 255 0 0
-2.062208 -4.766563 -0.657551 255 0 0
-2.100962 -4.801263 -0.582505 255 0 0
-2.024417 -4.845165 -0.665551 255 0 0
-2.133302 -4.895692 -0.675551 255 0 0
-2.086410 -4.843206 -0.659551 255 0 0
-2.047772 -4.738961 -0.693551 255 0 0
-2.051318 -4.750475 -0.664452 255 0 0
-2.084773 -4.874224 -0.665551 255 0 0
-2.022016 -4.872345 -0.689551 255 0 0
-2.068042 -4.732959 -0.707551 255 0 0
-2.064425 -4.845834 -0.623551 255 0 0
-1.991210 -4.793922 -0.687551 255 0 0
-2.106658 -4.885776 -0.707551 255 0 0
-2.037306 -4.838465 -0.627551 255 0 0
-2.129475 -4.896926 -0.649551 255 0 0
-2.067893 -4.871678 -0.665551 255 0 0
-2.049105 -4.778539 -0.617551 255 0 0
-2.107077 -4.820410 -0.620543 255 0 0
-2.070945 -4.775476 -0.603551 255 0 0
-2.030641 -4.884062 -0.687551 255 0 0
-1.996631 -4.852065 -0.669551 255 0 0
-2.096511 -4.789941 -0.582538 255 0 0
-2.031859 -4.860935 -0.666545 255 0 0
-2.083099 -4.851897 -0.609551 255 0 0
-2.028901 -4.875876 -0.657282 255 0 0
-2.060343 -4.783316 -0.582481 255 0 0
-1.992264 -4.838681 -0.683551 255 0 0
-2.086777 -4.763385 -0.664455 255 0 0
-2.018685 -4.760477 -0.719551 255 0 0
-2.098413 -4.866226 -0.665551 255 0 0
-2.017604 -4.876233 -0.733551 255 0 0
-2.095933 -4.843226 -0.621551 255 0 0
-1.998159 -4.853785 -0.699551 255 0 0
-2.077495 -4.773537 -0.641551 255 0 0
-1.996035 -4.803120 -0.719551 255 0 0
-2.068079 -4.887046 -0.719551 255 0 0
-2.032709 -4.739882 -0.667551 255 0 0
-2.043769 -4.791916 -0.595551 255 0 0
-2.064961 -4.824279 -0.561551 255 0 0
-2.037622 -4.806548 -0.621551 255 0 0
-2.093704 -4.882549 -0.692546 255 0 0
-2.151312 -4.735355 -0.729551 255 0 0
-2.029606 -4.883905 -0.741551 255 0 0
-2.078951 -4.851621 -0.645551 255 0 0
-2.075004 -4.833051 -0.567551 255 0 0
-2.100083 -4.825986 -0.574253 255 0 0
-2.156875 -4.900782 -0.579551 255 0 0
-2.038461 -4.742985 -0.699551 255 0 0
-2.002482 -4.847781 -0.681551 255 0 0
-2.148592 -4.890669 -0.653551 255 0 0
-2.004700 -4.776742 -0.711551 255 0 0
-2.017424 -4.876271 -0.697551 255 0 0
-2.048142 -4.812491 -0.543066 255 0 0
-2.111235 -4.839973 -0.657231 255 0 0
-2.103111 -4.888327 -0.679551 255 0 0
-2.020188 -4.750958 -0.691551 255 0 0
-2.116267 -4.859351 -0.657551 255 0 0
-1.986442 -4.809248 -0.723551 255 0 0
-2.070039 -4.886645 -0.691551 255 0 0
-2.002927 -4.858906 -0.733551 255 0 0
-2.016434 -4.865321 -0.723551 255 0 0
-2.071251 -4.853872 -0.627551 255 0 0
-2.058249 -4.754222 -0.657551 255 0 0
-1.995774 -4.821577 -0.677551 255 0 0
-2.057140 -4.777863 -0.575387 255 0 0
-2.109592 -4.883261 -0.683551 255 0 0
-2.040016 -4.785592 -0.631551 255 0 0
-1.995016 -4.850364 -0.715551 255 0 0
-2.107239 -4.888508 -0.741551 255 0 0
-2.055106 -4.893349 -0.727551 255 0 0
-2.005005 -4.763458 -0.675551 255 0 0
-2.043200 -4.760379 -0.664420 255 0 0
-2.001731 -4.786529 -0.743551 255 0 0
-1.994097 -4.813755 -0.671551 255 0 0
-2.065718 -4.895179 -0.677551 255 0 0
-2.007140 -4.864144 -0.717551 255 0 0
-2.010151 -4.768427 -0.665551 255 0 0
-2.030243 -4.824474 -0.588224 255 0 0
-1.986953 -4.809139 -0.733551 255 0 0
-2.075134 -4.852901 -0.597551 255 0 0
-2.144389 -4.726603 -0.731735 255 0 0
-2.031797 -4.831785 -0.621551 255 0 0
-2.113089 -4.800600 -0.657551 255 0 0
-2.036821 -4.816942 -0.646549 255 0 0
-2.069660 -4.894484 -0.703551 255 0 0
-2.035573 -4.811073 -0.575357 255 0 0
-2.111188 -4.868609 -0.657170 255 0 0
-2.087656 -4.738662 -0.664502 255 0 0
-2.082477 -4.829729 -0.582518 255 0 0
-2.075406 -4.844562 -0.603551 255 0 0
-2.077071 -4.804297 -0.540536 255 0 0
-2.037860 -4.826944 -0.643551 255 0 0
-2.069539 -4.845817 -0.633551 255 0 0
-2.014224 -4.797209 -0.657537 255 0 0
-2.118324 -4.777126 -0.656995 255 0 0
-2.035913 -4.774196 -0.666534 255 0 0
-2.051081 -4.893653 -0.662069 255 0 0
-2.118078 -4.756732 -0.664531 255 0 0
-2.014054 -4.815647 -0.657385 255 0 0
-1.997292 -4.778316 -0.693551 255 0 0
-2.085658 -4.825457 -0.547551 255 0 0
-2.010139 -4.867596 -0.699551 255 0 0
-2.127834 -4.841107 -0.657551 255 0 0
-2.005687 -4.862858 -0.675551 255 0 0
-1.987693 -4.813071 -0.709551 255 0 0
-2.005274 -4.851296 -0.671551 255 0 0
-2.034212 -4.746952 -0.731551 255 0 0
-2.039765 -4.888513 -0.725551 255 0 0
-2.024747 -4.750521 -0.665551 255 0 0
-2.076881 -4.774546 -0.657551 255 0 0
-2.005324 -4.764957 -0.657551 255 0 0
-2.139159 -4.899468 -0.719551 255 0 0
-2.048561 -4.808312 -0.569551 255 0 0
-2.097753 -4.842839 -0.575551 255 0 0
-2.083720 -4.883676 -0.709551 255 0 0
-1.994420 -4.805507 -0.667551 255 0 0
-2.148444 -4.889972 -0.669551 255 0 0
-1.997479 -4.829394 -0.715551 255 0 0
-2.148779 -4.891551 -0.611551 255 0 0
-2.062712 -4.736741 -0.683551 255 0 0
-2.039637 -4.887907 -0.713224 255 0 0
-2.069123 -4.795763 -0.534223 255 0 0
-2.036991 -4.798504 -0.575314 255 0 0
-1.990388 -4.796141 -0.671551 255 0 0
-2.145771 -4.896636 -0.643551 255 0 0
-2.109695 -4.842346 -0.588543 255 0 0
-1.996002 -4.817296 -0.657551 255 0 0
-2.106892 -4.819541 -0.659551 255 0 0
-2.071601 -4.893995 -0.741551 255 0 0
-2.052899 -4.892585 -0.701551 255 0 0
-2.087439 -4.785736 -0.575604 255 0 0
-2.039274 -4.840956 -0.645551 255 0 0
-2.057182 -4.797302 -0.573551 255 0 0
-1.986840 -4.809163 -0.697551 255 0 0
-2.028391 -4.825380 -0.657551 255 0 0
-2.076737 -4.882066 -0.657551 255 0 0
-2.030609 -4.801905 -0.645551 255 0 0
-2.011256 -4.869403 -0.733551 255 0 0
-2.058582 -4.736552 -0.657551 255 0 0
-1.995540 -4.776644 -0.663831 255 0 0
-2.110375 -4.768592 -0.664547 255 0 0
-2.056799 -4.814740 -0.540448 255 0 0
-2.023086 -4.873023 -0.703551 255 0 0
-2.029174 -4.752109 -0.679551 255 0 0
-2.046175 -4.884473 -0.673551 255 0 0
-2.067338 -4.825841 -0.545551 255 0 0
-2.033276 -4.848365 -0.657634 255 0 0
-2.081553 -4.815764 -0.517551 255 0 0
-2.141771 -4.897058 -0.615551 255 0 0
-2.144450 -4.837003 -0.657551 255 0 0
-2.025416 -4.882751 -0.701551 255 0 0
-1.990377 -4.824769 -0.683551 255 0 0
-2.056121 -4.816929 -0.561551 255 0 0
-2.130357 -4.901076 -0.581551 255 0 0
-1.993569 -4.846582 -0.687551 255 0 0
-1.996271 -4.780085 -0.735551 255 0 0
-2.149806 -4.745898 -0.693551 255 0 0
-2.085343 -4.891309 -0.669551 255 0 0
-2.041111 -4.798647 -0.621551 255 0 0
-2.121555 -4.850048 -0.664438 255 0 0
-1.996617 -4.800951 -0.684532 255 0 0
-2.068532 -4.860320 -0.665551 255 0 0
-2.018805 -4.770662 -0.665551 255 0 0
-2.010464 -4.827618 -0.665551 255 0 0
-2.042097 -4.880243 -0.697551 255 0 0
-2.116965 -4.876548 -0.697551 255 0 0
-2.058190 -4.816489 -0.579551 255 0 0
-2.061515 -4.750352 -0.664476 255 0 0
-2.108948 -4.829215 -0.585551 255 0 0
-2.101870 -4.776675 -0.657551 255 0 0
-2.003072 -4.783222 -0.688575 255 0 0
-2.031273 -4.877417 -0.726553 255 0 0
-2.037321 -4.809678 -0.609551 255 0 0
-2.109912 -4.795272 -0.578668 255 0 0
-2.095898 -4.883251 -0.729551 255 0 0
-2.012128 -4.869218 -0.657551 255 0 0
-2.080429 -4.830164 -0.561551 255 0 0
-2.040925 -4.865108 -0.657551 255 0 0
-2.000134 -4.855973 -0.659551 255 0 0
-2.091132 -4.829934 -0.575551 255 0 0
-2.089589 -4.882427 -0.735551 255 0 0
-2.156967 -4.891593 -0.690503 255 0 0
-2.115323 -4.875909 -0.673551 255 0 0
-2.007183 -4.831420 -0.657520 255 0 0
-2.042786 -4.845009 -0.613551 255 0 0
-2.089494 -4.814646 -0.557551 255 0 0
-2.024806 -4.747932 -0.717551 255 0 0
-2.051025 -4.758716 -0.657255 255 0 0
-2.065200 -4.854260 -0.597551 255 0 0
-2.040697 -4.830431 -0.607551 255 0 0
-2.064917 -4.804836 -0.533252 255 0 0
-2.152536 -4.736073 -0.713551 255 0 0
-2.010145 -4.768401 -0.683551 255 0 0
-1.998858 -4.773014 -0.673551 255 0 0
-2.003580 -4.781069 -0.723551 255 0 0
-2.115932 -4.871690 -0.744650 255 0 0
-2.032856 -4.884864 -0.673551 255 0 0
-2.091881 -4.846132 -0.599551 255 0 0
-2.005397 -4.813398 -0.657530 255 0 0
-2.020698 -4.871486 -0.711551 255 0 0
-2.085346 -4.891327 -0.743551 255 0 0
-2.095186 -4.889521 -0.685551 255 0 0
-2.000387 -4.843088 -0.735551 255 0 0
-2.063793 -4.809164 -0.540466 255 0 0
-2.115003 -4.843262 -0.665551 255 0 0
-2.012875 -4.871104 -0.675551 255 0 0
-2.029875 -4.875669 -0.689551 255 0 0
-2.058272 -4.821668 -0.545551 255 0 0
-2.039782 -4.888590 -0.667551 255 0 0
-2.093648 -4.747612 -0.657060 255 0 0
-2.064166 -4.887875 -0.711551 255 0 0
-1.996215 -4.823528 -0.697551 255 0 0
-2.139953 -4.898123 -0.597551 255 0 0
-2.027939 -4.751355 -0.701551 255 0 0
-2.030684 -4.828470 -0.637551 255 0 0
-2.045430 -4.847827 -0.581846 255 0 0
-1.989869 -4.826922 -0.656956 255 0 0
-2.009231 -4.855521 -0.713551 255 0 0
-2.051516 -4.799505 -0.582500 255 0 0
-2.048436 -4.804250 -0.539877 255 0 0
-1.992408 -4.790769 -0.719551 255 0 0
-2.057433 -4.769622 -0.664439 255 0 0
-2.143889 -4.897402 -0.677551 255 0 0
-2.031415 -4.791510 -0.664448 255 0 0
-2.080842 -4.889372 -0.657322 255 0 0
-1.986420 -4.801074 -0.738639 255 0 0
-2.069387 -4.835482 -0.573551 255 0 0
-2.148536 -4.900026 -0.577551 255 0 0
-2.005588 -4.862429 -0.659551 255 0 0
-2.043770 -4.791921 -0.657551 255 0 0
-2.045611 -4.882548 -0.715551 255 0 0
-2.042538 -4.738029 -0.670113 255 0 0
-2.007304 -4.864109 -0.687551 255 0 0
-1.999568 -4.839173 -0.687551 255 0 0
-2.031069 -4.876458 -0.671551 255 0 0
-2.054202 -4.827560 -0.539551 255 0 0
-2.124031 -4.900171 -0.613551 255 0 0
-2.029969 -4.823186 -0.609551 255 0 0
-2.111866 -4.881420 -0.725551 255 0 0
-2.042725 -4.844718 -0.635551 255 0 0
-2.061821 -4.896084 -0.699551 255 0 0
-2.036112 -4.823227 -0.582455 255 0 0
-2.029755 -4.818444 -0.637551 255 0 0
-2.002705 -4.858953 -0.707551 255 0 0
-2.056974 -4.843328 -0.575551 255 0 0
-2.015705 -4.753956 -0.733551 255 0 0
-1.998360 -4.774000 -0.727551 255 0 0
-2.046712 -4.780080 -0.645551 255 0 0
-2.038679 -4.787206 -0.647551 255 0 0
-1.998188 -4.794483 -0.739551 255 0 0
-2.095433 -4.842587 -0.583551 255 0 0
-2.055681 -4.814978 -0.551551 255 0 0
-2.041395 -4.838461 -0.575499 255 0 0
-2.124466 -4.863742 -0.736557 255 0 0
-2.044202 -4.745854 -0.657186 255 0 0
-2.054276 -4.735534 -0.697591 255 0 0
-2.060908 -4.834070 -0.575551 255 0 0
-1.989493 -4.822912 -0.739551 255 0 0
-1.998460 -4.853721 -0.723551 255 0 0
-1.986775 -4.807132 -0.715551 255 0 0
-2.048915 -4.816124 -0.565551 255 0 0
-2.156740 -4.726994 -0.705551 255 0 0
-2.040135 -4.887801 -0.701551 255 0 0
-2.077373 -4.892293 -0.715551 255 0 0
-2.140539 -4.900883 -0.555551 255 0 0
-2.054059 -4.782607 -0.632573 255 0 0
-2.030754 -4.884598 -0.665551 255 0 0
-2.030009 -4.824524 -0.597551 255 0 0
-2.006426 -4.852028 -0.695551 255 0 0
-2.034925 -4.813255 -0.655551 255 0 0
-2.092601 -4.838882 -0.629551 255 0 0
-2.105192 -4.888496 -0.721551 255 0 0
-2.058740 -4.775771 -0.629551 255 0 0
-2.044725 -4.782547 -0.585551 255 0 0
-2.102050 -4.837837 -0.597551 255 0 0
-2.037259 -4.838242 -0.591551 255 0 0
-1.988947 -4.820984 -0.671551 255 0 0
-2.030215 -4.757005 -0.657049 255 0 0
-2.141837 -4.897371 -0.585551 255 0 0
-1.990869 -4.826709 -0.703551 255 0 0
-2.156944 -4.895687 -0.591551 255 0 0
-2.058954 -4.863354 -0.657426 255 0 0
-2.098004 -4.816205 -0.582537 255 0 0
-2.072129 -4.752186 -0.664464 255 0 0
-2.089026 -4.754728 -0.664520 255 0 0
-2.039608 -4.820439 -0.575164 255 0 0
-2.038699 -4.802230 -0.593551 255 0 0
-2.128937 -4.778960 -0.657181 255 0 0
-2.141090 -4.778421 -0.664507 255 0 0
-2.057754 -4.828850 -0.582482 255 0 0
-2.021661 -4.861058 -0.657177 255 0 0
-2.066126 -4.887476 -0.673551 255 0 0
-2.036595 -4.821079 -0.663551 255 0 0
-2.033031 -4.827971 -0.573298 255 0 0
-2.132168 -4.851881 -0.656970 255 0 0
-1.999976 -4.841131 -0.709551 255 0 0
-2.088884 -4.840635 -0.575194 255 0 0
-2.102966 -4.772212 -0.664529 255 0 0
-2.075918 -4.741157 -0.664458 255 0 0
-1.993652 -4.811805 -0.737551 255 0 0
-2.002422 -4.785405 -0.665551 255 0 0
-2.086674 -4.777720 -0.577551 255 0 0
-2.124173 -4.871983 -0.656971 255 0 0
-2.141926 -4.897787 -0.661551 255 0 0
-2.038921 -4.879880 -0.677551 255 0 0
-1.989087 -4.818909 -0.717551 255 0 0
-2.047265 -4.789122 -0.633551 255 0 0
-2.057552 -4.808663 -0.511551 255 0 0
-2.097632 -4.833691 -0.647551 255 0 0
-2.044447 -4.766248 -0.657373 255 0 0
-2.140069 -4.895185 -0.731551 255 0 0
-2.149829 -4.893110 -0.603551 255 0 0
-2.134561 -4.894311 -0.683551 255 0 0
-2.091145 -4.889747 -0.677551 255 0 0
-2.085184 -4.842465 -0.587551 255 0 0
-2.067900 -4.895824 -0.663551 255 0 0
-2.076211 -4.732916 -0.739264 255 0 0
-2.031477 -4.885552 -0.725551 255 0 0
-1.994880 -4.807454 -0.703551 255 0 0
-2.017185 -4.864054 -0.685551 255 0 0
-2.062322 -4.802244 -0.551551 255 0 0
-2.118446 -4.869111 -0.665551 255 0 0
-2.042345 -4.883242 -0.655551 255 0 0
-2.048606 -4.785811 -0.575355 255 0 0
-2.075067 -4.833348 -0.582486 255 0 0
-2.063112 -4.805960 -0.517551 255 0 0
-2.013641 -4.765609 -0.699551 255 0 0
-2.052218 -4.841283 -0.629551 255 0 0
-2.040388 -4.785627 -0.619551 255 0 0
-2.023055 -4.873030 -0.725551 255 0 0
-1.998171 -4.794487 -0.713551 255 0 0
-2.103453 -4.761885 -0.657551 255 0 0
-2.026366 -4.883193 -0.679551 255 0 0
-2.070165 -4.733331 -0.667551 255 0 0
-2.049881 -4.859149 -0.664407 255 0 0
-2.070331 -4.772588 -0.575551 255 0 0
-2.005945 -4.777498 -0.683551 255 0 0
-2.083677 -4.844995 -0.645551 255 0 0
-2.039031 -4.788865 -0.665551 255 0 0
-2.003271 -4.784159 -0.707551 255 0 0
-2.081280 -4.891432 -0.693551 255 0 0
-2.052083 -4.879127 -0.657182 255 0 0
-2.135958 -4.840852 -0.657817 255 0 0
-2.050439 -4.775198 -0.664452 255 0 0
-2.022295 -4.815940 -0.666526 255 0 0
-2.134956 -4.855378 -0.666547 255 0 0
-2.020639 -4.750432 -0.679551 255 0 0
-2.022669 -4.798459 -0.665551 255 0 0
-1.992993 -4.841618 -0.661551 255 0 0
-2.075852 -4.865897 -0.657431 255 0 0
-2.023040 -4.829064 -0.665551 255 0 0
-2.040686 -4.830433 -0.633551 255 0 0
-2.025217 -4.781590 -0.665551 255 0 0
-2.043464 -4.833932 -0.641551 255 0 0
-2.047895 -4.840182 -0.647551 255 0 0
-2.037775 -4.879148 -0.715551 255 0 0
-2.052572 -4.801326 -0.555551 255 0 0
-2.108939 -4.877266 -0.657678 255 0 0
-2.077052 -4.732737 -0.675551 255 0 0
-2.051006 -4.854820 -0.657202 255 0 0
-2.128842 -4.836231 -0.664516 255 0 0
-2.019787 -4.852237 -0.665551 255 0 0
-1.996009 -4.780633 -0.717551 255 0 0
-1.990848 -4.830803 -0.735551 255 0 0
-2.048372 -4.890526 -0.679551 255 0 0
-2.097092 -4.888867 -0.743551 255 0 0
-2.156699 -4.899829 -0.559551 255 0 0
-2.081760 -4.884073 -0.681551 255 0 0
-2.007815 -4.771990 -0.743551 255 0 0
-2.069297 -4.825441 -0.571551 255 0 0
-2.031582 -4.799653 -0.617551 255 0 0
-2.112238 -4.873548 -0.717551 255 0 0
-2.068495 -4.898621 -0.727551 255 0 0
-2.065190 -4.748400 -0.657551 255 0 0
-2.149485 -4.887049 -0.725551 255 0 0
-2.076703 -4.773705 -0.586674 255 0 0
-2.025110 -4.833744 -0.657551 255 0 0
-2.113409 -4.817020 -0.663551 255 0 0
-2.090686 -4.849109 -0.585551 255 0 0
-2.032526 -4.796736 -0.633551 255 0 0
-2.033237 -4.795212 -0.657551 255 0 0
-2.008233 -4.865219 -0.709551 255 0 0
-2.102235 -4.890959 -0.663551 255 0 0
-2.018477 -4.759500 -0.678668 255 0 0
-2.028552 -4.814610 -0.615551 255 0 0
-2.134072 -4.865789 -0.663551 255 0 0
-2.092936 -4.878936 -0.657551 255 0 0
-2.090656 -4.848969 -0.607551 255 0 0
-2.021915 -4.881451 -0.719551 255 0 0
-2.083280 -4.766173 -0.657808 255 0 0
-2.026254 -4.824947 -0.579551 255 0 0
-2.082619 -4.743822 -0.657174 255 0 0
-2.075169 -4.795346 -0.543551 255 0 0
-1.994019 -4.787191 -0.703551 255 0 0
-2.105688 -4.881210 -0.733551 255 0 0
-2.073607 -4.893813 -0.677551 255 0 0
-2.135601 -4.771409 -0.657551 255 0 0
-2.098222 -4.769131 -0.656919 255 0 0
-2.088771 -4.811245 -0.573551 255 0 0
-2.067107 -4.776661 -0.619551 255 0 0
-2.101917 -4.815373 -0.575157 255 0 0
