ply
format ascii 1.0
element vertex 1270
property float x
property float y
property float z
property uchar red
property uchar green
property uchar blue
end_header
-0.400197 0.958438 0.106131 255 0 255
-0.390731 0.950292 0.107203 255 0 255
-0.382641 0.872919 0.107810 255 0 255
-0.509436 1.008238 0.100131 255 0 255
-0.570546 0.873886 0.096131 255 0 255
-0.583988 0.993414 0.099922 255 0 255
-0.375798 0.933968 0.108131 255 0 255
-0.533587 0.961190 0.094131 255 0 255
-0.558093 0.961329 0.093181 255 0 255
-0.579811 0.916873 0.100971 255 0 255
-0.505595 0.941992 0.102131 255 0 255
-0.473808 0.953638 0.100131 255 0 255
-0.567883 0.881623 0.088131 255 0 255
-0.382934 0.881160 0.105163 255 0 255
-0.474631 0.964036 0.098131 255 0 255
-0.447341 0.972548 0.099949 255 0 255
-0.436926 0.925351 0.099771 255 0 255
-0.374917 0.918876 0.100131 255 0 255
-0.440554 0.948614 0.104131 255 0 255
-0.500657 0.991060 0.094131 255 0 255
-0.524222 1.005247 0.093227 255 0 255
-0.459514 0.924894 0.094131 255 0 255
-0.493630 1.004878 0.093135 255 0 255
-0.431274 0.971177 0.093171 255 0 255
-0.461205 0.993897 0.099608 255 0 255
-0.465609 0.953939 0.100439 255 0 255
-0.433524 0.979834 0.099932 255 0 255
-0.386185 0.904342 0.109253 255 0 255
-0.417949 0.937675 0.097132 255 0 255
-0.451423 0.991818 0.100779 255 0 255
-0.417061 0.898637 0.098131 255 0 255
-0.491428 0.955338 0.100131 255 0 255
-0.484526 0.929335 0.100131 255 0 255
-0.434478 0.965724 0.099912 255 0 255
-0.391317 0.966774 0.107190 255 0 255
-0.424139 0.879695 0.097269 255 0 255
-0.538360 0.938733 0.100787 255 0 255
-0.418166 0.984749 0.099240 255 0 255
-0.564917 0.948467 0.100499 255 0 255
-0.399047 0.911166 0.112672 255 0 255
-0.415236 0.902339 0.103954 255 0 255
-0.475917 0.997024 0.100131 255 0 255
-0.472107 0.913746 0.102131 255 0 255
-0.414868 0.932931 0.101502 255 0 255
-0.502022 0.926920 0.097319 255 0 255
-0.464534 0.930138 0.094131 255 0 255
-0.438734 0.984181 0.102131 255 0 255
-0.578089 1.011550 0.094131 255 0 255
-0.452721 0.904172 0.104131 255 0 255
-0.475466 0.917185 0.093174 255 0 255
-0.568691 0.911470 0.094131 255 0 255
-0.579981 0.935312 0.093156 255 0 255
-0.444925 0.949543 0.096131 255 0 255
-0.558707 0.910343 0.093135 255 0 255
-0.551234 0.959871 0.094131 255 0 255
-0.492818 0.969946 0.100131 255 0 255
-0.491749 0.965630 0.093193 255 0 255
-0.452945 0.898086 0.093210 255 0 255
-0.454532 0.929093 0.102728 255 0 255
-0.380193 0.913292 0.097195 255 0 255
-0.381242 0.956454 0.116485 255 0 255
-0.551669 0.880221 0.090131 255 0 255
-0.375402 0.904095 0.100131 255 0 255
-0.585550 0.932406 0.096131 255 0 255
-0.455961 0.960851 0.096131 255 0 255
-0.440914 0.887350 0.093142 255 0 255
-0.579055 0.881953 0.089133 255 0 255
-0.397903 0.983885 0.110131 255 0 255
-0.474190 0.990523 0.099448 255 0 255
-0.375817 0.885781 0.099572 255 0 255
-0.425481 0.931097 0.097342 255 0 255
-0.386321 0.874841 0.096131 255 0 255
-0.556874 0.899730 0.099450 255 0 255
-0.485682 1.013412 0.097016 255 0 255
-0.532042 0.951703 0.100131 255 0 255
-0.529382 1.000210 0.095309 255 0 255
-0.413526 0.881528 0.101409 255 0 255
-0.425330 1.008763 0.095183 255 0 255
-0.457538 0.972671 0.100585 255 0 255
-0.420103 0.889061 0.102146 255 0 255
-0.495615 0.937826 0.095370 255 0 255
-0.576859 0.901902 0.100131 255 0 255
-0.586606 0.971479 0.093165 255 0 255
-0.516642 0.983189 0.095512 255 0 255
-0.557186 1.004075 0.095346 255 0 255
-0.481306 0.985901 0.097272 255 0 255
-0.375048 0.934690 0.100131 255 0 255
-0.569188 0.995709 0.100131 255 0 255
-0.486759 0.989105 0.099415 255 0 255
-0.453209 0.973795 0.095364 255 0 255
-0.499112 0.993776 0.100131 255 0 255
-0.423232 0.922440 0.102176 255 0 255
-0.518356 0.984746 0.102131 255 0 255
-0.497864 0.946483 0.095258 255 0 255
-0.464286 0.998641 0.095273 255 0 255
-0.482969 0.973987 0.100131 255 0 255
-0.498590 0.933446 0.102131 255 0 255
-0.467651 1.002047 0.100131 255 0 255
-0.381373 0.940124 0.108131 255 0 255
-0.422386 0.909993 0.102131 255 0 255
-0.375639 0.945039 0.110131 255 0 255
-0.433675 0.902169 0.100355 255 0 255
-0.446298 0.919164 0.100131 255 0 255
-0.536205 0.987347 0.097264 255 0 255
-0.423893 0.900089 0.097230 255 0 255
-0.415312 0.973919 0.104131 255 0 255
-0.444628 0.937212 0.099292 255 0 255
-0.394426 0.904049 0.114294 255 0 255
-0.513316 0.998839 0.095512 255 0 255
-0.433401 0.990032 0.093210 255 0 255
-0.405954 0.941259 0.106131 255 0 255
-0.427267 0.913075 0.095153 255 0 255
-0.538953 0.996110 0.100131 255 0 255
-0.572817 0.911297 0.100329 255 0 255
-0.503487 0.968125 0.097248 255 0 255
-0.466209 0.931575 0.102131 255 0 255
-0.544201 1.007449 0.098668 255 0 255
-0.552517 0.968323 0.099395 255 0 255
-0.489207 0.948732 0.095343 255 0 255
-0.584848 0.922033 0.098666 255 0 255
-0.411543 0.948574 0.106131 255 0 255
-0.495123 0.978615 0.095426 255 0 255
-0.388951 0.872090 0.110131 255 0 255
-0.445665 0.927209 0.096131 255 0 255
-0.530119 0.939026 0.093186 255 0 255
-0.538700 0.975609 0.099914 255 0 255
-0.470353 0.950858 0.095371 255 0 255
-0.402298 0.934348 0.112228 255 0 255
-0.449542 0.909631 0.098131 255 0 255
-0.406599 1.000692 0.107034 255 0 255
-0.564861 0.972991 0.094131 255 0 255
-0.448386 0.962547 0.098131 255 0 255
-0.569912 0.886489 0.100131 255 0 255
-0.570872 0.925197 0.094131 255 0 255
-0.558679 0.977811 0.100499 255 0 255
-0.401954 0.917917 0.112131 255 0 255
-0.430529 0.984303 0.094131 255 0 255
-0.586751 0.983778 0.098131 255 0 255
-0.444114 1.006967 0.100131 255 0 255
-0.570417 0.980306 0.100427 255 0 255
-0.566192 0.875130 0.083739 255 0 255
-0.512144 0.965875 0.100275 255 0 255
-0.577964 0.959419 0.094131 255 0 255
-0.440214 0.967597 0.102131 255 0 255
-0.384474 0.883532 0.113459 255 0 255
-0.535087 0.980976 0.100131 255 0 255
-0.453087 0.983993 0.102560 255 0 255
-0.586143 0.944800 0.098929 255 0 255
-0.528439 0.989786 0.098131 255 0 255
-0.430019 0.880891 0.100131 255 0 255
-0.571201 0.947758 0.093175 255 0 255
-0.548652 0.996127 0.100008 255 0 255
-0.479205 0.942517 0.098131 255 0 255
-0.384351 0.893729 0.109176 255 0 255
-0.548435 0.949053 0.099944 255 0 255
-0.517321 1.003780 0.094131 255 0 255
-0.552130 0.941285 0.098131 255 0 255
-0.572371 0.878488 0.092131 255 0 255
-0.391110 0.977365 0.112131 255 0 255
-0.401426 0.878957 0.108131 255 0 255
-0.434110 0.996316 0.099745 255 0 255
-0.509233 0.979569 0.101123 255 0 255
-0.502022 0.926920 0.104200 255 0 255
-0.376526 0.892066 0.101584 255 0 255
-0.376561 0.887984 0.112131 255 0 255
-0.424574 0.973843 0.099909 255 0 255
-0.482459 0.922761 0.099514 255 0 255
-0.445677 0.980373 0.103667 255 0 255
-0.546526 0.977273 0.099797 255 0 255
-0.580567 0.951794 0.099508 255 0 255
-0.395100 0.872021 0.096131 255 0 255
-0.568876 0.977934 0.093253 255 0 255
-0.524420 0.956217 0.095361 255 0 255
-0.441765 0.979541 0.093133 255 0 255
-0.530459 0.975902 0.093227 255 0 255
-0.382215 0.917811 0.104131 255 0 255
-0.545864 0.999624 0.093161 255 0 255
-0.412713 0.981545 0.099168 255 0 255
-0.439147 1.001476 0.093252 255 0 255
-0.383236 0.932341 0.110131 255 0 255
-0.570880 1.006986 0.093133 255 0 255
-0.541073 0.974069 0.093166 255 0 255
-0.578733 0.941180 0.095284 255 0 255
-0.583034 1.007524 0.093184 255 0 255
-0.565115 0.899437 0.100044 255 0 255
-0.538935 0.944989 0.100131 255 0 255
-0.420935 0.885148 0.097258 255 0 255
-0.460108 0.922100 0.100560 255 0 255
-0.464366 0.945496 0.100131 255 0 255
-0.417826 0.947872 0.103254 255 0 255
-0.526259 0.937945 0.102131 255 0 255
-0.580056 0.896479 0.100362 255 0 255
-0.510568 0.928736 0.100131 255 0 255
-0.503641 1.000872 0.094131 255 0 255
-0.416288 0.912786 0.100131 255 0 255
-0.399293 0.890771 0.103147 255 0 255
-0.532694 0.968199 0.102131 255 0 255
-0.408659 0.894806 0.105578 255 0 255
-0.516833 0.977095 0.094131 255 0 255
-0.494800 0.927429 0.094131 255 0 255
-0.423600 0.891848 0.097426 255 0 255
-0.536990 0.954799 0.095447 255 0 255
-0.466311 0.925463 0.100131 255 0 255
-0.483140 0.996515 0.095370 255 0 255
-0.465656 0.982575 0.099735 255 0 255
-0.504168 0.960091 0.094131 255 0 255
-0.432181 0.928432 0.095386 255 0 255
-0.391468 0.889108 0.111850 255 0 255
-0.424090 1.000321 0.096131 255 0 255
-0.468104 0.942202 0.095344 255 0 255
-0.388066 0.943591 0.114255 255 0 255
-0.498639 0.956871 0.094131 255 0 255
-0.578121 0.910380 0.094131 255 0 255
-0.488744 0.922053 0.093136 255 0 255
-0.563546 0.964533 0.099428 255 0 255
-0.553084 0.888701 0.095399 255 0 255
-0.479666 0.950793 0.098131 255 0 255
-0.388434 0.912999 0.107132 255 0 255
-0.473529 1.012874 0.093151 255 0 255
-0.428657 0.993113 0.099473 255 0 255
-0.380433 0.873683 0.098131 255 0 255
-0.398097 0.877160 0.094131 255 0 255
-0.563976 1.010609 0.094131 255 0 255
-0.452552 0.953209 0.098131 255 0 255
-0.434629 0.888059 0.099488 255 0 255
-0.472034 0.928724 0.094131 255 0 255
-0.565331 0.960823 0.094131 255 0 255
-0.395673 0.898180 0.105186 255 0 255
-0.546174 0.954707 0.094131 255 0 255
-0.375109 0.879497 0.108962 255 0 255
-0.563404 0.989039 0.094131 255 0 255
-0.494276 0.998882 0.100131 255 0 255
-0.524859 0.974712 0.100131 255 0 255
-0.573573 0.946218 0.099613 255 0 255
-0.440540 0.960879 0.094131 255 0 255
-0.486930 1.007544 0.093213 255 0 255
-0.394180 0.924444 0.113294 255 0 255
-0.570908 0.939517 0.100806 255 0 255
-0.499266 0.975406 0.100131 255 0 255
-0.435277 0.957715 0.094131 255 0 255
-0.520338 0.936947 0.099204 255 0 255
-0.490993 0.930709 0.099708 255 0 255
-0.581694 0.965728 0.100131 255 0 255
-0.563622 0.925700 0.095261 255 0 255
-0.511265 0.941152 0.099713 255 0 255
-0.392404 0.938379 0.108131 255 0 255
-0.402952 0.887460 0.108131 255 0 255
-0.380978 0.928839 0.102131 255 0 255
-0.394256 0.885611 0.105167 255 0 255
-0.438759 0.935964 0.095445 255 0 255
-0.530109 0.947202 0.104131 255 0 255
-0.414595 0.876497 0.098131 255 0 255
-0.417159 0.955909 0.098131 255 0 255
-0.583296 0.938954 0.100131 255 0 255
-0.438412 0.923622 0.094131 255 0 255
-0.440886 0.954818 0.099292 255 0 255
-0.437539 0.917303 0.094131 255 0 255
-0.513193 1.009037 0.095361 255 0 255
-0.399142 0.872240 0.104131 255 0 255
-0.535251 1.001457 0.093166 255 0 255
-0.576116 0.963116 0.100397 255 0 255
-0.430027 0.977046 0.095389 255 0 255
-0.415671 0.996487 0.099159 255 0 255
-0.575475 0.956512 0.100131 255 0 255
-0.572852 0.891895 0.094131 255 0 255
-0.427948 0.986828 0.099881 255 0 255
-0.527132 1.010795 0.096131 255 0 255
-0.473216 0.908529 0.093155 255 0 255
-0.575922 0.983521 0.100131 255 0 255
-0.582741 0.999283 0.099759 255 0 255
-0.447634 0.980789 0.093275 255 0 255
-0.424233 0.936966 0.097214 255 0 255
-0.574745 0.979182 0.093170 255 0 255
-0.541195 0.963872 0.099914 255 0 255
-0.419196 0.931806 0.097184 255 0 255
-0.547726 0.942768 0.093166 255 0 255
-0.469105 0.956727 0.095371 255 0 255
-0.438835 0.897131 0.093142 255 0 255
-0.553226 0.974608 0.100008 255 0 255
-0.440593 0.946577 0.093146 255 0 255
-0.500406 0.963380 0.103171 255 0 255
-0.407191 0.872854 0.102131 255 0 255
-0.393547 0.879326 0.111521 255 0 255
-0.452916 0.965554 0.103670 255 0 255
-0.464654 0.968049 0.093174 255 0 255
-0.556956 0.889721 0.100131 255 0 255
-0.563990 0.895108 0.093171 255 0 255
-0.408475 0.953389 0.108131 255 0 255
-0.413375 0.959194 0.104482 255 0 255
-0.571368 0.898878 0.100131 255 0 255
-0.455071 0.916940 0.099882 255 0 255
-0.445128 0.927095 0.104131 255 0 255
-0.464409 0.988444 0.099410 255 0 255
-0.466597 0.966417 0.100131 255 0 255
-0.384030 0.952957 0.109229 255 0 255
-0.557290 0.897773 0.093149 255 0 255
-0.451973 0.893035 0.096131 255 0 255
-0.430716 0.887227 0.095144 255 0 255
-0.421984 0.928309 0.102422 255 0 255
-0.507524 0.936268 0.096131 255 0 255
-0.587145 0.959326 0.096989 255 0 255
-0.453462 0.905268 0.098131 255 0 255
-0.399120 0.972522 0.108131 255 0 255
-0.522464 0.955801 0.103756 255 0 255
-0.567975 0.905219 0.094131 255 0 255
-0.430906 1.001769 0.099600 255 0 255
-0.480720 0.969420 0.097249 255 0 255
-0.384617 0.916277 0.110131 255 0 255
-0.561637 0.992753 0.099139 255 0 255
-0.567788 0.881603 0.096131 255 0 255
-0.420438 0.877867 0.090131 255 0 255
-0.423279 0.951076 0.101605 255 0 255
-0.484311 0.981385 0.094131 255 0 255
-0.435717 0.910781 0.100131 255 0 255
-0.389975 0.915371 0.112210 255 0 255
-0.445699 0.945618 0.104131 255 0 255
-0.451713 0.946896 0.098131 255 0 255
-0.478273 1.009793 0.098709 255 0 255
-0.375411 0.945410 0.102131 255 0 255
-0.397455 0.898559 0.112131 255 0 255
-0.522958 0.968174 0.094131 255 0 255
-0.410369 0.915617 0.105149 255 0 255
-0.452636 0.938015 0.094131 255 0 255
-0.583564 0.976967 0.100131 255 0 255
-0.564652 0.872758 0.095438 255 0 255
-0.380146 0.884657 0.095169 255 0 255
-0.490323 0.981684 0.100131 255 0 255
-0.382826 0.905673 0.100131 255 0 255
-0.553689 1.001287 0.100499 255 0 255
-0.566936 0.890868 0.096131 255 0 255
-0.520215 0.947144 0.104206 255 0 255
-0.455752 0.990693 0.097145 255 0 255
-0.437484 1.009302 0.098643 255 0 255
-0.503733 0.947730 0.097227 255 0 255
-0.569576 0.918787 0.098131 255 0 255
-0.468076 1.009670 0.093212 255 0 255
-0.574377 1.009774 0.098776 255 0 255
-0.501899 0.937117 0.099269 255 0 255
-0.498620 0.981403 0.102959 255 0 255
-0.528087 0.977443 0.103962 255 0 255
-0.526424 0.985268 0.103962 255 0 255
-0.457765 0.940004 0.100131 255 0 255
-0.395008 0.930171 0.114131 255 0 255
-0.481785 0.916484 0.100131 255 0 255
-0.410738 0.885025 0.105144 255 0 255
-0.530005 0.963538 0.098131 255 0 255
-0.565673 0.983387 0.099876 255 0 255
-0.415783 0.967104 0.100131 255 0 255
-0.547234 0.983557 0.100466 255 0 255
-0.509403 0.998008 0.099816 255 0 255
-0.421029 0.901525 0.102131 255 0 255
-0.387111 0.957701 0.113459 255 0 255
-0.428032 0.967191 0.100131 255 0 255
-0.530507 1.004538 0.099484 255 0 255
-0.566164 0.942598 0.095456 255 0 255
-0.469726 0.973217 0.100131 255 0 255
-0.571664 0.974437 0.099531 255 0 255
-0.433845 0.920607 0.100209 255 0 255
-0.468104 0.942202 0.102868 255 0 255
-0.446873 0.988806 0.098131 255 0 255
-0.484586 0.941616 0.099978 255 0 255
-0.439685 0.989323 0.093133 255 0 255
-0.447170 0.954109 0.093133 255 0 255
-0.494585 0.990769 0.093234 255 0 255
-0.572250 0.990919 0.093170 255 0 255
-0.470570 0.997932 0.093235 255 0 255
-0.473774 0.992479 0.093136 255 0 255
-0.450053 1.007884 0.093148 255 0 255
-0.499477 0.952960 0.098131 255 0 255
-0.474313 0.980326 0.093235 255 0 255
-0.570171 1.000701 0.093170 255 0 255
-0.462991 0.975874 0.093174 255 0 255
-0.521769 0.930212 0.096131 255 0 255
-0.443891 0.998395 0.093225 255 0 255
-0.435555 0.941417 0.093226 255 0 255
-0.576824 0.969400 0.093170 255 0 255
-0.403498 0.899844 0.108509 255 0 255
-0.382102 0.885072 0.101169 255 0 255
-0.503905 0.980481 0.094131 255 0 255
-0.564330 0.931985 0.095284 255 0 255
-0.377305 0.922902 0.112131 255 0 255
-0.521141 1.000503 0.099314 255 0 255
-0.386621 0.965775 0.110131 255 0 255
-0.479057 0.977245 0.102532 255 0 255
-0.489793 0.965214 0.100412 255 0 255
-0.414405 0.906251 0.099186 255 0 255
-0.460864 0.957020 0.100585 255 0 255
-0.403522 0.924385 0.108131 255 0 255
-0.526751 0.935633 0.096131 255 0 255
-0.421200 0.960857 0.097286 255 0 255
-0.417302 0.873383 0.088131 255 0 255
-0.506029 0.985023 0.102745 255 0 255
-0.517134 0.942400 0.100571 255 0 255
-0.416947 0.923149 0.101714 255 0 255
-0.404137 0.993034 0.104131 255 0 255
-0.660622 0.575163 0.102131 0 0 255
-0.764993 0.637265 0.090131 0 0 255
-0.616353 0.652698 0.104131 0 0 255
-0.692608 0.652549 0.104131 0 0 255
-0.623792 0.604142 0.082131 0 0 255
-0.656710 0.622427 0.110625 0 0 255
-0.728027 0.633210 0.106131 0 0 255
-0.765523 0.608752 0.114131 0 0 255
-0.678229 0.627001 0.083178 0 0 255
-0.656388 0.599867 0.080131 0 0 255
-0.622205 0.621227 0.110807 0 0 255
-0.648239 0.652661 0.106131 0 0 255
-0.636348 0.593169 0.110131 0 0 255
-0.625788 0.633231 0.084131 0 0 255
-0.705617 0.632823 0.089299 0 0 255
-0.637864 0.581617 0.086131 0 0 255
-0.748533 0.652168 0.104834 0 0 255
-0.670574 0.643776 0.110836 0 0 255
-0.715704 0.652707 0.100131 0 0 255
-0.658326 0.600279 0.104131 0 0 255
-0.679858 0.623258 0.106131 0 0 255
-0.765191 0.631514 0.114131 0 0 255
-0.635361 0.636291 0.103148 0 0 255
-0.748628 0.632481 0.102131 0 0 255
-0.640351 0.612816 0.105282 0 0 255
-0.621810 0.603850 0.102131 0 0 255
-0.640682 0.601639 0.090131 0 0 255
-0.665883 0.627366 0.096131 0 0 255
-0.627901 0.618348 0.094131 0 0 255
-0.628122 0.651110 0.091137 0 0 255
-0.656492 0.575353 0.085235 0 0 255
-0.731564 0.652651 0.106131 0 0 255
-0.690267 0.635694 0.094131 0 0 255
-0.655340 0.638493 0.110868 0 0 255
-0.632034 0.651942 0.106867 0 0 255
-0.628264 0.592724 0.092131 0 0 255
-0.637305 0.579047 0.104131 0 0 255
-0.651813 0.574359 0.114131 0 0 255
-0.622314 0.637608 0.110131 0 0 255
-0.713858 0.632530 0.101972 0 0 255
-0.652750 0.592960 0.092885 0 0 255
-0.682973 0.638233 0.106131 0 0 255
-0.643309 0.627757 0.111198 0 0 255
-0.622222 0.630770 0.098131 0 0 255
-0.662626 0.652310 0.104036 0 0 255
-0.667200 0.630791 0.111429 0 0 255
-0.646758 0.601910 0.110656 0 0 255
-0.624993 0.617730 0.081181 0 0 255
-0.738705 0.640690 0.102131 0 0 255
-0.676895 0.652519 0.104131 0 0 255
-0.623699 0.594964 0.110823 0 0 255
-0.631817 0.604868 0.110704 0 0 255
-0.640667 0.592089 0.098131 0 0 255
-0.652920 0.611398 0.105198 0 0 255
-0.632971 0.623515 0.104131 0 0 255
-0.623084 0.645950 0.081245 0 0 255
-0.667831 0.620702 0.086131 0 0 255
-0.681216 0.622571 0.094131 0 0 255
-0.621317 0.643530 0.098131 0 0 255
-0.667518 0.619677 0.106131 0 0 255
-0.641939 0.643824 0.111118 0 0 255
-0.635852 0.595502 0.081208 0 0 255
-0.752782 0.641796 0.096131 0 0 255
-0.699418 0.642750 0.088131 0 0 255
-0.711993 0.641307 0.094131 0 0 255
-0.702402 0.652586 0.098131 0 0 255
-0.650718 0.631377 0.103145 0 0 255
-0.738336 0.652045 0.097180 0 0 255
-0.628377 0.606181 0.092131 0 0 255
-0.627970 0.613346 0.104131 0 0 255
-0.650861 0.592227 0.106131 0 0 255
-0.763232 0.620533 0.114131 0 0 255
-0.632897 0.599784 0.100131 0 0 255
-0.647361 0.595904 0.084131 0 0 255
-0.648930 0.601311 0.098131 0 0 255
-0.721798 0.638307 0.098131 0 0 255
-0.630324 0.631131 0.110739 0 0 255
-0.758618 0.633582 0.098131 0 0 255
-0.647344 0.618392 0.110561 0 0 255
-0.629196 0.641115 0.090131 0 0 255
-0.632157 0.641744 0.111246 0 0 255
-0.663581 0.638200 0.105271 0 0 255
-0.675025 0.632454 0.105199 0 0 255
-0.621590 0.625186 0.090131 0 0 255
-0.671651 0.619469 0.097440 0 0 255
-0.658304 0.600275 0.090131 0 0 255
-0.643384 0.588924 0.089264 0 0 255
-0.738581 0.631651 0.104815 0 0 255
-0.622195 0.594644 0.100131 0 0 255
-0.622810 0.647241 0.108131 0 0 255
-0.622744 0.609073 0.110539 0 0 255
-0.705201 0.634779 0.098355 0 0 255
-0.621531 0.610860 0.096131 0 0 255
-0.633234 0.617437 0.111007 0 0 255
-0.661555 0.628491 0.104131 0 0 255
-0.650180 0.643531 0.105221 0 0 255
-0.654593 0.574671 0.094131 0 0 255
-0.621619 0.621102 0.100131 0 0 255
-0.621363 0.596331 0.086131 0 0 255
-0.625987 0.651533 0.100131 0 0 255
-0.657589 0.647150 0.109455 0 0 255
-0.630161 0.627007 0.092131 0 0 255
-0.707744 0.651677 0.105230 0 0 255
-0.640688 0.601610 0.104131 0 0 255
-0.675659 0.629472 0.094131 0 0 255
-0.633481 0.587419 0.104131 0 0 255
-0.722028 0.651813 0.106131 0 0 255
-0.662869 0.578753 0.090131 0 0 255
-0.635559 0.587261 0.092683 0 0 255
-0.731049 0.638228 0.099132 0 0 255
-0.621723 0.629303 0.108131 0 0 255
-0.621650 0.600662 0.094131 0 0 255
-0.621757 0.637489 0.092131 0 0 255
-0.643602 0.635998 0.105228 0 0 255
-0.672776 0.623797 0.111389 0 0 255
-0.659365 0.594366 0.098131 0 0 255
-0.740292 0.652461 0.106796 0 0 255
-0.628732 0.643061 0.102131 0 0 255
-0.632443 0.601923 0.086131 0 0 255
-0.621831 0.613367 0.088131 0 0 255
-0.640275 0.651649 0.108182 0 0 255
-0.653090 0.629837 0.111169 0 0 255
-0.637733 0.634751 0.111222 0 0 255
-0.647051 0.610151 0.110837 0 0 255
-0.661068 0.611085 0.106131 0 0 255
-0.633178 0.578576 0.092131 0 0 255
-0.640644 0.621057 0.105213 0 0 255
-0.680356 0.645855 0.107184 0 0 255
-0.650111 0.600578 0.090131 0 0 255
-0.698498 0.633354 0.094131 0 0 255
-0.669789 0.628229 0.088131 0 0 255
-0.658977 0.577926 0.114131 0 0 255
-0.654583 0.603573 0.110516 0 0 255
-0.639642 0.606531 0.110752 0 0 255
-0.672530 0.644192 0.103134 0 0 255
-0.622333 0.645790 0.090131 0 0 255
-0.629276 0.636061 0.098131 0 0 255
-0.670976 0.627504 0.080131 0 0 255
-0.641286 0.586434 0.104131 0 0 255
-0.746700 0.641555 0.101100 0 0 255
-0.685099 0.652398 0.102131 0 0 255
-0.650425 0.623136 0.105255 0 0 255
-0.659498 0.618930 0.104304 0 0 255
-0.675229 0.621878 0.088131 0 0 255
-0.674194 0.636367 0.111809 0 0 255
-0.644509 0.593253 0.110195 0 0 255
-0.635313 0.607656 0.103137 0 0 255
-0.645511 0.607779 0.103138 0 0 255
-0.656169 0.573240 0.108131 0 0 255
-0.672177 0.626615 0.100131 0 0 255
-0.635654 0.644532 0.105232 0 0 255
-0.630399 0.592298 0.099278 0 0 255
-0.638980 0.628882 0.105248 0 0 255
-0.670690 0.651979 0.108131 0 0 255
-0.628367 0.630715 0.103156 0 0 255
-0.625286 0.625971 0.083166 0 0 255
-0.634371 0.592851 0.088131 0 0 255
-0.654045 0.615727 0.111610 0 0 255
-0.621803 0.637499 0.102131 0 0 255
-0.643845 0.580844 0.090131 0 0 255
-0.647099 0.638786 0.111343 0 0 255
-0.635484 0.626094 0.110970 0 0 255
-0.660500 0.633456 0.111089 0 0 255
-0.725966 0.652525 0.100131 0 0 255
-0.664535 0.624090 0.111505 0 0 255
-0.628332 0.606172 0.100131 0 0 255
-0.662749 0.642113 0.111259 0 0 255
-0.654432 0.594664 0.086131 0 0 255
-0.717958 0.632480 0.096131 0 0 255
-0.699503 0.651970 0.105739 0 0 255
-0.704969 0.640864 0.092131 0 0 255
-0.622241 0.601820 0.110131 0 0 255
-0.645887 0.596389 0.094131 0 0 255
-0.761225 0.640553 0.095048 0 0 255
-0.628284 0.592628 0.106131 0 0 255
-0.693567 0.641419 0.092131 0 0 255
-0.651918 0.596872 0.111101 0 0 255
-0.632648 0.600955 0.093129 0 0 255
-0.619604 0.652707 0.098131 0 0 255
-0.651646 0.602949 0.104131 0 0 255
-0.638186 0.598043 0.096131 0 0 255
-0.678014 0.620821 0.100131 0 0 255
-0.623391 0.639881 0.084131 0 0 255
-0.636977 0.599831 0.110634 0 0 255
-0.711486 0.634070 0.095523 0 0 255
-0.665367 0.620178 0.099617 0 0 255
-0.666246 0.644901 0.105213 0 0 255
-0.655225 0.600554 0.096131 0 0 255
-0.656171 0.634581 0.105177 0 0 255
-0.628610 0.624633 0.098131 0 0 255
-0.719995 0.633834 0.104131 0 0 255
-0.627193 0.645862 0.096131 0 0 255
-0.625132 0.601402 0.088131 0 0 255
-0.628320 0.602080 0.105324 0 0 255
-0.641203 0.594595 0.086131 0 0 255
-0.661028 0.573256 0.094131 0 0 255
-0.647293 0.647493 0.110131 0 0 255
-0.622502 0.615156 0.108131 0 0 255
-0.627536 0.634628 0.091149 0 0 255
-0.667909 0.637076 0.110019 0 0 255
-0.638727 0.601216 0.082131 0 0 255
-0.627731 0.595231 0.086131 0 0 255
-0.741868 0.635426 0.100131 0 0 255
-0.628736 0.600124 0.081139 0 0 255
-0.627977 0.613314 0.090131 0 0 255
-0.622324 0.606939 0.090131 0 0 255
-0.673930 0.619953 0.106131 0 0 255
-0.652989 0.593011 0.100131 0 0 255
-0.668373 0.622861 0.092131 0 0 255
-0.657173 0.649106 0.103137 0 0 255
-0.654385 0.652603 0.107858 0 0 255
-0.621674 0.617025 0.094131 0 0 255
-0.638687 0.620641 0.111698 0 0 255
-0.627658 0.624431 0.111486 0 0 255
-0.628953 0.647197 0.110577 0 0 255
-0.621684 0.612937 0.102131 0 0 255
-0.629152 0.598167 0.110284 0 0 255
-0.642516 0.593012 0.104131 0 0 255
-0.636438 0.611984 0.111386 0 0 255
-0.673485 0.630082 0.111029 0 0 255
-0.628197 0.612277 0.110725 0 0 255
-0.675734 0.638739 0.105256 0 0 255
-0.669572 0.629250 0.105259 0 0 255
-0.656880 0.640865 0.105183 0 0 255
-0.643479 0.646196 0.105266 0 0 255
-0.633440 0.616471 0.104131 0 0 255
-0.645265 0.628173 0.105236 0 0 255
-0.625929 0.652689 0.108131 0 0 255
-0.752275 0.634561 0.097491 0 0 255
-0.811606 0.528581 0.121313 255 255 0
-0.627168 0.430082 0.094131 255 255 0
-0.657417 0.580625 0.116131 255 255 0
-0.834213 0.393368 0.090131 255 255 0
-0.736171 0.440983 0.121784 255 255 0
-0.724159 0.526351 0.122093 255 255 0
-0.862011 0.464595 0.118131 255 255 0
-0.647571 0.501893 0.121494 255 255 0
-0.796693 0.464071 0.115156 255 255 0
-0.872772 0.543627 0.116131 255 255 0
-0.772471 0.404875 0.086131 255 255 0
-0.688511 0.424718 0.085238 255 255 0
-0.784138 0.580854 0.116131 255 255 0
-0.695722 0.477368 0.115241 255 255 0
-0.648134 0.537722 0.084131 255 255 0
-0.706898 0.573799 0.116131 255 255 0
-0.767566 0.504907 0.115262 255 255 0
-0.804716 0.416704 0.120985 255 255 0
-0.831158 0.580888 0.124131 255 255 0
-0.678919 0.537182 0.121997 255 255 0
-0.664374 0.442079 0.120910 255 255 0
-0.639282 0.473550 0.085241 255 255 0
-0.848587 0.421939 0.120757 255 255 0
-0.848315 0.505714 0.116131 255 255 0
-0.729754 0.410993 0.088131 255 255 0
-0.760790 0.546405 0.121723 255 255 0
-0.704593 0.415869 0.122131 255 255 0
-0.735679 0.481772 0.121456 255 255 0
-0.757350 0.408680 0.121346 255 255 0
-0.634703 0.466236 0.122131 255 255 0
-0.828703 0.477009 0.121476 255 255 0
-0.771091 0.440227 0.115196 255 255 0
-0.838040 0.548513 0.115180 255 255 0
-0.654355 0.570810 0.084131 255 255 0
-0.647582 0.548923 0.120131 255 255 0
-0.799821 0.497451 0.121386 255 255 0
-0.823618 0.443213 0.115177 255 255 0
-0.645661 0.505576 0.088131 255 255 0
-0.696894 0.510332 0.115179 255 255 0
-0.802590 0.397850 0.094852 255 255 0
-0.766394 0.471943 0.121493 255 255 0
-0.738746 0.568301 0.116131 255 255 0
-0.657986 0.424036 0.094131 255 255 0
-0.704331 0.446483 0.115221 255 255 0
-0.665546 0.475044 0.121636 255 255 0
-0.790550 0.550686 0.115182 255 255 0
-0.632657 0.437383 0.121541 255 255 0
-0.851450 0.393923 0.116131 255 255 0
-0.680922 0.566233 0.121512 255 255 0
-0.679329 0.419817 0.112131 255 255 0
-0.705475 0.546916 0.121338 255 255 0
-0.783580 0.400710 0.114131 255 255 0
-0.730487 0.410004 0.116131 255 255 0
-0.651674 0.525257 0.108131 255 255 0
-0.825436 0.400661 0.116131 255 255 0
-0.783802 0.524716 0.121346 255 255 0
-0.742427 0.507743 0.121654 255 255 0
-0.672710 0.499058 0.115237 255 255 0
-0.867888 0.489427 0.118131 255 255 0
-0.638382 0.452912 0.100131 255 255 0
-0.808620 0.581108 0.109193 255 255 0
-0.869867 0.518473 0.118131 255 255 0
-0.822465 0.506353 0.115227 255 255 0
-0.710287 0.423213 0.098131 255 255 0
-0.795814 0.439348 0.115169 255 255 0
-0.752021 0.414512 0.098131 255 255 0
-0.717827 0.498424 0.121727 255 255 0
-0.724753 0.461048 0.114131 255 255 0
-0.638001 0.485546 0.106131 255 255 0
-0.681442 0.457976 0.115229 255 255 0
-0.814657 0.552709 0.116131 255 255 0
-0.836745 0.525746 0.121300 255 255 0
-0.847509 0.446247 0.121347 255 255 0
-0.736483 0.545328 0.115178 255 255 0
-0.747632 0.459777 0.116131 255 255 0
-0.656932 0.554043 0.100131 255 255 0
-0.757123 0.525179 0.115225 255 255 0
-0.783074 0.422327 0.121087 255 255 0
-0.825993 0.422420 0.122131 255 255 0
-0.781506 0.487424 0.115283 255 255 0
-0.654018 0.423462 0.120131 255 255 0
-0.847850 0.483123 0.115157 255 255 0
-0.666595 0.518205 0.121481 255 255 0
-0.751235 0.427828 0.115188 255 255 0
-0.685600 0.438413 0.121387 255 255 0
-0.720227 0.429415 0.115218 255 255 0
-0.754826 0.487887 0.115201 255 255 0
-0.652806 0.458023 0.115269 255 255 0
-0.855477 0.533817 0.121685 255 255 0
-0.721003 0.560440 0.121624 255 255 0
-0.643686 0.433593 0.105113 255 255 0
-0.715701 0.479570 0.115239 255 255 0
-0.815547 0.461944 0.121985 255 255 0
-0.769409 0.563572 0.116131 255 255 0
-0.809433 0.481091 0.115161 255 255 0
-0.643489 0.434522 0.084131 255 255 0
-0.779918 0.456416 0.121381 255 255 0
-0.696648 0.530727 0.115197 255 255 0
-0.769987 0.411367 0.104131 255 255 0
-0.834401 0.459818 0.115167 255 255 0
-0.661359 0.562075 0.121639 255 255 0
-0.647816 0.481498 0.121416 255 255 0
-0.690023 0.494559 0.121439 255 255 0
-0.799992 0.515889 0.115199 255 255 0
-0.799607 0.575412 0.124131 255 255 0
-0.706874 0.463381 0.121327 255 255 0
-0.660896 0.535396 0.121206 255 255 0
-0.835157 0.494738 0.121453 255 255 0
-0.695926 0.416071 0.106131 255 255 0
-0.630578 0.447164 0.085174 255 255 0
-0.802023 0.400518 0.114131 255 255 0
-0.640870 0.504558 0.105179 255 255 0
-0.688162 0.551414 0.115186 255 255 0
-0.783746 0.506302 0.122131 255 255 0
-0.675333 0.428998 0.096131 255 255 0
-0.776563 0.539535 0.115230 255 255 0
-0.811522 0.432782 0.122131 255 255 0
-0.786817 0.404720 0.097296 255 255 0
-0.652614 0.521367 0.090131 255 255 0
-0.755734 0.445141 0.121503 255 255 0
-0.653375 0.570780 0.102131 255 255 0
-0.741766 0.530094 0.121256 255 255 0
-0.646357 0.488366 0.090131 255 255 0
-0.682245 0.521531 0.115200 255 255 0
-0.714501 0.514075 0.115269 255 255 0
-0.642265 0.469139 0.106131 255 255 0
-0.730343 0.420302 0.102131 255 255 0
-0.837851 0.433970 0.115138 255 255 0
-0.641872 0.519084 0.120273 255 255 0
-0.840369 0.407925 0.116131 255 255 0
-0.679511 0.482101 0.116131 255 255 0
-0.704549 0.493557 0.113135 255 255 0
-0.825594 0.539733 0.121549 255 255 0
-0.766592 0.422913 0.121654 255 255 0
-0.796249 0.533496 0.115211 255 255 0
-0.673897 0.580045 0.116131 255 255 0
-0.818879 0.398172 0.096131 255 255 0
-0.752011 0.558852 0.115176 255 255 0
-0.735585 0.424501 0.121277 255 255 0
-0.816089 0.574829 0.122131 255 255 0
-0.715682 0.412323 0.110131 255 255 0
-0.825518 0.578566 0.109188 255 255 0
-0.647892 0.442665 0.120954 255 255 0
-0.648696 0.540981 0.106131 255 255 0
-0.720813 0.445897 0.121495 255 255 0
-0.720417 0.543958 0.115211 255 255 0
-0.699417 0.431126 0.115304 255 255 0
-0.672095 0.550044 0.115240 255 255 0
-0.794907 0.482093 0.122304 255 255 0
-0.717772 0.421728 0.084131 255 255 0
-0.745196 0.408142 0.085260 255 255 0
-0.631029 0.451349 0.114131 255 255 0
-0.765392 0.457418 0.115140 255 255 0
-0.698236 0.561735 0.121736 255 255 0
-0.846848 0.468597 0.121351 255 255 0
-0.819507 0.491412 0.121663 255 255 0
-0.780920 0.470941 0.115207 255 255 0
-0.732353 0.497423 0.115175 255 255 0
-0.862869 0.504718 0.122131 255 255 0
-0.859577 0.437571 0.116131 255 255 0
-0.657891 0.491819 0.115164 255 255 0
-0.807845 0.450084 0.115221 255 255 0
-0.749496 0.474486 0.121816 255 255 0
-0.667113 0.429191 0.110131 255 255 0
-0.652825 0.554127 0.085238 255 255 0
-0.666916 0.458977 0.121450 255 255 0
-0.745119 0.408125 0.112131 255 255 0
-0.658477 0.508301 0.113145 255 255 0
-0.768521 0.490797 0.122108 255 255 0
-0.631354 0.461642 0.090131 255 255 0
-0.854475 0.519291 0.115184 255 255 0
-0.727486 0.510701 0.121640 255 255 0
-0.760430 0.413425 0.085158 255 255 0
-0.689844 0.428065 0.100131 255 255 0
-0.768906 0.517841 0.122131 255 255 0
-0.646164 0.534309 0.120131 255 255 0
-0.627620 0.432223 0.108809 255 255 0
-0.709633 0.527353 0.121626 255 255 0
-0.773416 0.410051 0.121453 255 255 0
-0.835743 0.511220 0.121388 255 255 0
-0.683200 0.507422 0.121518 255 255 0
-0.823467 0.520879 0.115167 255 255 0
-0.777981 0.552104 0.122257 255 255 0
-0.698415 0.416600 0.092094 255 255 0
-0.801995 0.544940 0.121481 255 255 0
-0.692348 0.464383 0.121809 255 255 0
-0.691299 0.421222 0.121480 255 255 0
-0.854384 0.408859 0.118131 255 255 0
-0.749884 0.539998 0.115167 255 255 0
-0.791854 0.409881 0.121067 255 255 0
-0.736634 0.467662 0.121662 255 255 0
-0.691829 0.572641 0.115192 255 255 0
-0.665882 0.430132 0.084131 255 255 0
-0.795278 0.403391 0.084131 255 255 0
-0.755706 0.512610 0.121381 255 255 0
-0.738911 0.408851 0.098543 255 255 0
-0.809896 0.507771 0.121239 255 255 0
-0.795275 0.451501 0.121997 255 255 0
-0.758181 0.404768 0.107512 255 255 0
-0.816161 0.410958 0.115216 255 255 0
-0.638454 0.491777 0.120131 255 255 0
-0.783660 0.438809 0.121386 255 255 0
-0.644331 0.517133 0.100131 255 255 0
-0.861251 0.477793 0.115162 255 255 0
-0.735632 0.453137 0.115198 255 255 0
-0.650746 0.563908 0.113541 255 255 0
-0.733988 0.557066 0.122437 255 255 0
-0.675110 0.430049 0.121636 255 255 0
-0.668920 0.488029 0.121875 255 255 0
-0.851639 0.494152 0.122072 255 255 0
-0.851025 0.545139 0.115137 255 255 0
-0.796353 0.427194 0.121111 255 255 0
-0.678947 0.469713 0.121076 255 255 0
-0.653919 0.533913 0.096131 255 255 0
-0.736020 0.518649 0.115220 255 255 0
-0.635231 0.478823 0.118131 255 255 0
-0.743382 0.493633 0.121362 255 255 0
-0.629640 0.441959 0.100131 255 255 0
-0.717685 0.412518 0.095936 255 255 0
-0.709265 0.557945 0.115196 255 255 0
-0.851299 0.457276 0.115238 255 255 0
-0.768029 0.531587 0.121327 255 255 0
-0.720766 0.417262 0.121217 255 255 0
-0.693302 0.450273 0.121264 255 255 0
-0.646732 0.546698 0.094131 255 255 0
-0.751916 0.501581 0.115197 255 255 0
-0.648213 0.493851 0.104131 255 255 0
-0.645231 0.426325 0.094131 255 255 0
-0.710739 0.435577 0.121528 255 255 0
-0.676112 0.444574 0.115164 255 255 0
-0.645713 0.476962 0.096131 255 255 0
-0.868214 0.532435 0.122131 255 255 0
-0.747445 0.416799 0.121763 255 255 0
-0.655150 0.523951 0.120859 255 255 0
-0.706382 0.504170 0.121526 255 255 0
-0.842907 0.535234 0.115198 255 255 0
-0.727145 0.473824 0.115212 255 255 0
-0.670385 0.529234 0.115226 255 255 0
-0.724235 0.487518 0.121399 255 255 0
-0.641484 0.453572 0.121178 255 255 0
-0.834940 0.447664 0.121520 255 255 0
-0.654224 0.470592 0.115284 255 255 0
-0.708306 0.422792 0.112131 255 255 0
-0.659526 0.551462 0.115187 255 255 0
-0.692814 0.519908 0.122131 255 255 0
-0.760138 0.405184 0.095178 255 255 0
-0.805643 0.470062 0.121477 255 255 0
-0.670309 0.568067 0.115225 255 255 0
-0.744827 0.438734 0.113141 255 255 0
-0.813440 0.539194 0.115177 255 255 0
-0.797087 0.577651 0.112131 255 255 0
-0.704672 0.483360 0.121280 255 255 0
-0.638404 0.496921 0.094131 255 255 0
-0.775542 0.428905 0.113134 255 255 0
-0.801680 0.556045 0.116131 255 255 0
-0.811750 0.401841 0.122131 255 255 0
-0.760281 0.433369 0.122131 255 255 0
-0.694153 0.542465 0.121069 255 255 0
-0.745849 0.549363 0.121778 255 255 0
-0.718196 0.467832 0.121750 255 255 0
-0.836849 0.419444 0.117425 255 255 0
-0.823079 0.455367 0.115169 255 255 0
-0.815840 0.470185 0.113132 255 255 0
-0.787176 0.537701 0.121974 255 255 0
-0.848048 0.434093 0.121561 255 255 0
-0.682158 0.419279 0.094131 255 255 0
-0.658987 0.563615 0.093138 255 255 0
-0.757028 0.467908 0.115155 255 255 0
-0.813666 0.422696 0.115203 255 255 0
-0.730506 0.534968 0.116131 255 255 0
-0.789624 0.497328 0.115226 255 255 0
-0.641772 0.465901 0.094131 255 255 0
-0.787838 0.515350 0.115195 255 255 0
-0.644146 0.431428 0.122131 255 255 0
-0.655840 0.434132 0.115184 255 255 0
-0.810434 0.495617 0.115233 255 255 0
-0.811729 0.518384 0.115205 255 255 0
-0.713433 0.456597 0.114131 255 255 0
-0.709511 0.537550 0.115274 255 255 0
-0.666609 0.421944 0.120131 255 255 0
-0.770600 0.481016 0.115177 255 255 0
-0.738999 0.418059 0.090131 255 255 0
-0.674127 0.511627 0.115212 255 255 0
-0.828580 0.487206 0.115219 255 255 0
-0.739014 0.417986 0.110131 255 255 0
-0.770855 0.402859 0.112131 255 255 0
-0.635189 0.484949 0.090131 255 255 0
-0.793101 0.404012 0.107110 255 255 0
-0.744705 0.448931 0.121796 255 255 0
-0.839316 0.475175 0.115167 255 255 0
-0.685307 0.430172 0.113148 255 255 0
-0.821972 0.431716 0.116131 255 255 0
-0.633536 0.462106 0.110554 255 255 0
-0.652239 0.425187 0.104131 255 255 0
-0.755894 0.415527 0.112131 255 255 0
-0.860150 0.448934 0.118131 255 255 0
-0.646562 0.464874 0.122131 255 255 0
-0.774941 0.402877 0.098131 255 255 0
-0.647032 0.514047 0.110891 255 255 0
-0.827259 0.551137 0.118131 255 255 0
-0.717918 0.570007 0.116131 255 255 0
-0.784045 0.404131 0.086131 255 255 0
-0.662096 0.500891 0.121060 255 255 0
-0.644048 0.529770 0.092131 255 255 0
-0.861638 0.543305 0.118828 255 255 0
-0.826531 0.410271 0.122131 255 255 0
-0.719733 0.422122 0.106131 255 255 0
-0.746217 0.518772 0.121741 255 255 0
-0.703056 0.519821 0.115168 255 255 0
-0.777055 0.498745 0.115222 255 255 0
-0.705409 0.422176 0.085206 255 255 0
-0.651360 0.512922 0.121253 255 255 0
-0.699048 0.461718 0.113140 255 255 0
-0.637214 0.435184 0.094131 255 255 0
-0.810831 0.397557 0.087176 255 255 0
-0.733506 0.434282 0.113142 255 255 0
-0.654096 0.432715 0.088131 255 255 0
-0.776100 0.512855 0.115194 255 255 0
-0.679167 0.555253 0.122131 255 255 0
-0.815299 0.445534 0.122131 255 255 0
-0.715373 0.490733 0.114131 255 255 0
-0.767784 0.551981 0.115222 255 255 0
-0.671757 0.421157 0.104131 255 255 0
-0.726579 0.553446 0.115136 255 255 0
-0.650088 0.504473 0.098131 255 255 0
-0.800483 0.475100 0.113135 255 255 0
-0.659696 0.569900 0.111036 255 255 0
-0.760573 0.499331 0.121546 255 255 0
-0.826453 0.468352 0.115202 255 255 0
-0.634736 0.427601 0.101927 255 255 0
-0.842737 0.516796 0.115166 255 255 0
-0.727996 0.566016 0.115186 255 255 0
-0.785494 0.449422 0.115189 255 255 0
-0.781086 0.407592 0.106131 255 255 0
-0.831169 0.532739 0.115177 255 255 0
-0.770968 0.450424 0.121686 255 255 0
-0.760402 0.480893 0.121265 255 255 0
-0.794416 0.522882 0.121510 255 255 0
-0.631117 0.435010 0.085252 255 255 0
-0.655368 0.571025 0.121734 255 255 0
-0.686035 0.532560 0.115224 255 255 0
-0.706751 0.473579 0.115282 255 255 0
-0.791117 0.471064 0.121152 255 255 0
-0.718167 0.535301 0.121229 255 255 0
-0.746292 0.479939 0.113137 255 255 0
-0.707052 0.414443 0.104131 255 255 0
-0.767281 0.414881 0.114131 255 255 0
-0.729265 0.444614 0.114131 255 255 0
-0.639800 0.508420 0.118131 255 255 0
-0.633371 0.472503 0.094131 255 255 0
-0.766509 0.413687 0.094131 255 255 0
-0.688605 0.481990 0.121722 255 255 0
-0.658382 0.451029 0.121088 255 255 0
-0.818089 0.478842 0.120979 255 255 0
-0.744119 0.432449 0.121691 255 255 0
-0.871336 0.502428 0.116131 255 255 0
-0.803809 0.459449 0.121530 255 255 0
-0.803223 0.442967 0.121835 255 255 0
-0.783390 0.478559 0.122131 255 255 0
-0.859465 0.495815 0.115146 255 255 0
-0.727912 0.431737 0.122131 255 255 0
-0.839609 0.483416 0.121758 255 255 0
-0.806179 0.573353 0.116131 255 255 0
-0.855580 0.427515 0.115159 255 255 0
-0.650532 0.553640 0.110131 255 255 0
-0.774665 0.524818 0.116131 255 255 0
-0.726065 0.411569 0.106131 255 255 0
-0.760497 0.538164 0.115199 255 255 0
-0.671239 0.539639 0.114131 255 255 0
-0.689995 0.562028 0.115249 255 255 0
-0.639235 0.444915 0.115208 255 255 0
-0.681188 0.492681 0.116131 255 255 0
-0.669165 0.467634 0.115192 255 255 0
-0.636693 0.428017 0.112191 255 255 0
-0.795370 0.508773 0.121295 255 255 0
-0.641411 0.514896 0.090131 255 255 0
-0.847358 0.523912 0.121252 255 255 0
-0.653780 0.540017 0.115188 255 255 0
-0.786864 0.433356 0.113132 255 255 0
-0.783197 0.412130 0.115243 255 255 0
-0.805813 0.488501 0.121471 255 255 0
-0.857631 0.485202 0.121467 255 255 0
-0.823760 0.529120 0.121480 255 255 0
-0.724263 0.420050 0.093168 255 255 0
-0.728658 0.543665 0.121786 255 255 0
-0.791731 0.420078 0.115164 255 255 0
-0.757567 0.455754 0.121721 255 255 0
-0.685738 0.418523 0.104131 255 255 0
-0.696536 0.487765 0.116131 255 255 0
-0.837617 0.540883 0.122131 255 255 0
-0.834694 0.468059 0.121420 255 255 0
-0.835450 0.502979 0.115186 255 255 0
-0.843398 0.494445 0.115253 255 255 0
-0.761111 0.556697 0.122131 255 255 0
-0.629746 0.451077 0.094660 255 255 0
-0.728393 0.419859 0.114131 255 255 0
-0.700885 0.424218 0.102131 255 255 0
-0.753504 0.532588 0.121339 255 255 0
-0.647278 0.493652 0.115242 255 255 0
-0.656057 0.481205 0.115326 255 255 0
-0.693009 0.442032 0.115219 255 255 0
-0.718148 0.439197 0.113145 255 255 0
-0.664497 0.431882 0.121439 255 255 0
-0.834722 0.400590 0.120440 255 255 0
-0.668627 0.479788 0.113136 255 255 0
-0.818846 0.513762 0.121230 255 255 0
-0.714841 0.550951 0.121203 255 255 0
-0.789284 0.460451 0.121270 255 255 0
-0.725822 0.518526 0.115252 255 255 0
-0.699899 0.553909 0.115213 255 255 0
-0.697017 0.500135 0.115197 255 255 0
-0.677276 0.429476 0.106131 255 255 0
-0.642713 0.472235 0.116131 255 255 0
-0.843058 0.457569 0.121185 255 255 0
-0.861468 0.524867 0.121638 255 255 0
-0.655802 0.544536 0.090131 255 255 0
-0.797572 0.488794 0.115169 255 255 0
-0.803762 0.430814 0.115205 255 255 0
-0.656050 0.433142 0.098131 255 255 0
-0.780646 0.558805 0.115140 255 255 0
-0.666623 0.450736 0.115205 255 255 0
-0.683105 0.450150 0.121436 255 255 0
-0.686281 0.512166 0.113137 255 255 0
-0.634477 0.462306 0.100131 255 255 0
-0.741813 0.558729 0.115138 255 255 0
-0.686356 0.473333 0.115247 255 255 0
-0.788641 0.578906 0.124941 255 255 0
-0.710862 0.425380 0.121507 255 255 0
-0.730935 0.484853 0.113141 255 255 0
-0.861423 0.514634 0.122131 255 255 0
-0.727391 0.453430 0.121884 255 255 0
-0.826085 0.498944 0.122050 255 255 0
-0.772386 0.462994 0.121142 255 255 0
-0.665102 0.544468 0.121423 255 255 0
-0.757227 0.418878 0.121658 255 255 0
-0.830734 0.438592 0.121394 255 255 0
-0.804074 0.535159 0.121262 255 255 0
-0.804197 0.524962 0.115200 255 255 0
-0.702668 0.454309 0.121242 255 255 0
-0.711741 0.450103 0.121553 255 255 0
-0.763559 0.446804 0.115230 255 255 0
-0.853426 0.476130 0.121439 255 255 0
-0.651994 0.558040 0.121527 255 255 0
-0.737664 0.414719 0.121218 255 255 0
-0.740953 0.418485 0.100131 255 255 0
-0.770798 0.431986 0.121287 255 255 0
-0.683956 0.542342 0.115213 255 255 0
-0.650008 0.559662 0.094131 255 255 0
-0.658798 0.559486 0.108131 255 255 0
-0.707908 0.414529 0.094131 255 255 0
-0.656298 0.542597 0.100131 255 255 0
-0.682994 0.575726 0.118131 255 255 0
-0.692667 0.424402 0.110131 255 255 0
-0.809924 0.440302 0.115247 255 255 0
-0.754090 0.549070 0.115139 255 255 0
-0.720492 0.505125 0.115158 255 255 0
-0.744459 0.469326 0.115287 255 255 0
-0.665149 0.573104 0.121731 255 255 0
-0.675545 0.524197 0.121714 255 255 0
-0.716334 0.524688 0.115153 255 255 0
-0.844920 0.400713 0.120717 255 255 0
-0.747417 0.484267 0.121709 255 255 0
-0.734186 0.508036 0.115208 255 255 0
-0.650054 0.504465 0.108131 255 255 0
-0.821444 0.395723 0.087171 255 255 0
-0.769863 0.542200 0.121605 255 255 0
-0.750752 0.415457 0.088131 255 255 0
-0.659894 0.520870 0.113131 255 255 0
-0.701666 0.439783 0.121513 255 255 0
-0.765835 0.404350 0.120131 255 255 0
-0.741643 0.540291 0.121456 255 255 0
-0.802486 0.504151 0.115200 255 255 0
-0.657843 0.463183 0.121448 255 255 0
-0.649603 0.449163 0.114131 255 255 0
-0.806380 0.408879 0.115169 255 255 0
-0.636628 0.476418 0.102131 255 255 0
-0.815888 0.575773 0.112131 255 255 0
-0.708877 0.492433 0.121495 255 255 0
-0.814149 0.545479 0.122213 255 255 0
-0.826266 0.392280 0.096131 255 255 0
-0.851810 0.512590 0.121546 255 255 0
-0.709974 0.564230 0.122152 255 255 0
-0.681101 0.421099 0.121256 255 255 0
-0.701685 0.535887 0.121200 255 255 0
-0.775590 0.457540 0.113145 255 255 0
-0.832813 0.428810 0.121466 255 255 0
-0.640993 0.494361 0.085348 255 255 0
-0.639452 0.494033 0.110131 255 255 0
-0.753993 0.405231 0.088131 255 255 0
-0.647520 0.526418 0.084131 255 255 0
-0.646932 0.532428 0.102131 255 255 0
-0.813459 0.457411 0.114131 255 255 0
-0.796034 0.404635 0.096131 255 255 0
-0.720966 0.413215 0.086131 255 255 0
-0.805445 0.519093 0.122281 255 255 0
-0.747367 0.407547 0.102131 255 255 0
-0.775665 0.418708 0.115186 255 255 0
-0.786468 0.531416 0.115213 255 255 0
-0.642856 0.485596 0.114131 255 255 0
-0.789454 0.478889 0.115197 255 255 0
-0.728298 0.410684 0.097224 255 255 0
-0.795890 0.400515 0.121004 255 255 0
-0.640851 0.456551 0.110131 255 255 0
-0.650301 0.512697 0.092131 255 255 0
-0.740717 0.486932 0.115259 255 255 0
-0.696521 0.415890 0.116131 255 255 0
-0.760233 0.414352 0.104131 255 255 0
-0.696552 0.425364 0.090131 255 255 0
-0.669534 0.437042 0.115249 255 255 0
-0.670432 0.557869 0.121236 255 255 0
-0.708216 0.514784 0.121897 255 255 0
-0.683564 0.428754 0.092131 255 255 0
-0.763750 0.513240 0.116131 255 255 0
-0.747667 0.415757 0.106131 255 255 0
-0.845922 0.415239 0.115149 255 255 0
-0.755441 0.436900 0.115239 255 255 0
-0.771713 0.471029 0.114131 255 255 0
-0.736937 0.408519 0.108131 255 255 0
-0.711542 0.499133 0.115169 255 255 0
-0.778196 0.531852 0.122131 255 255 0
-0.746926 0.525056 0.115201 255 255 0
-0.644804 0.486052 0.100131 255 255 0
-0.871250 0.526946 0.115174 255 255 0
-0.855493 0.418305 0.116131 255 255 0
-0.763389 0.428366 0.115176 255 255 0
-0.814914 0.416827 0.121981 255 255 0
-0.690779 0.529479 0.122272 255 255 0
-0.862177 0.531152 0.115193 255 255 0
-0.643260 0.478485 0.108131 255 255 0
-0.741718 0.501458 0.115224 255 255 0
-0.789331 0.489087 0.121185 255 255 0
-0.635370 0.472719 0.110926 255 255 0
-0.747880 0.510946 0.115252 255 255 0
-0.693132 0.431835 0.121696 255 255 0
-0.641639 0.506766 0.096131 255 255 0
-0.633980 0.447887 0.106131 255 255 0
-0.734772 0.524518 0.121925 255 255 0
-0.825744 0.462067 0.121554 255 255 0
-0.712620 0.474826 0.122249 255 255 0
-0.823808 0.576991 0.118131 255 255 0
-0.781553 0.516059 0.121826 255 255 0
-0.699341 0.469959 0.121348 255 255 0
-0.817428 0.501193 0.121624 255 255 0
-0.840516 0.440671 0.121061 255 255 0
-0.721985 0.478861 0.121622 255 255 0
-0.718734 0.455679 0.121323 255 255 0
-0.830168 0.518214 0.121190 255 255 0
-0.823155 0.416534 0.115258 255 255 0
-0.664346 0.509548 0.121577 255 255 0
-0.674448 0.452400 0.121444 255 255 0
-0.691857 0.505172 0.121506 255 255 0
-0.651715 0.525265 0.098131 255 255 0
-0.765780 0.522930 0.115218 255 255 0
-0.831047 0.542937 0.115168 255 255 0
-0.703689 0.564938 0.115193 255 255 0
-0.820433 0.544770 0.115190 255 255 0
-0.647387 0.497765 0.092131 255 255 0
-0.843427 0.426977 0.115155 255 255 0
-0.853548 0.465932 0.115159 255 255 0
-0.783557 0.545111 0.115166 255 255 0
-0.634830 0.436781 0.106131 255 255 0
-0.776053 0.484220 0.121588 255 255 0
-0.752530 0.450594 0.115204 255 255 0
-0.782762 0.404556 0.122131 255 255 0
-0.686404 0.501968 0.115235 255 255 0
-0.857386 0.505597 0.115170 255 255 0
-0.763776 0.493878 0.115233 255 255 0
-0.762625 0.475232 0.114131 255 255 0
-0.840393 0.450868 0.115287 255 255 0
-0.655401 0.546496 0.108131 255 255 0
-0.824327 0.449498 0.121704 255 255 0
-0.699852 0.525274 0.121684 255 255 0
-0.841735 0.502270 0.121380 255 255 0
-0.841395 0.465394 0.115159 255 255 0
-0.712327 0.466585 0.115140 255 255 0
-0.673418 0.505342 0.121408 255 255 0
-0.655929 0.443331 0.116131 255 255 0
-0.737881 0.461793 0.115179 255 255 0
-0.636109 0.454474 0.088131 255 255 0
-0.632412 0.457777 0.121103 255 255 0
-0.687960 0.417690 0.114131 255 255 0
-0.645450 0.525979 0.116131 255 255 0
-0.650762 0.570046 0.092131 255 255 0
-0.850713 0.440794 0.115228 255 255 0
-0.783755 0.496080 0.121653 255 255 0
-0.632534 0.447580 0.121919 255 255 0
-0.770770 0.499454 0.121353 255 255 0
-0.700220 0.494682 0.121287 255 255 0
-0.714453 0.485439 0.121639 255 255 0
-0.690099 0.455726 0.115185 255 255 0
-0.832227 0.412328 0.115232 255 255 0
-0.675885 0.561073 0.115172 255 255 0
-0.790730 0.444028 0.122131 255 255 0
-0.806966 0.425361 0.121470 255 255 0
-0.788036 0.466320 0.113140 255 255 0
-0.817891 0.527872 0.115155 255 255 0
-0.656416 0.544667 0.122131 255 255 0
-0.796126 0.543693 0.115185 255 255 0
-0.807864 0.546188 0.115195 255 255 0
-0.847944 0.540394 0.121731 255 255 0
-0.726484 0.496175 0.121454 255 255 0
-0.797307 0.413084 0.115139 255 255 0
-0.700664 0.425257 0.121526 255 255 0
-0.653855 0.501184 0.115165 255 255 0
-0.741038 0.427705 0.115161 255 255 0
-0.815750 0.470609 0.122131 255 255 0
-0.711155 0.433621 0.113135 255 255 0
-0.641361 0.463769 0.115213 255 255 0
-0.852396 0.529072 0.115180 255 255 0
-0.808847 0.464609 0.115189 255 255 0
-0.736927 0.475903 0.115277 255 255 0
-0.676840 0.546963 0.121952 255 255 0
-0.729640 0.462086 0.121145 255 255 0
-0.660233 0.572059 0.094131 255 255 0
-0.678191 0.434793 0.115174 255 255 0
-0.866751 0.509632 0.115271 255 255 0
-0.787686 0.429489 0.122131 255 255 0
-0.816426 0.486667 0.115212 255 255 0
-0.803519 0.403100 0.088131 255 255 0
-0.707125 0.414101 0.114131 255 255 0
-0.764050 0.406015 0.087506 255 255 0
-0.692330 0.416371 0.098131 255 255 0
-0.753579 0.493756 0.121315 255 255 0
-0.801513 0.422157 0.115207 255 255 0
-0.659138 0.485950 0.121745 255 255 0
-0.698441 0.570391 0.120131 255 255 0
-0.793338 0.547190 0.122476 255 255 0
-0.803564 0.479844 0.121255 255 255 0
-0.651793 0.562086 0.102131 255 255 0
-0.639190 0.464364 0.086131 255 255 0
-0.720317 0.515311 0.122131 255 255 0
-0.639045 0.500081 0.116131 255 255 0
-0.778085 0.445803 0.120897 255 255 0
-0.641532 0.482207 0.085169 255 255 0
-0.647183 0.436381 0.115264 255 255 0
-0.819365 0.405505 0.121187 255 255 0
-0.748740 0.439565 0.121300 255 255 0
-0.660187 0.529111 0.115150 255 255 0
-0.700438 0.541756 0.115196 255 255 0
-0.693615 0.554618 0.121529 255 255 0
-0.800511 0.407631 0.121173 255 255 0
-0.822513 0.534989 0.115195 255 255 0
-0.762189 0.462871 0.121711 255 255 0
-0.800728 0.454705 0.115195 255 255 0
-0.752502 0.518063 0.115132 255 255 0
-0.648204 0.547011 0.085338 255 255 0
