ply
format ascii 1.0
element vertex 1228
property float x
property float y
property float z
property uchar red
property uchar green
property uchar blue
end_header
-0.228619 -0.933022 0.280310 255 125 0
-0.081358 -0.985854 0.452310 255 125 0
-0.164054 -0.672757 0.402310 255 125 0
-0.178047 -0.969387 0.276310 255 125 0
-0.130669 -0.784967 0.498310 255 125 0
-0.251745 -0.835134 0.392310 255 125 0
0.009740 -0.865094 0.401254 255 125 0
-0.102968 -0.866273 0.344310 255 125 0
-0.187489 -0.970389 0.302310 255 125 0
-0.078435 -0.972105 0.582310 255 125 0
-0.076430 -0.871315 0.228310 255 125 0
-0.009530 -0.869178 0.393340 255 125 0
0.092434 -0.856091 0.362310 255 125 0
0.113792 -0.856541 0.345340 255 125 0
-0.342700 -0.800405 0.382310 255 125 0
-0.069466 -0.862571 0.411335 255 125 0
-0.078199 -0.855557 0.236310 255 125 0
-0.161979 -0.922649 0.401592 255 125 0
-0.169821 -0.747918 0.414310 255 125 0
-0.166680 -0.819716 0.448310 255 125 0
-0.236617 -0.946733 0.324310 255 125 0
-0.129490 -0.856380 0.436310 255 125 0
-0.147664 -0.922642 0.444310 255 125 0
-0.056612 -0.918465 0.318310 255 125 0
-0.114876 -1.004225 0.508310 255 125 0
-0.256780 -0.829965 0.382310 255 125 0
-0.061031 -0.962509 0.554310 255 125 0
-0.035358 -0.961832 0.443484 255 125 0
-0.151687 -0.980043 0.349376 255 125 0
-0.200950 -0.793730 0.478310 255 125 0
0.015118 -0.907131 0.411242 255 125 0
-0.168955 -0.936231 0.388310 255 125 0
-0.171901 -1.027045 0.548310 255 125 0
-0.081467 -0.905004 0.196310 255 125 0
-0.162140 -0.740638 0.411312 255 125 0
-0.123637 -1.011611 0.532310 255 125 0
-0.075765 -0.861233 0.200310 255 125 0
-0.160193 -0.904628 0.416478 255 125 0
-0.279186 -0.916138 0.388724 255 125 0
-0.185814 -0.784679 0.399358 255 125 0
-0.070943 -0.890882 0.206310 255 125 0
0.068788 -0.834707 0.392310 255 125 0
-0.088906 -0.848216 0.344506 255 125 0
-0.160634 -0.914757 0.436310 255 125 0
-0.114725 -0.834549 0.474310 255 125 0
0.004940 -1.003113 0.369321 255 125 0
-0.165126 -0.793165 0.446700 255 125 0
-0.092587 -1.009825 0.468310 255 125 0
-0.190765 -1.000362 0.379003 255 125 0
-0.221820 -0.973315 0.381555 255 125 0
-0.086534 -0.894773 0.408310 255 125 0
-0.066187 -0.818285 0.416057 255 125 0
-0.243311 -0.901273 0.389405 255 125 0
-0.249825 -0.912678 0.318310 255 125 0
-0.071612 -0.747613 0.408529 255 125 0
-0.271654 -0.909560 0.392782 255 125 0
-0.194289 -0.978462 0.314310 255 125 0
-0.104897 -0.808012 0.413316 255 125 0
-0.196871 -0.855937 0.339342 255 125 0
0.074912 -0.827831 0.377370 255 125 0
-0.146309 -1.022080 0.471162 255 125 0
-0.215951 -0.974562 0.413337 255 125 0
-0.068200 -0.904711 0.414310 255 125 0
-0.074012 -0.816622 0.504679 255 125 0
-0.054125 -0.871966 0.352310 255 125 0
-0.115803 -0.801605 0.417391 255 125 0
-0.005782 -0.831125 0.416310 255 125 0
-0.102307 -0.853546 0.339324 255 125 0
-0.135721 -0.751018 0.424310 255 125 0
-0.112485 -0.949528 0.402796 255 125 0
-0.114100 -0.783970 0.512310 255 125 0
-0.077835 -0.915998 0.428310 255 125 0
0.016223 -0.815356 0.413950 255 125 0
0.089083 -0.886215 0.386310 255 125 0
-0.004650 -0.907018 0.412310 255 125 0
-0.196805 -0.802789 0.346310 255 125 0
0.089347 -0.841121 0.378310 255 125 0
-0.139742 -0.981565 0.346310 255 125 0
-0.054042 -0.982396 0.550606 255 125 0
-0.110491 -0.964264 0.282310 255 125 0
-0.103951 -0.957475 0.438755 255 125 0
-0.087171 -0.950819 0.312310 255 125 0
-0.247190 -0.886136 0.348310 255 125 0
-0.068642 -0.911819 0.284310 255 125 0
-0.159984 -0.999842 0.568310 255 125 0
-0.204875 -0.999408 0.417422 255 125 0
-0.117344 -0.799232 0.356943 255 125 0
-0.059836 -0.942317 0.404545 255 125 0
-0.198610 -0.902596 0.344666 255 125 0
-0.162981 -0.908124 0.366423 255 125 0
-0.256721 -0.898422 0.332310 255 125 0
-0.084713 -0.838108 0.234310 255 125 0
-0.100378 -0.979141 0.340310 255 125 0
-0.122939 -0.955484 0.206310 255 125 0
-0.090903 -0.934567 0.182310 255 125 0
-0.080032 -0.893040 0.189273 255 125 0
-0.164825 -1.032237 0.536310 255 125 0
-0.223436 -1.009775 0.409951 255 125 0
-0.079752 -0.949440 0.330310 255 125 0
-0.019018 -0.875340 0.396078 255 125 0
-0.226491 -0.951875 0.344310 255 125 0
-0.170109 -0.980139 0.284310 255 125 0
-0.112442 -1.014966 0.446310 255 125 0
-0.149542 -0.979570 0.314310 255 125 0
0.026242 -0.882915 0.402310 255 125 0
-0.102011 -1.006065 0.518310 255 125 0
-0.083094 -0.984401 0.401313 255 125 0
-0.140044 -0.925267 0.433071 255 125 0
-0.236094 -0.674928 0.390310 255 125 0
-0.125618 -1.020931 0.466310 255 125 0
-0.127251 -0.889138 0.406310 255 125 0
-0.035517 -0.770191 0.406310 255 125 0
-0.223891 -0.819524 0.418712 255 125 0
-0.177584 -0.890707 0.420310 255 125 0
-0.076311 -0.928591 0.276310 255 125 0
-0.115661 -0.969300 0.304310 255 125 0
-0.102695 -0.788033 0.409357 255 125 0
-0.201180 -0.953166 0.407405 255 125 0
-0.045508 -0.990345 0.397404 255 125 0
-0.274461 -0.816953 0.385313 255 125 0
-0.171411 -0.793875 0.398562 255 125 0
-0.110944 -0.999991 0.580310 255 125 0
-0.062113 -0.890715 0.304310 255 125 0
-0.151320 -0.997555 0.578310 255 125 0
0.021969 -0.826801 0.401401 255 125 0
-0.242310 -0.915798 0.357570 255 125 0
-0.237433 -0.916834 0.278310 255 125 0
-0.168632 -0.953950 0.457074 255 125 0
-0.092205 -0.796397 0.491351 255 125 0
-0.121767 -1.012434 0.580310 255 125 0
-0.000854 -0.963032 0.440514 255 125 0
-0.174124 -0.758538 0.483304 255 125 0
-0.260178 -0.856793 0.404310 255 125 0
-0.138749 -0.948035 0.344548 255 125 0
-0.082426 -0.929335 0.240310 255 125 0
-0.061390 -0.921538 0.298310 255 125 0
-0.239178 -0.838767 0.352310 255 125 0
-0.130858 -0.891674 0.368310 255 125 0
-0.071482 -0.949009 0.396310 255 125 0
-0.134641 -0.880611 0.386310 255 125 0
-0.082459 -0.856361 0.344310 255 125 0
-0.099112 -1.011666 0.406208 255 125 0
-0.184547 -0.874914 0.423244 255 125 0
-0.125154 -0.944789 0.396310 255 125 0
-0.266854 -0.771543 0.401467 255 125 0
-0.086789 -0.920229 0.200310 255 125 0
-0.106374 -0.978495 0.600310 255 125 0
-0.127568 -1.010867 0.452310 255 125 0
-0.014623 -0.998955 0.396408 255 125 0
-0.167630 -0.920380 0.374310 255 125 0
-0.291584 -0.868650 0.410310 255 125 0
-0.158813 -0.724988 0.417264 255 125 0
-0.222057 -0.830137 0.415658 255 125 0
0.010100 -0.998075 0.382226 255 125 0
-0.102702 -0.999696 0.506310 255 125 0
-0.064325 -0.910691 0.308310 255 125 0
-0.133180 -0.864120 0.366310 255 125 0
-0.077511 -0.905844 0.214310 255 125 0
-0.003717 -1.005362 0.375820 255 125 0
-0.206624 -0.786389 0.420749 255 125 0
-0.061377 -0.993105 0.510310 255 125 0
-0.092006 -0.747367 0.409341 255 125 0
-0.091817 -0.861909 0.409358 255 125 0
-0.177819 -0.804780 0.476512 255 125 0
-0.222564 -0.822901 0.348310 255 125 0
-0.022420 -0.929822 0.451303 255 125 0
-0.133957 -0.973588 0.351338 255 125 0
-0.177956 -0.815047 0.468310 255 125 0
-0.235534 -0.874300 0.339388 255 125 0
-0.071772 -0.988852 0.495264 255 125 0
0.053024 -0.853848 0.397707 255 125 0
-0.209284 -0.957577 0.300310 255 125 0
0.101018 -0.858921 0.354310 255 125 0
-0.152377 -0.858240 0.428310 255 125 0
-0.211075 -0.807328 0.356310 255 125 0
-0.217640 -0.953645 0.422310 255 125 0
-0.076405 -0.933693 0.390310 255 125 0
-0.149735 -0.903527 0.346310 255 125 0
-0.143153 -0.987992 0.320896 255 125 0
-0.108308 -1.026068 0.401266 255 125 0
-0.106205 -0.891567 0.424310 255 125 0
-0.271408 -0.889166 0.398474 255 125 0
-0.207365 -0.960031 0.418310 255 125 0
-0.157643 -1.036028 0.524310 255 125 0
-0.208020 -1.017143 0.410310 255 125 0
-0.202910 -0.836251 0.405357 255 125 0
-0.030926 -0.854405 0.411333 255 125 0
-0.123201 -0.874886 0.364310 255 125 0
-0.000722 -0.875836 0.398310 255 125 0
0.075203 -0.901500 0.392310 255 125 0
-0.094435 -0.883844 0.371996 255 125 0
-0.088858 -0.963422 0.312310 255 125 0
-0.065232 -0.804175 0.414820 255 125 0
-0.144985 -0.861940 0.412310 255 125 0
-0.163315 -0.856936 0.422310 255 125 0
-0.098233 -1.036388 0.393638 255 125 0
-0.219514 -0.943227 0.236310 255 125 0
-0.122541 -1.035311 0.391175 255 125 0
-0.246013 -0.925235 0.356310 255 125 0
-0.284952 -0.808589 0.395162 255 125 0
-0.235288 -0.853905 0.343061 255 125 0
-0.174917 -1.002756 0.528310 255 125 0
-0.128725 -0.786591 0.418310 255 125 0
-0.023933 -0.859982 0.417672 255 125 0
-0.220776 -0.842677 0.412310 255 125 0
-0.299430 -0.838228 0.399058 255 125 0
-0.213057 -0.946553 0.412310 255 125 0
-0.224750 -0.890905 0.345195 255 125 0
-0.190314 -0.795990 0.414310 255 125 0
-0.064125 -0.869840 0.254310 255 125 0
-0.071989 -0.941777 0.357550 255 125 0
-0.301897 -0.782496 0.394646 255 125 0
-0.343309 -0.820721 0.388310 255 125 0
-0.078966 -0.878407 0.456310 255 125 0
-0.309183 -0.768679 0.391994 255 125 0
-0.324323 -0.820668 0.389337 255 125 0
-0.056292 -0.902175 0.298310 255 125 0
-0.072187 -0.990808 0.409119 255 125 0
-0.141781 -1.029634 0.512310 255 125 0
-0.064272 -0.877989 0.248310 255 125 0
-0.227756 -0.895423 0.388310 255 125 0
-0.103486 -0.810996 0.484310 255 125 0
-0.124655 -0.843251 0.460310 255 125 0
-0.183110 -0.983588 0.375426 255 125 0
-0.019585 -0.954962 0.407331 255 125 0
-0.149192 -0.968306 0.399469 255 125 0
-0.052006 -0.923533 0.344310 255 125 0
-0.255907 -0.906774 0.350310 255 125 0
-0.185599 -0.793285 0.468310 255 125 0
-0.116663 -0.872987 0.423224 255 125 0
-0.223484 -0.981140 0.413420 255 125 0
-0.053836 -0.981425 0.526310 255 125 0
0.049703 -0.826561 0.392310 255 125 0
-0.196477 -0.969517 0.274310 255 125 0
-0.181351 -0.855146 0.438310 255 125 0
-0.138187 -0.960422 0.172310 255 125 0
-0.162285 -0.933709 0.436310 255 125 0
-0.081194 -0.941865 0.304310 255 125 0
-0.136171 -1.022482 0.478310 255 125 0
-0.173012 -0.974558 0.300310 255 125 0
-0.097262 -1.002958 0.538310 255 125 0
0.077454 -0.844728 0.375360 255 125 0
0.025806 -0.866464 0.400295 255 125 0
-0.204979 -0.951802 0.212310 255 125 0
-0.230304 -0.963333 0.420310 255 125 0
-0.075128 -0.865458 0.236310 255 125 0
-0.062634 -0.859285 0.418310 255 125 0
-0.225459 -0.884620 0.400542 255 125 0
-0.183460 -0.994853 0.546310 255 125 0
-0.163047 -0.783385 0.355140 255 125 0
-0.142171 -0.892101 0.394310 255 125 0
-0.127695 -1.021086 0.484310 255 125 0
-0.233528 -0.691712 0.398310 255 125 0
-0.288404 -0.910089 0.384310 255 125 0
-0.085588 -0.938418 0.224310 255 125 0
-0.090641 -0.962193 0.298310 255 125 0
-0.068512 -0.848461 0.413332 255 125 0
-0.106330 -0.944701 0.206310 255 125 0
-0.224561 -1.005447 0.366508 255 125 0
-0.078019 -0.758519 0.413795 255 125 0
-0.017279 -0.828681 0.407314 255 125 0
-0.114658 -0.950127 0.194310 255 125 0
-0.042201 -0.878591 0.413318 255 125 0
-0.126195 -0.987506 0.602310 255 125 0
-0.153389 -0.848822 0.340310 255 125 0
-0.076520 -0.881518 0.216310 255 125 0
-0.035031 -0.869890 0.404310 255 125 0
-0.146973 -1.025202 0.494310 255 125 0
-0.193015 -0.991706 0.373430 255 125 0
-0.226531 -0.953912 0.300310 255 125 0
-0.004124 -0.843745 0.401319 255 125 0
-0.235350 -0.921366 0.248310 255 125 0
-0.285415 -0.781910 0.399363 255 125 0
0.103179 -0.858374 0.367157 255 125 0
-0.089587 -0.774462 0.417090 255 125 0
0.032337 -0.845361 0.403072 255 125 0
-0.116898 -0.975170 0.330310 255 125 0
-0.118912 -0.864330 0.434062 255 125 0
-0.254964 -0.907997 0.388310 255 125 0
-0.212937 -0.854568 0.455920 255 125 0
-0.191767 -0.985837 0.339424 255 125 0
-0.200978 -0.952216 0.242310 255 125 0
-0.143569 -0.989949 0.399336 255 125 0
-0.333356 -0.766970 0.380310 255 125 0
-0.083433 -0.996597 0.486310 255 125 0
-0.151858 -0.846175 0.370310 255 125 0
-0.119386 -0.919435 0.338310 255 125 0
-0.234405 -0.926705 0.424310 255 125 0
-0.230940 -0.948885 0.335309 255 125 0
-0.144627 -1.033407 0.532310 255 125 0
-0.170212 -0.906586 0.426310 255 125 0
-0.213460 -0.948511 0.378310 255 125 0
-0.202098 -0.947865 0.230310 255 125 0
-0.071696 -0.950018 0.437359 255 125 0
-0.210031 -0.957418 0.256310 255 125 0
-0.164622 -0.800413 0.352310 255 125 0
-0.001166 -0.858686 0.406572 255 125 0
-0.092129 -0.757565 0.409383 255 125 0
-0.186251 -0.868418 0.340310 255 125 0
-0.229986 -0.934775 0.434736 255 125 0
-0.125169 -1.009197 0.552310 255 125 0
-0.176824 -0.929718 0.438310 255 125 0
-0.188705 -0.894477 0.425832 255 125 0
0.044313 -0.813148 0.408310 255 125 0
-0.002950 -0.891022 0.404310 255 125 0
-0.201757 -0.773112 0.416742 255 125 0
-0.176987 -0.800869 0.393391 255 125 0
0.006674 -0.908376 0.406310 255 125 0
-0.098746 -0.817553 0.352310 255 125 0
-0.127700 -0.982630 0.308310 255 125 0
-0.174670 -0.905401 0.396310 255 125 0
-0.167120 -1.023792 0.557743 255 125 0
-0.114564 -0.959308 0.403632 255 125 0
-0.063336 -0.925215 0.326310 255 125 0
-0.086193 -0.835454 0.410310 255 125 0
-0.146813 -0.884979 0.368310 255 125 0
-0.174814 -0.963794 0.408310 255 125 0
-0.059618 -0.989390 0.406095 255 125 0
-0.139621 -0.971376 0.276310 255 125 0
-0.251699 -0.806061 0.408310 255 125 0
-0.101615 -0.965723 0.278310 255 125 0
-0.058544 -1.003576 0.520310 255 125 0
-0.282797 -0.759975 0.397440 255 125 0
-0.227800 -0.929106 0.258310 255 125 0
-0.051765 -0.923584 0.445085 255 125 0
-0.201473 -0.944926 0.377330 255 125 0
-0.180380 -0.677465 0.400310 255 125 0
-0.293486 -0.800642 0.394761 255 125 0
-0.147536 -1.008615 0.456310 255 125 0
-0.085751 -0.967479 0.442310 255 125 0
-0.138087 -0.978845 0.396310 255 125 0
-0.126094 -0.955833 0.162310 255 125 0
-0.094577 -0.797939 0.405315 255 125 0
-0.214056 -0.686681 0.398310 255 125 0
-0.055848 -0.904315 0.419051 255 125 0
-0.090815 -0.876436 0.448802 255 125 0
-0.079595 -0.948701 0.356310 255 125 0
-0.181711 -0.900054 0.344310 255 125 0
-0.113065 -0.836820 0.404310 255 125 0
-0.103808 -1.014519 0.486310 255 125 0
-0.162178 -1.019781 0.498310 255 125 0
-0.124167 -0.812095 0.409342 255 125 0
0.025192 -0.917451 0.413173 255 125 0
-0.008207 -0.824476 0.409370 255 125 0
-0.014028 -0.851863 0.403366 255 125 0
-0.382317 -0.800163 0.364310 255 125 0
-0.222998 -0.872875 0.456310 255 125 0
-0.112892 -1.004647 0.442310 255 125 0
-0.110965 -0.821035 0.484310 255 125 0
-0.190558 -0.787760 0.447361 255 125 0
-0.084285 -0.798081 0.466310 255 125 0
-0.129545 -0.958169 0.394310 255 125 0
-0.245391 -0.911054 0.389395 255 125 0
-0.228587 -0.957564 0.380310 255 125 0
-0.020811 -0.917897 0.412310 255 125 0
-0.094407 -0.816376 0.467396 255 125 0
-0.229806 -1.001266 0.352310 255 125 0
0.054612 -0.884856 0.399809 255 125 0
-0.064476 -0.839095 0.417321 255 125 0
-0.067538 -0.930455 0.347314 255 125 0
-0.063668 -0.941108 0.352310 255 125 0
0.009384 -0.979521 0.394310 255 125 0
-0.226272 -0.984637 0.377589 255 125 0
-0.028091 -0.879544 0.389999 255 125 0
-0.075352 -0.885856 0.182310 255 125 0
-0.016211 -0.967947 0.395363 255 125 0
-0.080823 -0.877526 0.194310 255 125 0
-0.060994 -0.895042 0.316310 255 125 0
-0.034419 -0.938173 0.410310 255 125 0
-0.099701 -0.956719 0.242310 255 125 0
-0.352885 -0.773704 0.368310 255 125 0
-0.205358 -0.876626 0.339421 255 125 0
-0.071915 -1.008767 0.522310 255 125 0
-0.117976 -0.956119 0.344310 255 125 0
-0.170882 -0.983773 0.304310 255 125 0
-0.160965 -0.769515 0.454310 255 125 0
-0.040688 -0.948431 0.406664 255 125 0
-0.076951 -0.897784 0.437275 255 125 0
-0.314807 -0.747037 0.383422 255 125 0
-0.081023 -1.003519 0.472310 255 125 0
-0.376066 -0.785133 0.356919 255 125 0
-0.092360 -0.927224 0.190310 255 125 0
0.044783 -0.854141 0.391362 255 125 0
-0.105321 -0.954298 0.208310 255 125 0
-0.036190 -0.965744 0.397374 255 125 0
-0.084860 -0.886895 0.162310 255 125 0
-0.200238 -0.958355 0.224310 255 125 0
-0.126255 -0.985450 0.321409 255 125 0
-0.185062 -0.809999 0.344310 255 125 0
-0.099964 -0.967577 0.328310 255 125 0
0.053932 -0.813148 0.404310 255 125 0
-0.131434 -0.894382 0.339466 255 125 0
-0.152462 -0.849020 0.425313 255 125 0
-0.242938 -0.918756 0.308310 255 125 0
-0.208343 -0.972090 0.346310 255 125 0
-0.238381 -0.930946 0.348310 255 125 0
-0.079521 -0.948355 0.287285 255 125 0
0.030210 -0.826508 0.406587 255 125 0
-0.181845 -0.862202 0.420310 255 125 0
-0.210243 -0.938087 0.340310 255 125 0
-0.074341 -0.861536 0.248310 255 125 0
-0.130848 -1.016677 0.536310 255 125 0
-0.074252 -0.918805 0.266310 255 125 0
-0.259403 -0.885584 0.392310 255 125 0
-0.109447 -0.973712 0.324310 255 125 0
-0.072982 -0.929298 0.256310 255 125 0
-0.156062 -0.952533 0.337315 255 125 0
-0.157254 -0.823464 0.344413 255 125 0
-0.104150 -1.006505 0.584671 255 125 0
-0.107017 -0.870947 0.404310 255 125 0
-0.078313 -0.860690 0.190310 255 125 0
-0.137018 -0.920655 0.416310 255 125 0
-0.192083 -0.852865 0.408310 255 125 0
-0.175272 -0.999567 0.544310 255 125 0
-0.215772 -0.925622 0.444310 255 125 0
-0.072116 -0.976511 0.570310 255 125 0
-0.130032 -0.960110 0.212310 255 125 0
-0.069295 -0.861764 0.266310 255 125 0
-0.262577 -0.866854 0.416310 255 125 0
-0.136265 -0.984448 0.336310 255 125 0
-0.133003 -0.959478 0.467465 255 125 0
-0.103990 -0.765267 0.422559 255 125 0
-0.196212 -0.650827 0.372310 255 125 0
-0.260414 -0.842430 0.396310 255 125 0
-0.239388 -0.906195 0.244310 255 125 0
-0.126009 -0.965055 0.479418 255 125 0
-0.163642 -0.930475 0.423748 255 125 0
-0.307841 -0.820081 0.393505 255 125 0
-0.088566 -0.938254 0.386310 255 125 0
-0.220049 -0.945741 0.252310 255 125 0
-0.157991 -0.884649 0.383239 255 125 0
-0.064616 -0.738877 0.392310 255 125 0
-0.065658 -0.969709 0.582310 255 125 0
-0.129166 -0.999143 0.399347 255 125 0
-0.180227 -0.979644 0.292310 255 125 0
-0.198222 -0.968107 0.415943 255 125 0
-0.203959 -0.793091 0.467442 255 125 0
-0.100793 -0.896806 0.434310 255 125 0
-0.226901 -0.852927 0.458310 255 125 0
-0.183597 -0.976256 0.412310 255 125 0
-0.111313 -0.982491 0.337180 255 125 0
-0.049450 -0.749161 0.392310 255 125 0
-0.202176 -0.869123 0.390310 255 125 0
-0.145421 -0.883230 0.351464 255 125 0
-0.202626 -1.008065 0.366679 255 125 0
-0.155968 -1.009804 0.467189 255 125 0
-0.199320 -0.944417 0.196310 255 125 0
-0.184949 -0.732514 0.412310 255 125 0
-0.249256 -0.914321 0.328310 255 125 0
-0.116888 -0.883667 0.368310 255 125 0
-0.148502 -0.878486 0.387285 255 125 0
-0.104752 -0.922545 0.344310 255 125 0
-0.065922 -0.893995 0.237771 255 125 0
-0.143295 -0.902084 0.364959 255 125 0
-0.189291 -0.877995 0.413435 255 125 0
-0.200075 -0.861390 0.444704 255 125 0
0.019474 -0.838537 0.399351 255 125 0
-0.112070 -0.947572 0.427439 255 125 0
-0.211764 -0.897754 0.394310 255 125 0
-0.083207 -0.884187 0.174310 255 125 0
0.092150 -0.862164 0.377733 255 125 0
-0.138068 -1.021787 0.399869 255 125 0
-0.156214 -1.020580 0.478310 255 125 0
-0.196143 -0.958327 0.413777 255 125 0
-0.139324 -1.013341 0.492310 255 125 0
-0.130924 -0.949697 0.452135 255 125 0
-0.174453 -0.981339 0.415348 255 125 0
0.066671 -0.828124 0.383341 255 125 0
-0.137208 -0.950407 0.385374 255 125 0
-0.167419 -0.872422 0.424310 255 125 0
-0.208835 -0.969941 0.307779 255 125 0
-0.101641 -0.943654 0.168310 255 125 0
-0.082309 -0.951853 0.396961 255 125 0
-0.092384 -0.941531 0.201643 255 125 0
-0.264040 -0.777546 0.408310 255 125 0
-0.211500 -0.963240 0.375362 255 125 0
-0.121321 -0.904521 0.366310 255 125 0
-0.241934 -0.933271 0.338310 255 125 0
-0.132518 -1.014915 0.442310 255 125 0
-0.030300 -0.889940 0.404310 255 125 0
-0.233375 -0.936100 0.312310 255 125 0
-0.099673 -0.968608 0.296310 255 125 0
-0.216329 -0.731165 0.410310 255 125 0
-0.130584 -0.774951 0.502310 255 125 0
-0.062642 -0.941720 0.332310 255 125 0
-0.057832 -0.971367 0.563102 255 125 0
-0.259873 -0.902231 0.396310 255 125 0
-0.008972 -0.953127 0.445605 255 125 0
-0.102750 -1.004758 0.458310 255 125 0
-0.283595 -0.744489 0.400310 255 125 0
-0.099771 -0.944052 0.180310 255 125 0
-0.308427 -0.803599 0.391668 255 125 0
-0.173514 -0.880724 0.420310 255 125 0
-0.102349 -0.818778 0.408310 255 125 0
-0.361395 -0.754591 0.356310 255 125 0
-0.153618 -0.960269 0.184310 255 125 0
-0.214839 -0.661963 0.376310 255 125 0
-0.077600 -1.001925 0.534310 255 125 0
-0.141792 -0.957610 0.182310 255 125 0
-0.082864 -0.944843 0.262310 255 125 0
-0.185530 -0.956492 0.215269 255 125 0
-0.084370 -0.942307 0.248310 255 125 0
0.077993 -0.832574 0.387339 255 125 0
-0.103463 -0.964797 0.312310 255 125 0
0.033121 -0.812814 0.401372 255 125 0
-0.181740 -0.967521 0.375345 255 125 0
0.066265 -0.878131 0.386310 255 125 0
-0.274942 -0.819216 0.400310 255 125 0
-0.165378 -1.025217 0.514310 255 125 0
-0.109844 -0.792806 0.498310 255 125 0
-0.210928 -0.773207 0.414310 255 125 0
-0.137411 -1.013748 0.518310 255 125 0
-0.120361 -1.001015 0.578310 255 125 0
-0.178093 -0.777215 0.478310 255 125 0
-0.067053 -0.914201 0.296310 255 125 0
-0.217814 -0.819794 0.410310 255 125 0
-0.063502 -0.921090 0.440457 255 125 0
-0.134543 -0.957106 0.477308 255 125 0
-0.045059 -0.990440 0.512310 255 125 0
-0.182562 -0.920320 0.344310 255 125 0
-0.161679 -0.978958 0.590310 255 125 0
-0.230298 -0.830431 0.349322 255 125 0
-0.165374 -0.765475 0.470310 255 125 0
-0.088237 -0.873926 0.404310 255 125 0
-0.051664 -0.917472 0.326310 255 125 0
-0.303778 -0.743248 0.391357 255 125 0
-0.129134 -0.787364 0.516310 255 125 0
-0.090217 -0.974707 0.592310 255 125 0
-0.154335 -0.860889 0.410310 255 125 0
-0.217048 -0.950861 0.298310 255 125 0
-0.193743 -0.942479 0.402310 255 125 0
-0.149976 -1.000854 0.404315 255 125 0
-0.191798 -0.779317 0.404310 255 125 0
-0.160116 -0.913884 0.418310 255 125 0
-0.054897 -0.906561 0.308310 255 125 0
-0.153152 -0.938838 0.441298 255 125 0
-0.188669 -0.773849 0.454310 255 125 0
-0.029905 -0.965035 0.404603 255 125 0
-0.020832 -0.960830 0.439364 255 125 0
-0.105135 -0.814096 0.340310 255 125 0
-0.101668 -0.783205 0.512310 255 125 0
-0.176337 -1.023876 0.510310 255 125 0
-0.235171 -0.925494 0.284310 255 125 0
-0.108838 -0.874650 0.369113 255 125 0
-0.071874 -0.931578 0.434310 255 125 0
-0.069863 -0.960631 0.399065 255 125 0
-0.183668 -0.899637 0.401342 255 125 0
-0.064041 -0.933244 0.407010 255 125 0
-0.157508 -1.007432 0.579492 255 125 0
-0.093768 -0.953506 0.288310 255 125 0
-0.129866 -0.829287 0.339474 255 125 0
-0.071477 -0.870322 0.210310 255 125 0
-0.264939 -0.825111 0.382310 255 125 0
-0.007091 -0.992377 0.395080 255 125 0
-0.040859 -0.929992 0.403341 255 125 0
0.035711 -0.858346 0.400373 255 125 0
-0.077270 -0.870425 0.184310 255 125 0
-0.200887 -0.961407 0.371324 255 125 0
-0.218063 -0.884147 0.406310 255 125 0
-0.200591 -0.791761 0.410310 255 125 0
-0.258518 -0.828521 0.392599 255 125 0
-0.083548 -0.818685 0.410310 255 125 0
-0.101667 -0.946728 0.228310 255 125 0
-0.109444 -1.007424 0.464310 255 125 0
-0.168581 -0.765851 0.406310 255 125 0
-0.151298 -0.708870 0.416310 255 125 0
-0.086254 -1.004175 0.516310 255 125 0
-0.125536 -0.943591 0.344310 255 125 0
-0.074059 -0.787987 0.409564 255 125 0
-0.126936 -0.911696 0.369300 255 125 0
-0.241639 -0.729874 0.413333 255 125 0
-0.158556 -0.835456 0.380310 255 125 0
-0.106567 -0.965097 0.406310 255 125 0
-0.353111 -0.839084 0.396310 255 125 0
-0.118761 -0.786664 0.421521 255 125 0
-0.236392 -0.927279 0.264310 255 125 0
-0.134620 -0.880511 0.352310 255 125 0
-0.127550 -1.010783 0.492310 255 125 0
-0.203865 -0.850362 0.397311 255 125 0
-0.200075 -0.861390 0.372163 255 125 0
-0.111239 -0.991760 0.590310 255 125 0
-0.168256 -0.971420 0.278310 255 125 0
-0.068492 -0.944566 0.320650 255 125 0
-0.158020 -0.982786 0.422310 255 125 0
-0.209025 -0.855398 0.445374 255 125 0
-0.094893 -1.001432 0.462310 255 125 0
-0.340900 -0.763983 0.371670 255 125 0
-0.086243 -0.912639 0.412310 255 125 0
0.081830 -0.872238 0.377410 255 125 0
0.058873 -0.840778 0.386310 255 125 0
-0.174699 -1.001734 0.572656 255 125 0
-0.218881 -0.892153 0.389381 255 125 0
-0.077669 -0.930022 0.232310 255 125 0
-0.137120 -0.719377 0.424310 255 125 0
-0.158596 -0.772063 0.474116 255 125 0
-0.166335 -0.991242 0.338111 255 125 0
-0.151234 -0.747046 0.414499 255 125 0
-0.069692 -0.979070 0.399494 255 125 0
-0.199224 -0.953582 0.382615 255 125 0
0.053487 -0.880527 0.391357 255 125 0
-0.062622 -0.993904 0.526310 255 125 0
-0.147085 -0.891057 0.339341 255 125 0
-0.101200 -0.943748 0.344310 255 125 0
-0.247517 -0.892200 0.286642 255 125 0
-0.127002 -0.786957 0.347626 255 125 0
-0.088404 -0.951666 0.300310 255 125 0
-0.071282 -1.005786 0.408310 255 125 0
-0.020955 -0.971027 0.446150 255 125 0
0.071662 -0.886435 0.386310 255 125 0
-0.234508 -0.936810 0.446310 255 125 0
-0.261995 -0.921838 0.389656 255 125 0
-0.050236 -1.013875 0.408310 255 125 0
-0.216874 -0.969285 0.342310 255 125 0
-0.067766 -0.926317 0.280310 255 125 0
0.028056 -0.875121 0.395410 255 125 0
-0.061899 -0.937788 0.396310 255 125 0
-0.256014 -0.787885 0.402310 255 125 0
-0.180278 -0.989501 0.340310 255 125 0
-0.141592 -0.913311 0.436310 255 125 0
-0.170616 -1.021003 0.531327 255 125 0
-0.123415 -0.928802 0.338310 255 125 0
-0.235439 -0.931571 0.299296 255 125 0
-0.096301 -0.926386 0.172310 255 125 0
-0.184311 -0.662175 0.386310 255 125 0
-0.185530 -0.956492 0.409309 255 125 0
-0.112561 -0.988360 0.601064 255 125 0
-0.060148 -0.886070 0.312310 255 125 0
-0.069249 -0.909646 0.275312 255 125 0
-0.027984 -0.951132 0.442310 255 125 0
-0.089010 -0.954517 0.356847 255 125 0
-0.054893 -0.890205 0.417876 255 125 0
-0.000854 -0.963032 0.394330 255 125 0
-0.224728 -0.905222 0.384310 255 125 0
-0.082744 -0.857704 0.205310 255 125 0
-0.254756 -0.907018 0.335248 255 125 0
-0.108809 -1.018807 0.394310 255 125 0
-0.169531 -0.881224 0.408310 255 125 0
-0.121279 -0.947659 0.426310 255 125 0
-0.051086 -0.968713 0.546310 255 125 0
0.010203 -0.891773 0.405772 255 125 0
-0.028487 -0.977606 0.402402 255 125 0
-0.241743 -0.836176 0.414460 255 125 0
-0.209675 -0.959539 0.352310 255 125 0
-0.141290 -0.869797 0.408310 255 125 0
0.085367 -0.855597 0.370310 255 125 0
-0.232659 -0.968966 0.378310 255 125 0
0.076084 -0.860795 0.389087 255 125 0
-0.219032 -0.969818 0.333258 255 125 0
-0.335432 -0.815216 0.386310 255 125 0
-0.061395 -0.843840 0.349393 255 125 0
-0.120651 -0.910987 0.387687 255 125 0
-0.085097 -0.955348 0.439710 255 125 0
-0.074607 -0.963712 0.583346 255 125 0
-0.119203 -0.894556 0.416310 255 125 0
-0.039318 -0.932364 0.443366 255 125 0
-0.124044 -0.801898 0.411355 255 125 0
-0.249355 -0.895899 0.350310 255 125 0
-0.079663 -0.862448 0.415442 255 125 0
-0.074844 -0.820534 0.413662 255 125 0
-0.093414 -0.994474 0.575358 255 125 0
-0.231714 -0.923666 0.238310 255 125 0
-0.205045 -0.980970 0.378575 255 125 0
-0.156989 -0.899174 0.386761 255 125 0
-0.148483 -0.974591 0.283280 255 125 0
-0.224561 -0.835738 0.354310 255 125 0
-0.092075 -0.805408 0.474310 255 125 0
-0.155959 -0.846231 0.433391 255 125 0
-0.191366 -0.906995 0.428310 255 125 0
-0.234828 -0.890220 0.202310 255 125 0
-0.165597 -0.978153 0.350310 255 125 0
0.004826 -0.849737 0.407036 255 125 0
-0.242084 -0.879041 0.414310 255 125 0
-0.155874 -0.889188 0.372310 255 125 0
-0.211302 -0.991166 0.418310 255 125 0
-0.064433 -0.882043 0.410310 255 125 0
-0.255553 -0.891530 0.344310 255 125 0
-0.237225 -0.949594 0.350888 255 125 0
-0.206030 -0.960315 0.382310 255 125 0
0.010908 -0.994273 0.372310 255 125 0
-0.105646 -0.785362 0.418310 255 125 0
-0.194409 -1.007889 0.418310 255 125 0
-0.263366 -0.937903 0.389321 255 125 0
-0.136620 -1.030273 0.524310 255 125 0
-0.086297 -0.989853 0.592021 255 125 0
-0.099746 -0.966547 0.439460 255 125 0
-0.280048 -0.939432 0.386310 255 125 0
-0.025426 -0.886245 0.419500 255 125 0
-0.078052 -0.960935 0.332310 255 125 0
-0.244197 -0.924677 0.328310 255 125 0
-0.301188 -0.788781 0.387342 255 125 0
-0.052129 -0.770156 0.410310 255 125 0
-0.139553 -1.017382 0.408310 255 125 0
-0.100489 -1.011374 0.450310 255 125 0
-0.161840 -0.950855 0.408310 255 125 0
-0.178909 -1.009017 0.542310 255 125 0
-0.236979 -0.929199 0.391317 255 125 0
-0.130345 -1.014312 0.576310 255 125 0
-0.174870 -1.031398 0.528310 255 125 0
-0.045262 -0.969950 0.443343 255 125 0
-0.184507 -0.987381 0.332310 255 125 0
-0.051661 -0.817283 0.417604 255 125 0
-0.156157 -0.779829 0.450310 255 125 0
-0.176703 -0.972682 0.383316 255 125 0
-0.129428 -0.971518 0.282310 255 125 0
-0.276370 -0.845173 0.406718 255 125 0
-0.348670 -0.790917 0.376310 255 125 0
-0.096415 -0.936585 0.212310 255 125 0
-0.102568 -0.922111 0.414310 255 125 0
-0.186703 -0.706792 0.406310 255 125 0
-0.089998 -0.891829 0.448310 255 125 0
-0.187146 -0.992954 0.414313 255 125 0
-0.051566 -0.874554 0.417686 255 125 0
-0.066223 -0.977762 0.552310 255 125 0
-0.038606 -0.861676 0.420310 255 125 0
-0.218002 -0.916875 0.163350 255 125 0
-0.154475 -0.983541 0.331215 255 125 0
-0.078135 -0.875041 0.410310 255 125 0
-0.142738 -0.961499 0.400310 255 125 0
0.068675 -0.857174 0.383401 255 125 0
-0.251307 -0.881171 0.301368 255 125 0
-0.115594 -1.012251 0.527939 255 125 0
-0.201870 -0.961199 0.288310 255 125 0
-0.079694 -0.915603 0.226310 255 125 0
-0.181504 -0.668208 0.394310 255 125 0
-0.125845 -0.771891 0.484310 255 125 0
-0.277734 -0.909306 0.382310 255 125 0
-0.182126 -0.786567 0.452310 255 125 0
-0.195564 -0.763212 0.458310 255 125 0
-0.158180 -0.770107 0.411541 255 125 0
-0.190851 -0.779520 0.474285 255 125 0
-0.221718 -0.948801 0.414310 255 125 0
-0.110885 -0.966225 0.294310 255 125 0
-0.046174 -0.863432 0.414310 255 125 0
-0.023082 -0.952173 0.399330 255 125 0
-0.211226 -0.875377 0.440951 255 125 0
-0.110303 -0.833444 0.344666 255 125 0
0.058818 -0.893929 0.393363 255 125 0
-0.128401 -0.952278 0.176310 255 125 0
-0.199435 -0.954573 0.254310 255 125 0
-0.060743 -0.985061 0.543329 255 125 0
-0.252630 -0.925873 0.395434 255 125 0
-0.138579 -1.014570 0.474310 255 125 0
-0.126926 -0.959750 0.226310 255 125 0
-0.108279 -1.006695 0.474310 255 125 0
-0.120748 -0.978780 0.296310 255 125 0
-0.246138 -0.712561 0.409378 255 125 0
-0.130976 -0.974222 0.292310 255 125 0
0.054952 -0.921732 0.411180 255 125 0
-0.242262 -0.944433 0.341930 255 125 0
-0.186019 -0.978034 0.330310 255 125 0
-0.234646 -0.980813 0.370310 255 125 0
0.043460 -0.898843 0.397317 255 125 0
-0.107034 -0.933500 0.344310 255 125 0
-0.138410 -0.936822 0.432310 255 125 0
-0.122119 -0.959748 0.180310 255 125 0
-0.139975 -0.992282 0.340310 255 125 0
-0.070128 -0.884923 0.249289 255 125 0
-0.126492 -0.842272 0.440741 255 125 0
-0.157976 -0.798003 0.346310 255 125 0
-0.179708 -0.977201 0.348310 255 125 0
-0.067368 -0.948894 0.329215 255 125 0
-0.114413 -0.953207 0.170310 255 125 0
-0.315199 -0.763311 0.384310 255 125 0
-0.225270 -0.999162 0.413248 255 125 0
-0.100119 -0.795155 0.506310 255 125 0
-0.148910 -0.928501 0.430310 255 125 0
-0.082915 -0.839266 0.418039 255 125 0
-0.082134 -0.955978 0.340310 255 125 0
-0.203824 -0.979186 0.338310 255 125 0
-0.217162 -0.749390 0.417735 255 125 0
-0.092501 -0.916970 0.418310 255 125 0
-0.096835 -1.000952 0.496310 255 125 0
-0.205338 -0.972729 0.411351 255 125 0
-0.025113 -0.990591 0.399810 255 125 0
-0.226688 -0.931386 0.226310 255 125 0
-0.111795 -0.941495 0.170310 255 125 0
-0.016457 -0.988340 0.389313 255 125 0
-0.176127 -0.729487 0.413576 255 125 0
-0.242159 -0.838132 0.384784 255 125 0
-0.111280 -0.934239 0.420310 255 125 0
-0.069718 -0.964751 0.442310 255 125 0
-0.155603 -0.911892 0.370310 255 125 0
-0.080844 -0.993057 0.404583 255 125 0
-0.192486 -0.767971 0.470310 255 125 0
-0.146786 -0.783836 0.350310 255 125 0
-0.190935 -0.981925 0.379772 255 125 0
-0.073199 -0.933342 0.308310 255 125 0
-0.209732 -1.016778 0.364310 255 125 0
-0.186665 -0.692487 0.403832 255 125 0
-0.079342 -0.803221 0.515154 255 125 0
-0.298069 -0.754868 0.400310 255 125 0
-0.006382 -0.998662 0.381348 255 125 0
-0.095725 -1.014966 0.524310 255 125 0
-0.199595 -0.879894 0.436310 255 125 0
-0.051756 -0.760012 0.404960 255 125 0
-0.085228 -0.932829 0.200310 255 125 0
-0.220706 -0.717967 0.407382 255 125 0
-0.139656 -0.990779 0.589325 255 125 0
-0.033374 -0.942878 0.444310 255 125 0
-0.172139 -0.691485 0.407770 255 125 0
-0.094673 -0.957402 0.262310 255 125 0
-0.197097 -0.972436 0.349321 255 125 0
0.037346 -0.917989 0.412625 255 125 0
-0.138471 -1.004443 0.570310 255 125 0
-0.130480 -0.880272 0.394365 255 125 0
-0.269126 -0.762995 0.408310 255 125 0
-0.049468 -0.960877 0.402082 255 125 0
-0.116648 -1.014072 0.512310 255 125 0
-0.160549 -0.983260 0.290310 255 125 0
-0.116698 -1.017446 0.562310 255 125 0
-0.202572 -0.914021 0.434310 255 125 0
-0.166240 -0.842001 0.432310 255 125 0
-0.140956 -1.016135 0.502310 255 125 0
-0.162858 -0.897927 0.402898 255 125 0
-0.122045 -0.782871 0.494310 255 125 0
-0.076195 -0.932704 0.351310 255 125 0
-0.197278 -0.694321 0.401437 255 125 0
-0.074019 -1.006775 0.548310 255 125 0
-0.157017 -0.966642 0.413484 255 125 0
-0.129142 -1.013461 0.398310 255 125 0
-0.133740 -0.924562 0.426310 255 125 0
-0.112684 -0.998558 0.406651 255 125 0
-0.120150 -0.802815 0.474310 255 125 0
-0.184548 -0.923015 0.404310 255 125 0
0.049650 -0.840863 0.398989 255 125 0
-0.169833 -0.757591 0.412310 255 125 0
-0.356703 -0.789249 0.372310 255 125 0
-0.243453 -0.940415 0.326310 255 125 0
-0.286662 -0.787780 0.391352 255 125 0
-0.337013 -0.832269 0.394310 255 125 0
-0.061698 -0.929652 0.318310 255 125 0
-0.233932 -0.915534 0.230310 255 125 0
-0.168932 -0.705255 0.412310 255 125 0
-0.043409 -0.900825 0.422310 255 125 0
0.104258 -0.872916 0.356310 255 125 0
-0.109697 -0.999192 0.524310 255 125 0
-0.305857 -0.753030 0.387346 255 125 0
-0.113194 -0.943243 0.344676 255 125 0
-0.120406 -0.919455 0.428310 255 125 0
-0.059263 -0.973109 0.396310 255 125 0
-0.170940 -0.845092 0.424310 255 125 0
-0.018631 -0.940851 0.442352 255 125 0
0.090950 -0.896668 0.389439 255 125 0
-0.091770 -0.938643 0.232310 255 125 0
-0.217587 -0.914919 0.453041 255 125 0
-0.153549 -1.017665 0.528310 255 125 0
-0.170750 -0.771523 0.481125 255 125 0
-0.194036 -0.881077 0.427985 255 125 0
-0.243643 -0.700824 0.403323 255 125 0
-0.050190 -0.983513 0.452310 255 125 0
-0.275047 -0.800472 0.391328 255 125 0
-0.056111 -0.930840 0.340310 255 125 0
-0.130120 -1.013253 0.507238 255 125 0
-0.249218 -0.919442 0.432310 255 125 0
-0.199195 -0.871800 0.424310 255 125 0
-0.068737 -0.907709 0.234310 255 125 0
-0.053131 -0.908982 0.322310 255 125 0
-0.017413 -0.935125 0.406310 255 125 0
-0.284460 -0.767801 0.393329 255 125 0
-0.154529 -1.012652 0.452310 255 125 0
-0.253654 -0.868404 0.412310 255 125 0
-0.211785 -0.743334 0.410310 255 125 0
0.035180 -0.908942 0.408310 255 125 0
-0.143909 -0.953071 0.396746 255 125 0
-0.092940 -1.008888 0.400310 255 125 0
-0.058409 -0.791313 0.409357 255 125 0
-0.146942 -0.976963 0.405921 255 125 0
-0.101058 -1.011201 0.538310 255 125 0
-0.151763 -0.984117 0.296310 255 125 0
-0.068109 -0.967139 0.566310 255 125 0
-0.213337 -0.813588 0.350310 255 125 0
-0.238369 -0.849161 0.411400 255 125 0
-0.048637 -0.909936 0.340310 255 125 0
-0.029509 -0.866976 0.393359 255 125 0
-0.235241 -0.882541 0.344334 255 125 0
-0.234069 -0.915505 0.447379 255 125 0
-0.109827 -1.011432 0.578310 255 125 0
-0.164389 -0.731982 0.416855 255 125 0
-0.130217 -0.845569 0.452310 255 125 0
-0.221008 -0.873298 0.345144 255 125 0
-0.212351 -0.893540 0.442310 255 125 0
-0.137043 -0.795717 0.358310 255 125 0
0.092058 -0.881839 0.374310 255 125 0
-0.057927 -0.914096 0.357070 255 125 0
0.099184 -0.848310 0.354310 255 125 0
0.020845 -0.822471 0.410006 255 125 0
0.004524 -1.005069 0.381993 255 125 0
-0.088662 -1.010599 0.552310 255 125 0
-0.158387 -0.982708 0.356785 255 125 0
0.008616 -0.860765 0.393316 255 125 0
-0.314901 -0.689766 0.163338 255 125 0
-0.193053 -0.799497 0.439603 255 125 0
-0.211943 -0.865001 0.400310 255 125 0
-0.078282 -0.995646 0.552310 255 125 0
0.019446 -0.906007 0.403370 255 125 0
0.010647 -0.822348 0.413890 255 125 0
0.039500 -0.869375 0.393394 255 125 0
-0.191834 -0.861098 0.429315 255 125 0
-0.188404 -0.979635 0.306310 255 125 0
-0.094700 -0.808136 0.403410 255 125 0
-0.097005 -0.934416 0.423837 255 125 0
-0.198742 -0.773752 0.408310 255 125 0
-0.143950 -1.006224 0.560310 255 125 0
-0.213409 -0.991461 0.376034 255 125 0
-0.140062 -1.011927 0.580310 255 125 0
-0.168471 -1.010908 0.558310 255 125 0
-0.188902 -0.991598 0.560310 255 125 0
-0.150189 -1.001854 0.590310 255 125 0
-0.147016 -0.778614 0.418310 255 125 0
-0.193484 -0.984294 0.330310 255 125 0
-0.231272 -0.922234 0.222310 255 125 0
-0.142679 -1.014623 0.564310 255 125 0
-0.202796 -0.989626 0.369339 255 125 0
-0.209093 -0.942297 0.226310 255 125 0
-0.023641 -1.022142 0.396310 255 125 0
-0.037646 -0.760967 0.402730 255 125 0
-0.075038 -0.914548 0.210310 255 125 0
-0.215328 -0.760004 0.415484 255 125 0
-0.152891 -1.010458 0.406310 255 125 0
-0.034786 -0.788156 0.414310 255 125 0
-0.140733 -0.890362 0.364310 255 125 0
-0.083358 -0.908690 0.430935 255 125 0
-0.231942 -0.934360 0.396952 255 125 0
0.006612 -0.831714 0.411969 255 125 0
-0.238347 -0.906775 0.394310 255 125 0
-0.019906 -1.014189 0.394560 255 125 0
-0.218128 -0.941385 0.260310 255 125 0
-0.264380 -0.786381 0.406310 255 125 0
-0.116738 -0.959913 0.244310 255 125 0
-0.086470 -1.004129 0.562310 255 125 0
-0.196992 -0.971942 0.288310 255 125 0
-0.215093 -0.951287 0.284310 255 125 0
0.071504 -0.843463 0.390310 255 125 0
-0.172207 -0.801884 0.460310 255 125 0
-0.251165 -0.928602 0.340310 255 125 0
-0.195450 -0.921669 0.340310 255 125 0
-0.124400 -0.890149 0.396310 255 125 0
-0.049961 -0.992053 0.534310 255 125 0
-0.205906 -0.999189 0.366310 255 125 0
-0.201001 -0.808032 0.357085 255 125 0
-0.100554 -0.951110 0.250310 255 125 0
-0.067019 -0.867181 0.240310 255 125 0
-0.110923 -1.005065 0.534310 255 125 0
-0.163721 -0.887519 0.414310 255 125 0
-0.073955 -0.763473 0.406310 255 125 0
-0.137674 -1.029551 0.544310 255 125 0
-0.227661 -0.935269 0.250310 255 125 0
-0.228649 -0.861151 0.344310 255 125 0
-0.327940 -0.746290 0.374310 255 125 0
-0.154754 -1.013715 0.564310 255 125 0
-0.056414 -0.983938 0.397340 255 125 0
-0.172092 -0.931751 0.364310 255 125 0
-0.121267 -0.851560 0.444310 255 125 0
-0.213239 -1.009898 0.412820 255 125 0
-0.103443 -0.801172 0.490310 255 125 0
-0.234597 -0.956286 0.328310 255 125 0
0.062609 -0.853840 0.394310 255 125 0
-0.148264 -0.781169 0.478310 255 125 0
-0.095417 -0.965424 0.401334 255 125 0
-0.116527 -1.016640 0.500310 255 125 0
-0.086243 -0.999218 0.494310 255 125 0
-0.228314 -0.941264 0.268310 255 125 0
-0.160310 -0.828223 0.440310 255 125 0
-0.005419 -0.820978 0.417799 255 125 0
-0.230543 -0.740412 0.414310 255 125 0
-0.149918 -0.865906 0.344310 255 125 0
-0.095294 -1.003322 0.512310 255 125 0
-0.160111 -1.010056 0.480310 255 125 0
-0.237760 -0.898363 0.228310 255 125 0
-0.117145 -1.019547 0.468310 255 125 0
-0.103585 -1.014804 0.476310 255 125 0
-0.312850 -0.747453 0.392364 255 125 0
-0.129043 -0.988946 0.351085 255 125 0
-0.270652 -0.924087 0.392064 255 125 0
-0.018404 -0.824353 0.415242 255 125 0
-0.158941 -0.946837 0.450310 255 125 0
-0.123212 -0.797986 0.420479 255 125 0
0.108169 -0.834899 0.353485 255 125 0
-0.070456 -0.896086 0.252310 255 125 0
-0.145611 -0.768688 0.416951 255 125 0
-0.007030 -0.947407 0.404310 255 125 0
-0.317084 -0.805850 0.389981 255 125 0
-0.122956 -1.010686 0.406310 255 125 0
-0.069205 -0.866716 0.226310 255 125 0
-0.186646 -0.788591 0.476282 255 125 0
-0.239560 -0.720093 0.411385 255 125 0
-0.026428 -0.871719 0.411422 255 125 0
-0.195548 -0.811235 0.348387 255 125 0
-0.191351 -0.983881 0.413336 255 125 0
-0.131271 -0.883996 0.344310 255 125 0
0.002230 -0.986178 0.384310 255 125 0
-0.196360 -0.911252 0.343777 255 125 0
0.034095 -0.894808 0.404932 255 125 0
-0.079864 -0.747957 0.412310 255 125 0
-0.150128 -0.726835 0.416310 255 125 0
-0.151886 -0.980980 0.278310 255 125 0
-0.096863 -1.020323 0.404053 255 125 0
-0.196729 -0.941844 0.413071 255 125 0
-0.177375 -0.954136 0.456310 255 125 0
-0.179652 -0.794168 0.353174 255 125 0
-0.131076 -0.902314 0.366310 255 125 0
-0.036265 -1.004577 0.402045 255 125 0
-0.114972 -0.970844 0.356310 255 125 0
-0.033354 -0.990883 0.395360 255 125 0
-0.370140 -0.798661 0.366310 255 125 0
-0.130943 -1.026746 0.404310 255 125 0
-0.206866 -0.951058 0.250310 255 125 0
-0.160442 -0.780747 0.466310 255 125 0
-0.157328 -0.910392 0.402310 255 125 0
-0.177989 -0.786345 0.480310 255 125 0
-0.057756 -0.932534 0.350849 255 125 0
-0.109452 -0.925636 0.337315 255 125 0
-0.292777 -0.806926 0.385341 255 125 0
-0.146760 -0.889528 0.378310 255 125 0
-0.227954 -0.896358 0.181116 255 125 0
-0.352004 -0.806606 0.382725 255 125 0
-0.135317 -0.874173 0.358310 255 125 0
-0.133491 -0.865319 0.406310 255 125 0
-0.051904 -0.831544 0.420310 255 125 0
-0.195551 -0.955541 0.236310 255 125 0
-0.027307 -0.846997 0.407430 255 125 0
-0.069236 -0.895335 0.222310 255 125 0
-0.327326 -0.854033 0.404310 255 125 0
-0.158887 -0.823117 0.450310 255 125 0
-0.209374 -0.982095 0.413383 255 125 0
-0.091996 -0.964105 0.336310 255 125 0
-0.064099 -0.916873 0.278310 255 125 0
-0.058009 -0.909989 0.334310 255 125 0
-0.205763 -0.965108 0.274310 255 125 0
-0.112529 -0.978590 0.316310 255 125 0
-0.171061 -0.953434 0.342310 255 125 0
-0.079805 -0.776541 0.409385 255 125 0
-0.080353 -0.937955 0.286310 255 125 0
0.106469 -0.862135 0.348310 255 125 0
-0.235363 -0.892739 0.215693 255 125 0
-0.078798 -0.872855 0.214310 255 125 0
-0.084790 -0.809609 0.492310 255 125 0
-0.154134 -1.020417 0.492130 255 125 0
0.065764 -0.870868 0.394011 255 125 0
0.053242 -0.900922 0.395335 255 125 0
-0.225245 -0.917381 0.438310 255 125 0
-0.243288 -0.881922 0.394310 255 125 0
-0.226906 -0.978369 0.422310 255 125 0
0.000073 -1.016391 0.380007 255 125 0
0.093482 -0.833822 0.374310 255 125 0
-0.000873 -0.866927 0.401514 255 125 0
-0.098445 -0.970047 0.356310 255 125 0
-0.110544 -0.772053 0.414310 255 125 0
-0.017629 -0.955376 0.447091 255 125 0
-0.074050 -0.932232 0.404310 255 125 0
-0.190077 -0.747020 0.412310 255 125 0
0.012371 -0.881576 0.402310 255 125 0
-0.276521 -0.922839 0.383421 255 125 0
-0.162889 -0.791596 0.358310 255 125 0
-0.247394 -0.882002 0.401986 255 125 0
0.061360 -0.862730 0.386310 255 125 0
-0.085156 -1.013340 0.530310 255 125 0
-0.040339 -0.869833 0.388310 255 125 0
-0.090479 -1.009528 0.500310 255 125 0
-0.208259 -0.726747 0.413487 255 125 0
-0.211509 -0.953661 0.238310 255 125 0
-0.077302 -0.901799 0.178310 255 125 0
-0.291915 -0.919568 0.378310 255 125 0
-0.084935 -0.951293 0.274310 255 125 0
-0.281851 -0.861341 0.404310 255 125 0
-0.280897 -0.895329 0.391445 255 125 0
-0.096939 -0.943724 0.192310 255 125 0
-0.035502 -0.832986 0.412310 255 125 0
-0.074064 -0.999636 0.514310 255 125 0
-0.225835 -0.900898 0.164310 255 125 0
-0.254127 -0.921465 0.344310 255 125 0
-0.175793 -0.987640 0.322310 255 125 0
-0.194539 -0.970021 0.312310 255 125 0
-0.123127 -1.018830 0.545957 255 125 0
-0.032447 -0.948138 0.399314 255 125 0
-0.195950 -0.980859 0.354310 255 125 0
-0.140251 -0.983960 0.302310 255 125 0
0.054731 -0.907372 0.406310 255 125 0
-0.220248 -0.956297 0.378310 255 125 0
-0.155749 -1.018393 0.468310 255 125 0
-0.170797 -0.742888 0.407324 255 125 0
-0.097019 -0.891474 0.440310 255 125 0
-0.003559 -0.884759 0.398310 255 125 0
-0.139193 -1.017459 0.533090 255 125 0
-0.170634 -0.918766 0.438310 255 125 0
-0.140582 -0.937422 0.449146 255 125 0
-0.066456 -0.928640 0.292310 255 125 0
-0.183829 -0.717627 0.412377 255 125 0
-0.172573 -1.020587 0.503247 255 125 0
-0.090470 -0.971009 0.324310 255 125 0
-0.269210 -0.849967 0.400310 255 125 0
0.069015 -0.894052 0.389441 255 125 0
-0.257006 -0.898361 0.323670 255 125 0
-0.225166 -0.892861 0.397303 255 125 0
-0.058918 -0.993629 0.552310 255 125 0
-0.222017 -0.958961 0.324310 255 125 0
-0.281205 -0.901397 0.382310 255 125 0
-0.321800 -0.741462 0.385047 255 125 0
-0.115472 -1.002054 0.593833 255 125 0
-0.196232 -0.949126 0.212310 255 125 0
-0.182572 -0.971434 0.295290 255 125 0
-0.201309 -0.785475 0.474310 255 125 0
-0.100838 -0.942827 0.216310 255 125 0
-0.189932 -0.761312 0.412310 255 125 0
-0.071674 -0.878459 0.240310 255 125 0
-0.074777 -0.945274 0.299232 255 125 0
-0.219345 -0.865474 0.451386 255 125 0
-0.214992 -0.835377 0.414310 255 125 0
-0.219440 -0.889989 0.338310 255 125 0
-0.077706 -0.939816 0.434310 255 125 0
-0.054628 -0.965914 0.443350 255 125 0
-0.210093 -0.716133 0.412247 255 125 0
0.007783 -0.850365 0.398310 255 125 0
-0.088625 -0.966867 0.408310 255 125 0
-0.098668 -0.942240 0.430363 255 125 0
-0.066392 -0.982784 0.534310 255 125 0
-0.138238 -0.897536 0.380310 255 125 0
-0.315601 -0.846972 0.402310 255 125 0
-0.089776 -1.007516 0.490310 255 125 0
-0.143521 -1.018584 0.549312 255 125 0
-0.076248 -1.000292 0.564310 255 125 0
-0.254454 -0.838263 0.382310 255 125 0
-0.266182 -0.893439 0.390310 255 125 0
-0.219489 -0.991205 0.364310 255 125 0
-0.074655 -0.908496 0.200310 255 125 0
-0.200680 -0.748805 0.407387 255 125 0
-0.184639 -0.870806 0.414310 255 125 0
-0.115198 -0.914191 0.374330 255 125 0
-0.143446 -0.979750 0.601304 255 125 0
-0.138126 -0.733475 0.424419 255 125 0
-0.110237 -1.006286 0.562310 255 125 0
-0.314624 -0.779791 0.390310 255 125 0
-0.166921 -0.974761 0.291291 255 125 0
-0.222756 -0.900761 0.344310 255 125 0
-0.217615 -0.982388 0.369337 255 125 0
-0.144069 -0.896106 0.358310 255 125 0
-0.200906 -0.865304 0.363327 255 125 0
-0.214865 -0.998308 0.362310 255 125 0
-0.095512 -0.908153 0.339521 255 125 0
-0.095205 -0.998183 0.556310 255 125 0
-0.188772 -0.769737 0.411060 255 125 0
-0.060383 -0.921753 0.334310 255 125 0
-0.159436 -0.939548 0.339455 255 125 0
-0.098546 -0.932044 0.179300 255 125 0
-0.020246 -0.977313 0.393358 255 125 0
-0.070907 -0.999259 0.526310 255 125 0
-0.191644 -0.975640 0.373403 255 125 0
-0.277467 -0.773376 0.395319 255 125 0
-0.039885 -1.011986 0.404454 255 125 0
-0.257695 -0.881857 0.350310 255 125 0
-0.172436 -0.942987 0.392310 255 125 0
-0.168988 -0.897909 0.410310 255 125 0
-0.118033 -0.889052 0.409034 255 125 0
-0.210328 -0.996204 0.409424 255 125 0
-0.225435 -0.956189 0.336310 255 125 0
-0.109622 -0.907197 0.339369 255 125 0
-0.086933 -0.992841 0.566310 255 125 0
-0.087999 -0.949759 0.256310 255 125 0
-0.070363 -0.903275 0.218310 255 125 0
-0.060838 -0.978908 0.560310 255 125 0
-0.093697 -0.803421 0.496310 255 125 0
-0.350715 -0.747583 0.358310 255 125 0
-0.151725 -0.787835 0.356754 255 125 0
-0.194487 -0.866668 0.394310 255 125 0
-0.104386 -0.863328 0.407376 255 125 0
-0.151734 -0.908469 0.418310 255 125 0
-0.121256 -1.010031 0.518310 255 125 0
-0.162679 -0.752792 0.409332 255 125 0
-0.100549 -1.011360 0.566310 255 125 0
-0.248405 -0.910414 0.348310 255 125 0
0.013871 -0.870061 0.394310 255 125 0
-0.236778 -0.947644 0.402310 255 125 0
-0.074002 -0.898412 0.236310 255 125 0
-0.176032 -0.786758 0.461244 255 125 0
-0.317207 -0.816046 0.391785 255 125 0
-0.190946 -0.722247 0.407420 255 125 0
-0.096542 -0.961094 0.273183 255 125 0
-0.218692 -1.006695 0.401319 255 125 0
0.036372 -0.835995 0.403638 255 125 0
-0.133828 -1.011459 0.458310 255 125 0
-0.167242 -1.033988 0.513210 255 125 0
-0.157357 -0.977865 0.310310 255 125 0
-0.111581 -0.887554 0.384310 255 125 0
-0.048214 -0.985681 0.544310 255 125 0
-0.077201 -0.922267 0.214310 255 125 0
-0.095377 -0.801703 0.520310 255 125 0
-0.119554 -0.982785 0.599090 255 125 0
-0.192278 -0.930522 0.409506 255 125 0
-0.189244 -0.906631 0.344841 255 125 0
-0.034346 -0.929332 0.450310 255 125 0
-0.093451 -0.787953 0.408310 255 125 0
-0.227537 -0.942493 0.308310 255 125 0
-0.122219 -0.976084 0.349364 255 125 0
-0.047087 -0.795764 0.412524 255 125 0
-0.131279 -0.890326 0.358310 255 125 0
-0.128093 -0.869041 0.344310 255 125 0
-0.052030 -0.847875 0.422615 255 125 0
-0.094130 -0.906401 0.420310 255 125 0
-0.099869 -0.976745 0.408634 255 125 0
-0.190887 -0.798925 0.406310 255 125 0
-0.209063 -0.874816 0.402310 255 125 0
-0.217804 -0.867846 0.337311 255 125 0
-0.380429 -0.810786 0.372310 255 125 0
-0.201285 -0.881580 0.402310 255 125 0
-0.008386 -0.969609 0.441386 255 125 0
-0.115717 -1.022449 0.403467 255 125 0
-0.154601 -1.032234 0.542310 255 125 0
-0.176327 -0.903579 0.408310 255 125 0
-0.245513 -0.921252 0.394538 255 125 0
-0.125755 -0.781087 0.485359 255 125 0
0.061341 -0.814723 0.398960 255 125 0
-0.126190 -0.911855 0.414310 255 125 0
-0.210111 -0.889369 0.344310 255 125 0
-0.010881 -0.981348 0.399709 255 125 0
-0.190142 -0.785804 0.413783 255 125 0
-0.073015 -0.912935 0.352310 255 125 0
-0.082690 -0.931324 0.212310 255 125 0
0.040011 -0.924690 0.407311 255 125 0
0.015562 -0.837707 0.407623 255 125 0
-0.109745 -0.917394 0.339476 255 125 0
-0.078973 -0.878442 0.378310 255 125 0
-0.118995 -1.018632 0.484310 255 125 0
-0.100285 -1.003237 0.548310 255 125 0
-0.069957 -0.903360 0.439252 255 125 0
-0.013484 -0.980794 0.440310 255 125 0
-0.130460 -0.976377 0.400581 255 125 0
-0.173549 -0.772974 0.406310 255 125 0
-0.161340 -0.910023 0.426310 255 125 0
