ply
format ascii 1.0
element vertex 1253
property float x
property float y
property float z
property uchar red
property uchar green
property uchar blue
end_header
-0.210477 0.193022 -0.084067 255 0 255
-0.225115 0.186366 -0.054067 255 0 255
-0.215664 0.181947 -0.066067 255 0 255
-0.229295 0.160612 -0.110067 255 0 255
-0.234098 0.174177 -0.118068 255 0 255
-0.216134 0.167636 -0.050991 255 0 255
-0.201374 0.193769 -0.094067 255 0 255
-0.182500 0.144822 -0.040067 255 0 255
-0.209334 0.153573 -0.043633 255 0 255
-0.216845 0.139979 -0.078067 255 0 255
-0.210312 0.166185 -0.043474 255 0 255
-0.235812 0.170481 -0.048068 255 0 255
-0.214209 0.191891 -0.047024 255 0 255
-0.228759 0.162539 -0.094067 255 0 255
-0.191863 0.140973 -0.051040 255 0 255
-0.226386 0.172253 -0.094067 255 0 255
-0.175157 0.183173 -0.052067 255 0 255
-0.203093 0.129000 -0.114067 255 0 255
-0.231708 0.144723 -0.076068 255 0 255
-0.203772 0.184149 -0.052067 255 0 255
-0.229329 0.160620 -0.080067 255 0 255
-0.233343 0.163682 -0.132068 255 0 255
-0.193846 0.186814 -0.134067 255 0 255
-0.223903 0.173696 -0.108067 255 0 255
-0.204094 0.187308 -0.110067 255 0 255
-0.213451 0.137059 -0.096067 255 0 255
-0.173935 0.171544 -0.043157 255 0 255
-0.203028 0.154062 -0.051036 255 0 255
-0.208451 0.186333 -0.098067 255 0 255
-0.231049 0.165171 -0.040067 255 0 255
-0.202129 0.186818 -0.082067 255 0 255
-0.224934 0.161585 -0.138067 255 0 255
-0.211753 0.143871 -0.043458 255 0 255
-0.236687 0.162454 -0.074067 255 0 255
-0.193637 0.191726 -0.120067 255 0 255
-0.198807 0.129659 -0.076068 255 0 255
-0.226413 0.172261 -0.078067 255 0 255
-0.235932 0.151960 -0.086067 255 0 255
-0.226385 0.172253 -0.066067 255 0 255
-0.212558 0.129643 -0.126067 255 0 255
-0.210778 0.135382 -0.082067 255 0 255
-0.185986 0.180732 -0.040067 255 0 255
-0.226056 0.136107 -0.114067 255 0 255
-0.209350 0.178312 -0.043970 255 0 255
-0.227804 0.149933 -0.128067 255 0 255
-0.205313 0.128365 -0.106067 255 0 255
-0.236104 0.153676 -0.048068 255 0 255
-0.214197 0.191937 -0.076068 255 0 255
-0.195039 0.186106 -0.090068 255 0 255
-0.174892 0.151170 -0.048977 255 0 255
-0.208464 0.186337 -0.070067 255 0 255
-0.233520 0.176094 -0.060067 255 0 255
-0.201538 0.193110 -0.058068 255 0 255
-0.193092 0.185649 -0.062068 255 0 255
-0.236330 0.168549 -0.086067 255 0 255
-0.201314 0.194005 -0.124067 255 0 255
-0.235081 0.151747 -0.108067 255 0 255
-0.215419 0.137434 -0.104068 255 0 255
-0.234299 0.172166 -0.128067 255 0 255
-0.189918 0.132242 -0.085364 255 0 255
-0.230137 0.181434 -0.116067 255 0 255
-0.225169 0.186379 -0.100067 255 0 255
-0.229777 0.158671 -0.070067 255 0 255
-0.224618 0.174942 -0.122068 255 0 255
-0.186075 0.184876 -0.096067 255 0 255
-0.234683 0.172261 -0.102067 255 0 255
-0.189949 0.181720 -0.053042 255 0 255
-0.211259 0.129319 -0.054855 255 0 255
-0.173929 0.163297 -0.051049 255 0 255
-0.215394 0.137536 -0.122068 255 0 255
-0.219026 0.139501 -0.039900 255 0 255
-0.232299 0.177850 -0.090068 255 0 255
-0.217086 0.139017 -0.059093 255 0 255
-0.201339 0.193908 -0.086067 255 0 255
-0.215400 0.137511 -0.114067 255 0 255
-0.236796 0.159169 -0.104068 255 0 255
-0.236655 0.166569 -0.116067 255 0 255
-0.201109 0.186563 -0.065059 255 0 255
-0.189880 0.190263 -0.074067 255 0 255
-0.209882 0.192712 -0.092067 255 0 255
-0.217838 0.144263 -0.050067 255 0 255
-0.218084 0.184612 -0.134999 255 0 255
-0.200393 0.131562 -0.054067 255 0 255
-0.222934 0.181699 -0.039994 255 0 255
-0.188330 0.189561 -0.104068 255 0 255
-0.174634 0.143935 -0.052067 255 0 255
-0.220504 0.174910 -0.053015 255 0 255
-0.204474 0.139994 -0.043777 255 0 255
-0.226002 0.185926 -0.084067 255 0 255
-0.224094 0.135712 -0.062068 255 0 255
-0.204469 0.131748 -0.132942 255 0 255
-0.228879 0.182653 -0.074067 255 0 255
-0.211466 0.128488 -0.068067 255 0 255
-0.232761 0.144985 -0.084067 255 0 255
-0.235259 0.149732 -0.068067 255 0 255
-0.228267 0.176845 -0.132527 255 0 255
-0.218982 0.131410 -0.066067 255 0 255
-0.211373 0.128862 -0.114067 255 0 255
-0.194293 0.147762 -0.043631 255 0 255
-0.219285 0.179796 -0.108067 255 0 255
-0.182375 0.186015 -0.126067 255 0 255
-0.196977 0.186600 -0.114067 255 0 255
-0.217096 0.155509 -0.044007 255 0 255
-0.189628 0.133401 -0.050067 255 0 255
-0.215660 0.186070 -0.040366 255 0 255
-0.218777 0.181836 -0.124067 255 0 255
-0.195079 0.172693 -0.044068 255 0 255
-0.219112 0.130888 -0.090068 255 0 255
-0.220894 0.177068 -0.138067 255 0 255
-0.226375 0.143092 -0.042067 255 0 255
-0.199088 0.132468 -0.120067 255 0 255
-0.211512 0.136570 -0.074067 255 0 255
-0.221548 0.142190 -0.066067 255 0 255
-0.217657 0.182444 -0.058068 255 0 255
-0.228766 0.154296 -0.064067 255 0 255
-0.182952 0.160179 -0.044068 255 0 255
-0.225410 0.159643 -0.050067 255 0 255
-0.206214 0.133021 -0.092067 255 0 255
-0.229213 0.139979 -0.099199 255 0 255
-0.200866 0.187537 -0.098067 255 0 255
-0.227299 0.180726 -0.046573 255 0 255
-0.212008 0.192448 -0.104068 255 0 255
-0.229965 0.161764 -0.118068 255 0 255
-0.220455 0.189326 -0.092067 255 0 255
-0.215670 0.181950 -0.084067 255 0 255
-0.213384 0.129059 -0.104068 255 0 255
-0.205195 0.128837 -0.082067 255 0 255
-0.192457 0.130324 -0.098067 255 0 255
-0.236850 0.156312 -0.122068 255 0 255
-0.214204 0.183644 -0.113063 255 0 255
-0.209884 0.192703 -0.060067 255 0 255
-0.229959 0.153523 -0.114067 255 0 255
-0.205503 0.193740 -0.118068 255 0 255
-0.235772 0.151921 -0.096067 255 0 255
-0.218752 0.190205 -0.120067 255 0 255
-0.198895 0.187171 -0.128067 255 0 255
-0.223896 0.169572 -0.043153 255 0 255
-0.175420 0.178097 -0.046067 255 0 255
-0.198112 0.130163 -0.062068 255 0 255
-0.231433 0.147608 -0.122068 255 0 255
-0.205469 0.164977 -0.050067 255 0 255
-0.199261 0.193972 -0.072067 255 0 255
-0.229814 0.158680 -0.088067 255 0 255
-0.199157 0.169588 -0.051030 255 0 255
-0.197189 0.181463 -0.050067 255 0 255
-0.191145 0.185189 -0.080067 255 0 255
-0.229958 0.145260 -0.108067 255 0 255
-0.188481 0.162803 -0.051039 255 0 255
-0.185867 0.149784 -0.044068 255 0 255
-0.216373 0.183210 -0.100067 255 0 255
-0.203023 0.145816 -0.051018 255 0 255
-0.198758 0.129857 -0.046067 255 0 255
-0.189801 0.190578 -0.088067 255 0 255
-0.186089 0.184880 -0.132068 255 0 255
-0.196223 0.131753 -0.129488 255 0 255
-0.188377 0.175144 -0.044068 255 0 255
-0.229965 0.161764 -0.102067 255 0 255
-0.224853 0.149198 -0.053005 255 0 255
-0.207635 0.193454 -0.110067 255 0 255
-0.197361 0.140282 -0.044068 255 0 255
-0.171505 0.164754 -0.043172 255 0 255
-0.188049 0.189338 -0.058068 255 0 255
-0.212801 0.191540 -0.130067 255 0 255
-0.205963 0.191896 -0.045352 255 0 255
-0.215401 0.137510 -0.130067 255 0 255
-0.237475 0.164712 -0.052188 255 0 255
-0.217355 0.190614 -0.108067 255 0 255
-0.213239 0.183405 -0.128067 255 0 255
-0.224781 0.184221 -0.128067 255 0 255
-0.234958 0.150006 -0.054067 255 0 255
-0.210078 0.134053 -0.060067 255 0 255
-0.221961 0.177334 -0.093068 255 0 255
-0.221043 0.189279 -0.060067 255 0 255
-0.229787 0.158673 -0.128067 255 0 255
-0.228754 0.154293 -0.076068 255 0 255
-0.195988 0.132698 -0.090068 255 0 255
-0.195305 0.156259 -0.050067 255 0 255
-0.188982 0.132010 -0.118068 255 0 255
-0.206410 0.132232 -0.042780 255 0 255
-0.193703 0.191464 -0.128067 255 0 255
-0.228914 0.182514 -0.058068 255 0 255
-0.236832 0.164552 -0.092067 255 0 255
-0.185884 0.184829 -0.110067 255 0 255
-0.197463 0.192919 -0.100067 255 0 255
-0.236657 0.164508 -0.100067 255 0 255
-0.205926 0.134172 -0.050946 255 0 255
-0.177322 0.157959 -0.048889 255 0 255
-0.198982 0.128954 -0.108067 255 0 255
-0.205226 0.186584 -0.126067 255 0 255
-0.205776 0.192645 -0.130067 255 0 255
-0.232598 0.176006 -0.046067 255 0 255
-0.210832 0.184865 -0.054067 255 0 255
-0.209591 0.185610 -0.084067 255 0 255
-0.223939 0.173705 -0.072067 255 0 255
-0.195489 0.192570 -0.108067 255 0 255
-0.200793 0.187829 -0.042067 255 0 255
-0.205215 0.186627 -0.076068 255 0 255
-0.221671 0.131914 -0.052067 255 0 255
-0.232290 0.177239 -0.076068 255 0 255
-0.180545 0.186365 -0.050067 255 0 255
-0.182404 0.186023 -0.082067 255 0 255
-0.227043 0.140413 -0.074067 255 0 255
-0.236268 0.153018 -0.060067 255 0 255
-0.226398 0.172257 -0.058068 255 0 255
-0.221099 0.189058 -0.114067 255 0 255
-0.216997 0.131103 -0.074067 255 0 255
-0.229679 0.142156 -0.058068 255 0 255
-0.187970 0.152370 -0.050067 255 0 255
-0.192863 0.186568 -0.069048 255 0 255
-0.172468 0.152627 -0.043154 255 0 255
-0.229952 0.145285 -0.132068 255 0 255
-0.203073 0.129079 -0.100067 255 0 255
-0.178871 0.139794 -0.048068 255 0 255
-0.229702 0.146284 -0.097012 255 0 255
-0.207692 0.193227 -0.098067 255 0 255
-0.217112 0.180248 -0.042548 255 0 255
-0.237187 0.158457 -0.128067 255 0 255
-0.223675 0.153924 -0.044068 255 0 255
-0.228792 0.183004 -0.104068 255 0 255
-0.226794 0.149682 -0.059040 255 0 255
-0.204481 0.162669 -0.044068 255 0 255
-0.200673 0.176149 -0.050067 255 0 255
-0.195494 0.192551 -0.090068 255 0 255
-0.193626 0.191776 -0.060067 255 0 255
-0.234383 0.174248 -0.084067 255 0 255
-0.206919 0.171523 -0.043981 255 0 255
-0.196728 0.162798 -0.044110 255 0 255
-0.235032 0.172348 -0.112067 255 0 255
-0.221003 0.177095 -0.066067 255 0 255
-0.222419 0.134162 -0.122063 255 0 255
-0.203020 0.129294 -0.088067 255 0 255
-0.168296 0.166015 -0.050067 255 0 255
-0.199475 0.193115 -0.080067 255 0 255
-0.225910 0.174196 -0.114067 255 0 255
-0.186546 0.170565 -0.048941 255 0 255
-0.227786 0.166419 -0.108067 255 0 255
-0.228763 0.162541 -0.056067 255 0 255
-0.213704 0.160847 -0.044515 255 0 255
-0.213380 0.129079 -0.062068 255 0 255
-0.208121 0.133636 -0.128067 255 0 255
-0.229128 0.148585 -0.044068 255 0 255
-0.222638 0.134217 -0.086067 255 0 255
-0.214972 0.130963 -0.096067 255 0 255
-0.182192 0.183908 -0.070067 255 0 255
-0.206171 0.133191 -0.076068 255 0 255
-0.210519 0.193032 -0.052067 255 0 255
-0.197299 0.193574 -0.052067 255 0 255
-0.227413 0.138929 -0.048068 255 0 255
-0.216219 0.134228 -0.044068 255 0 255
-0.216503 0.167728 -0.044068 255 0 255
-0.207150 0.187136 -0.104068 255 0 255
-0.234619 0.149572 -0.080067 255 0 255
-0.180362 0.183452 -0.098067 255 0 255
-0.208127 0.133610 -0.104068 255 0 255
-0.212055 0.192262 -0.066067 255 0 255
-0.208345 0.124470 -0.052081 255 0 255
-0.208110 0.141947 -0.050067 255 0 255
-0.207897 0.180011 -0.050067 255 0 255
-0.227812 0.166426 -0.132068 255 0 255
-0.214439 0.182702 -0.072067 255 0 255
-0.213449 0.153605 -0.050067 255 0 255
-0.195485 0.134711 -0.052067 255 0 255
-0.222202 0.176370 -0.080067 255 0 255
-0.207414 0.186075 -0.115106 255 0 255
-0.188471 0.146311 -0.051039 255 0 255
-0.189194 0.135141 -0.112067 255 0 255
-0.192419 0.167908 -0.050067 255 0 255
-0.203323 0.128077 -0.066067 255 0 255
-0.218515 0.162047 -0.050067 255 0 255
-0.237119 0.157874 -0.090068 255 0 255
-0.217086 0.139017 -0.069066 255 0 255
-0.202102 0.186811 -0.058068 255 0 255
-0.194798 0.178806 -0.044001 255 0 255
-0.182269 0.183927 -0.062068 255 0 255
-0.184616 0.186573 -0.043802 255 0 255
-0.213291 0.129437 -0.082067 255 0 255
-0.188284 0.188397 -0.120067 255 0 255
-0.227727 0.160221 -0.042067 255 0 255
-0.225958 0.174208 -0.088067 255 0 255
-0.229133 0.183244 -0.068067 255 0 255
-0.222445 0.175394 -0.042575 255 0 255
-0.212741 0.172974 -0.048858 255 0 255
-0.230327 0.156747 -0.096067 255 0 255
-0.232164 0.144677 -0.070067 255 0 255
-0.221956 0.169088 -0.048823 255 0 255
-0.228736 0.183226 -0.110067 255 0 255
-0.217086 0.139017 -0.052958 255 0 255
-0.225924 0.174199 -0.102067 255 0 255
-0.227822 0.166428 -0.080067 255 0 255
-0.197201 0.144365 -0.051049 255 0 255
-0.215075 0.148822 -0.044068 255 0 255
-0.205322 0.128330 -0.120067 255 0 255
-0.185552 0.133216 -0.045079 255 0 255
-0.212079 0.183901 -0.136068 255 0 255
-0.220309 0.189290 -0.102067 255 0 255
0.402472 0.025768 -0.100067 0 255 255
0.484384 0.050692 0.256667 0 255 255
0.518482 0.195722 0.049933 0 255 255
0.488704 -0.109100 0.077933 0 255 255
0.556039 -0.108338 -0.126067 0 255 255
0.562876 0.191898 -0.137060 0 255 255
0.413272 0.185912 -0.074067 0 255 255
0.451777 0.048516 0.053933 0 255 255
0.412692 -0.104576 -0.042497 0 255 255
0.479521 0.171730 0.183933 0 255 255
0.473302 -0.068157 0.201813 0 255 255
0.531535 -0.107411 -0.021131 0 255 255
0.438462 0.142530 0.015933 0 255 255
0.450041 -0.103582 -0.137062 0 255 255
0.510723 0.197671 -0.050067 0 255 255
0.429059 -0.044759 0.033933 0 255 255
0.475076 0.195238 -0.136950 0 255 255
0.425651 0.100377 -0.060067 0 255 255
0.502496 0.115070 0.077933 0 255 255
0.498882 -0.018882 0.077933 0 255 255
0.431991 0.018408 -0.022067 0 255 255
0.400748 -0.053275 -0.102067 0 255 255
0.410111 0.141354 -0.137025 0 255 255
0.473662 0.185285 0.109933 0 255 255
0.487480 0.120980 0.235932 0 255 255
0.480678 -0.104709 -0.072067 0 255 255
0.461185 -0.104300 0.009933 0 255 255
0.464235 -0.082387 0.135933 0 255 255
0.449549 0.200329 -0.018067 0 255 255
0.483454 -0.015035 0.241933 0 255 255
0.453730 0.200560 0.047014 0 255 255
0.431307 0.080416 0.001933 0 255 255
0.414108 -0.041022 -0.040067 0 255 255
0.414140 0.202186 -0.134067 0 255 255
0.562801 0.196039 -0.078067 0 255 255
0.543469 0.192614 -0.002068 0 255 255
0.460603 -0.060869 0.077933 0 255 255
0.453832 0.103657 0.053933 0 255 255
0.465982 0.200100 -0.082067 0 255 255
0.499790 0.059219 0.077933 0 255 255
0.535901 -0.106438 -0.075278 0 255 255
0.431883 0.150353 -0.038067 0 255 255
0.502697 -0.107335 -0.122068 0 255 255
0.511162 -0.106454 0.028746 0 255 255
0.515823 0.193323 -0.103081 0 255 255
0.405355 -0.009992 -0.139048 0 255 255
0.448971 0.003869 0.025932 0 255 255
0.402381 -0.104594 -0.114067 0 255 255
0.462975 0.152908 0.069933 0 255 255
0.421262 0.049941 -0.060067 0 255 255
0.493285 0.193867 0.005933 0 255 255
0.409550 0.137371 -0.088067 0 255 255
0.424313 -0.074495 -0.005852 0 255 255
0.446644 -0.100674 0.055098 0 255 255
0.458928 0.005508 0.071932 0 255 255
0.418905 -0.001002 -0.064067 0 255 255
0.410152 0.075384 -0.096844 0 255 255
0.486908 -0.104529 -0.027234 0 255 255
0.435905 -0.023792 -0.006067 0 255 255
0.437430 -0.104561 -0.078478 0 255 255
0.405319 0.047732 -0.136958 0 255 255
0.434042 0.040570 0.013933 0 255 255
0.491573 0.187002 0.146862 0 255 255
0.484332 0.133154 0.196975 0 255 255
0.496847 0.175083 0.077933 0 255 255
0.470622 0.082981 0.235932 0 255 255
0.406365 -0.072080 -0.066485 0 255 255
0.426326 0.116699 -0.016068 0 255 255
0.406995 0.170194 -0.110067 0 255 255
0.552673 0.196503 -0.040067 0 255 255
0.495364 0.020328 0.075933 0 255 255
0.459157 -0.029589 0.053933 0 255 255
0.411142 -0.015557 -0.100067 0 255 255
0.440222 0.181254 0.015933 0 255 255
0.471161 0.021010 0.235932 0 255 255
0.447593 -0.105132 -0.026067 0 255 255
0.480555 -0.030802 0.206977 0 255 255
0.466419 0.077845 0.079410 0 255 255
0.498015 -0.064012 0.075933 0 255 255
0.445601 0.196402 -0.114067 0 255 255
0.463841 -0.092594 0.099932 0 255 255
0.482473 -0.068383 0.165933 0 255 255
0.441405 0.200736 -0.054067 0 255 255
0.401994 -0.064807 -0.137006 0 255 255
0.431993 0.055510 -0.025052 0 255 255
0.449178 0.107903 0.017933 0 255 255
0.469931 -0.106480 -0.106607 0 255 255
0.446628 -0.075935 0.026942 0 255 255
0.475397 0.196527 -0.044068 0 255 255
0.528096 0.196447 -0.136068 0 255 255
0.453324 0.074926 0.030975 0 255 255
0.469775 0.198778 0.077933 0 255 255
0.479941 -0.104853 0.043932 0 255 255
0.416005 -0.037381 -0.074067 0 255 255
0.468817 0.120533 0.080126 0 255 255
0.460050 0.163943 0.037933 0 255 255
0.486262 0.194510 0.039932 0 255 255
0.513102 -0.106938 -0.049378 0 255 255
0.427393 -0.104119 0.009933 0 255 255
0.424361 0.181978 -0.030068 0 255 255
0.404445 -0.104582 -0.075067 0 255 255
0.421406 0.087006 -0.030068 0 255 255
0.547938 0.198122 -0.108067 0 255 255
0.417455 -0.008886 -0.032067 0 255 255
0.423798 -0.072304 -0.038067 0 255 255
0.515016 0.198356 -0.018067 0 255 255
0.408952 0.201419 -0.102067 0 255 255
0.507497 -0.107602 -0.090068 0 255 255
0.468869 0.038071 0.078970 0 255 255
0.441121 0.162479 -0.010067 0 255 255
0.459349 0.132163 0.039932 0 255 255
0.531343 0.193577 -0.074067 0 255 255
0.416866 0.106690 -0.092067 0 255 255
0.491221 -0.091176 0.115933 0 255 255
0.415182 0.129783 -0.056067 0 255 255
0.496781 0.198070 -0.078067 0 255 255
0.492574 -0.106602 0.003933 0 255 255
0.491116 0.143830 0.079284 0 255 255
0.485435 0.198839 -0.108067 0 255 255
0.464094 0.200797 0.015933 0 255 255
0.397508 0.018761 -0.130067 0 255 255
0.433549 -0.103593 -0.111291 0 255 255
0.423142 0.156655 -0.068067 0 255 255
0.521020 0.197634 0.017933 0 255 255
0.413978 0.022899 -0.046067 0 255 255
0.439316 -0.051439 0.005933 0 255 255
0.396935 -0.035495 -0.126067 0 255 255
0.429388 0.004629 0.003933 0 255 255
0.457573 -0.106443 -0.054067 0 255 255
0.535417 -0.108379 -0.104465 0 255 255
0.447272 -0.059606 0.051933 0 255 255
0.437184 0.200338 -0.086067 0 255 255
0.475222 -0.035656 0.079495 0 255 255
0.493576 0.087564 0.077318 0 255 255
0.489165 0.160807 0.159027 0 255 255
0.412030 0.173854 -0.139063 0 255 255
0.448045 -0.024757 0.023933 0 255 255
0.410635 0.077324 -0.068105 0 255 255
0.528610 -0.106681 -0.134067 0 255 255
0.459642 0.021820 0.047933 0 255 255
0.467003 -0.089260 0.071932 0 255 255
0.416949 0.048955 -0.088067 0 255 255
0.477726 -0.104301 -0.134067 0 255 255
0.488007 0.098294 0.219933 0 255 255
0.416924 0.024226 -0.076068 0 255 255
0.469705 0.178026 0.059933 0 255 255
0.412545 0.126318 -0.113018 0 255 255
0.418349 -0.099803 -0.016068 0 255 255
0.430361 -0.050240 -0.020067 0 255 255
0.501526 0.193850 -0.130067 0 255 255
0.477887 0.198659 -0.016068 0 255 255
0.494671 0.199425 0.065933 0 255 255
0.401581 0.052786 -0.110067 0 255 255
0.489175 0.144314 0.220885 0 255 255
0.444370 -0.108352 0.029932 0 255 255
0.476580 -0.038476 0.231933 0 255 255
0.477448 -0.092865 0.157933 0 255 255
0.448048 -0.006207 0.049933 0 255 255
0.417056 -0.103603 -0.134999 0 255 255
0.464472 0.074208 0.053933 0 255 255
0.488951 0.168219 0.129933 0 255 255
0.517691 -0.105066 -0.000067 0 255 255
0.480497 0.059907 0.233521 0 255 255
0.404860 0.004561 -0.086302 0 255 255
0.475586 0.155947 0.203200 0 255 255
0.440639 0.135803 -0.008067 0 255 255
0.428516 0.177989 -0.056067 0 255 255
0.481990 -0.000241 0.078847 0 255 255
0.425677 0.071514 -0.049064 0 255 255
0.452377 0.038061 0.030954 0 255 255
0.410245 -0.073048 -0.091039 0 255 255
0.471581 0.126027 0.217932 0 255 255
0.430985 0.113476 -0.040067 0 255 255
0.466972 -0.017109 0.223933 0 255 255
0.410188 0.005293 -0.114067 0 255 255
0.410640 -0.021615 -0.054067 0 255 255
0.480314 -0.048304 0.189932 0 255 255
0.445059 0.062558 0.011932 0 255 255
0.439178 0.200066 -0.137056 0 255 255
0.409611 0.164152 -0.086870 0 255 255
0.432573 0.187284 -0.006067 0 255 255
0.490094 0.168820 0.103932 0 255 255
0.472685 0.098956 0.069933 0 255 255
0.486293 0.099685 0.246809 0 255 255
0.483893 0.003407 0.225932 0 255 255
0.473869 0.179048 0.161932 0 255 255
0.474602 0.176804 0.086374 0 255 255
0.483926 0.007521 0.250870 0 255 255
0.536771 -0.106655 -0.050067 0 255 255
0.460387 -0.103423 -0.084067 0 255 255
0.481312 -0.077369 0.095933 0 255 255
0.495449 0.194281 -0.031066 0 255 255
0.425699 0.038528 -0.010067 0 255 255
0.460686 -0.017603 0.075933 0 255 255
0.419917 -0.054847 -0.058068 0 255 255
0.529337 0.194076 -0.036067 0 255 255
0.491542 0.191132 0.123933 0 255 255
0.440172 0.100879 -0.006067 0 255 255
0.435652 -0.103425 -0.046067 0 255 255
0.405678 -0.016256 -0.076068 0 255 255
0.417056 -0.103603 -0.095004 0 255 255
0.487194 0.074727 0.249933 0 255 255
0.416160 0.149085 -0.108067 0 255 255
0.456796 -0.080532 0.049933 0 255 255
0.493415 -0.086696 0.075933 0 255 255
0.418525 0.201092 -0.056067 0 255 255
0.487321 -0.106693 -0.050067 0 255 255
0.508738 -0.107910 -0.021596 0 255 255
0.469958 -0.104426 -0.012067 0 255 255
0.465572 -0.074356 0.179932 0 255 255
0.469780 0.132660 0.060937 0 255 255
0.486272 0.037855 0.233932 0 255 255
0.467739 -0.049136 0.213933 0 255 255
0.488438 0.149624 0.181933 0 255 255
0.492294 0.189890 0.095933 0 255 255
0.428619 -0.028160 -0.028067 0 255 255
0.431698 0.203135 -0.032067 0 255 255
0.451435 -0.044154 0.035933 0 255 255
0.497528 -0.041217 0.075933 0 255 255
0.417297 0.044746 -0.038067 0 255 255
0.443894 0.020573 0.011932 0 255 255
0.458105 0.185040 0.030937 0 255 255
0.411583 0.114191 -0.071742 0 255 255
0.419276 0.182355 -0.096067 0 255 255
0.398149 -0.014379 -0.118068 0 255 255
0.451324 0.161996 0.015933 0 255 255
0.470795 0.058203 0.067933 0 255 255
0.471673 -0.099494 0.123933 0 255 255
0.443818 0.202142 0.005933 0 255 255
0.432462 -0.004382 -0.016068 0 255 255
0.439351 -0.084427 0.007933 0 255 255
0.480045 -0.107248 0.021933 0 255 255
0.466788 -0.110818 0.075933 0 255 255
0.471393 0.106063 0.231933 0 255 255
0.473535 0.183255 0.133932 0 255 255
0.428667 0.058703 -0.002068 0 255 255
0.405827 -0.069885 -0.116067 0 255 255
0.404238 -0.055060 -0.080067 0 255 255
0.434489 0.118786 0.005933 0 255 255
0.409156 0.034408 -0.120067 0 255 255
0.402278 -0.033959 -0.092067 0 255 255
0.479061 0.029346 0.254421 0 255 255
0.439307 0.088728 0.021933 0 255 255
0.422243 0.132145 -0.031640 0 255 255
0.548808 0.193344 -0.061045 0 255 255
0.428593 -0.065255 0.021933 0 255 255
0.464889 0.195716 -0.103032 0 255 255
0.482521 -0.072517 0.144961 0 255 255
0.491008 -0.104616 -0.104068 0 255 255
0.479259 0.195481 -0.066067 0 255 255
0.467748 -0.000814 0.239933 0 255 255
0.443704 0.056713 0.035933 0 255 255
0.424941 0.200835 -0.116067 0 255 255
0.455024 0.197487 -0.038067 0 255 255
0.515722 -0.104700 -0.070067 0 255 255
0.431676 -0.033044 0.013933 0 255 255
0.440803 -0.103340 -0.006067 0 255 255
0.474268 0.200266 0.055933 0 255 255
0.478640 -0.071550 0.075105 0 255 255
0.490210 0.040995 0.074984 0 255 255
0.502861 0.199207 0.027933 0 255 255
0.446992 0.115668 0.037607 0 255 255
0.465086 -0.076310 0.157933 0 255 255
0.433632 -0.012320 0.015933 0 255 255
0.433804 0.075671 -0.018067 0 255 255
0.426911 0.149532 -0.018067 0 255 255
0.469263 0.044156 0.243932 0 255 255
0.446246 0.148834 0.033933 0 255 255
0.457277 -0.041488 0.071335 0 255 255
0.405826 0.187768 -0.122068 0 255 255
0.456222 0.094816 0.034963 0 255 255
0.403632 0.157398 -0.126067 0 255 255
0.555284 -0.107148 -0.100067 0 255 255
0.460051 0.201115 -0.062068 0 255 255
0.424711 0.005794 -0.044068 0 255 255
0.418547 0.161924 -0.048068 0 255 255
0.534025 0.191926 -0.094067 0 255 255
0.467178 -0.105794 -0.032067 0 255 255
0.480918 0.160801 0.074953 0 255 255
0.499998 -0.105731 0.045933 0 255 255
0.543678 0.197569 -0.022067 0 255 255
0.474217 0.018186 0.077388 0 255 255
0.479349 -0.076974 0.123933 0 255 255
0.442593 0.019887 0.035933 0 255 255
0.408201 0.092360 -0.080936 0 255 255
0.452076 0.127794 0.021933 0 255 255
0.454443 0.150912 0.051933 0 255 255
0.566115 0.193152 -0.114067 0 255 255
0.446571 0.200284 0.025932 0 255 255
0.434511 -0.091465 0.025864 0 255 255
0.462751 0.195409 -0.004067 0 255 255
0.457720 0.026422 0.067867 0 255 255
0.452936 -0.104304 -0.116067 0 255 255
0.409721 -0.037876 -0.110067 0 255 255
0.420437 -0.102384 -0.064067 0 255 255
0.417028 0.202168 -0.084067 0 255 255
0.478888 -0.095358 0.087933 0 255 255
0.424777 -0.039568 -0.004335 0 255 255
0.492016 0.176586 0.169932 0 255 255
0.530155 0.192935 -0.116067 0 255 255
0.456914 0.196800 -0.130067 0 255 255
0.545673 0.197307 -0.128067 0 255 255
0.515061 0.198538 -0.084067 0 255 255
0.470543 0.062388 0.249933 0 255 255
0.422717 0.138211 -0.074067 0 255 255
0.482446 0.200001 0.021933 0 255 255
0.408588 0.059285 -0.074067 0 255 255
0.433830 0.100399 -0.024067 0 255 255
0.525037 0.197210 -0.000866 0 255 255
0.496641 0.199060 -0.012067 0 255 255
0.483847 0.069377 0.075933 0 255 255
0.417515 -0.081044 -0.054067 0 255 255
0.464520 -0.008253 0.059933 0 255 255
0.463114 -0.104780 0.029932 0 255 255
0.435786 0.165871 -0.028067 0 255 255
0.414774 0.086599 -0.052067 0 255 255
0.443354 -0.027711 0.041933 0 255 255
0.454263 -0.075777 0.067933 0 255 255
0.529499 0.198572 -0.056067 0 255 255
0.427192 -0.083457 -0.022067 0 255 255
0.479091 0.170008 0.145933 0 255 255
0.560697 0.191426 -0.096067 0 255 255
0.482490 -0.076632 0.187932 0 255 255
0.406326 -0.051458 -0.124067 0 255 255
0.486277 0.124424 0.074957 0 255 255
0.409077 0.040611 -0.072067 0 255 255
0.481054 -0.053600 0.079345 0 255 255
0.482307 0.195496 -0.090068 0 255 255
0.454524 0.181811 0.049933 0 255 255
0.429025 0.023270 -0.000067 0 255 255
0.479576 -0.018191 0.075016 0 255 255
0.492338 0.198340 -0.052067 0 255 255
0.467990 -0.105996 0.057932 0 255 255
0.454749 0.121979 0.054761 0 255 255
0.478036 -0.107040 -0.090068 0 255 255
0.422784 0.031010 -0.060067 0 255 255
0.458651 0.088026 0.064418 0 255 255
0.420220 0.068751 -0.030068 0 255 255
0.481080 -0.094831 0.138878 0 255 255
0.463107 -0.055309 0.059933 0 255 255
0.440458 -0.010499 0.033933 0 255 255
0.471715 0.140422 0.079912 0 255 255
0.428608 0.029558 -0.036067 0 255 255
0.441784 -0.087095 0.041997 0 255 255
0.500975 -0.105975 0.064952 0 255 255
0.419381 -0.065020 -0.022067 0 255 255
0.487232 0.115942 0.215932 0 255 255
0.428988 0.196422 -0.070067 0 255 255
0.427086 0.143304 -0.055058 0 255 255
0.498430 -0.107915 -0.074067 0 255 255
0.468406 0.198962 0.035933 0 255 255
0.447617 -0.105038 -0.096593 0 255 255
0.450338 0.083916 0.047933 0 255 255
0.439572 -0.061808 0.035933 0 255 255
0.490543 0.162525 0.195933 0 255 255
0.409881 0.015676 -0.062068 0 255 255
0.433323 0.149995 -0.000067 0 255 255
0.420361 -0.036406 -0.056067 0 255 255
0.478608 -0.100398 0.105933 0 255 255
0.403765 0.140708 -0.120067 0 255 255
0.472077 0.199748 -0.120067 0 255 255
0.501034 0.200145 0.047933 0 255 255
0.465628 -0.084795 0.115933 0 255 255
0.499443 -0.000470 0.075933 0 255 255
0.499623 0.194487 -0.096067 0 255 255
0.513883 0.193807 -0.067038 0 255 255
0.417864 0.102318 -0.044068 0 255 255
0.475013 0.161918 0.169932 0 255 255
0.407810 0.121315 -0.096067 0 255 255
0.525224 -0.107924 -0.090068 0 255 255
0.487744 0.105508 0.079127 0 255 255
0.397868 0.001314 -0.126067 0 255 255
0.412751 -0.059244 -0.042067 0 255 255
0.483327 0.186997 0.075047 0 255 255
0.483909 -0.013087 0.219933 0 255 255
0.444929 0.171836 0.029932 0 255 255
0.466406 0.040746 0.061933 0 255 255
0.527794 0.196522 0.033933 0 255 255
0.446220 0.195244 -0.072067 0 255 255
0.484925 -0.050443 0.215932 0 255 255
0.459120 0.061113 0.043932 0 255 255
0.412594 0.039734 -0.102067 0 255 255
0.503714 0.132445 0.075933 0 255 255
0.502495 0.156403 0.075933 0 255 255
0.424754 -0.018951 -0.044068 0 255 255
0.422662 0.171204 -0.078067 0 255 255
0.440238 0.043148 -0.002068 0 255 255
0.436273 0.167811 0.005933 0 255 255
0.419502 0.007093 -0.026067 0 255 255
0.486228 0.079089 0.229933 0 255 255
0.479618 -0.084160 0.172796 0 255 255
0.525230 -0.107900 -0.037296 0 255 255
0.404149 0.059578 -0.094067 0 255 255
0.469306 0.114227 0.062950 0 255 255
0.466125 -0.058123 0.189932 0 255 255
0.511162 -0.106454 -0.136921 0 255 255
0.427243 -0.104082 -0.031191 0 255 255
0.437877 -0.044896 0.048572 0 255 255
0.445143 -0.052891 0.021933 0 255 255
0.418390 0.071269 -0.082067 0 255 255
0.421899 -0.018043 -0.016068 0 255 255
0.424436 -0.090541 -0.000067 0 255 255
0.441865 -0.103305 -0.062068 0 255 255
0.503212 0.192345 0.078860 0 255 255
0.431375 0.189644 -0.044068 0 255 255
0.466683 -0.080935 0.087933 0 255 255
0.546631 0.192883 -0.082067 0 255 255
0.434618 0.100202 0.009933 0 255 255
0.477266 0.198814 0.003933 0 255 255
0.400564 -0.103613 -0.091527 0 255 255
0.438694 0.185758 -0.022067 0 255 255
0.451573 0.009403 0.055933 0 255 255
0.461981 0.192320 0.064319 0 255 255
0.472875 0.154562 0.185933 0 255 255
0.457613 0.166536 0.057932 0 255 255
0.425339 -0.056198 -0.002068 0 255 255
0.454477 -0.100565 0.069933 0 255 255
0.449550 0.200333 -0.098067 0 255 255
0.501887 0.198859 -0.114067 0 255 255
0.522248 -0.107156 0.015933 0 255 255
0.484280 -0.106801 0.061933 0 255 255
0.465965 -0.033348 0.219933 0 255 255
0.415035 0.016453 -0.094067 0 255 255
0.509039 0.199184 0.003933 0 255 255
0.550916 -0.108120 -0.068067 0 255 255
0.444582 -0.104282 0.011932 0 255 255
0.472586 0.140206 0.207932 0 255 255
0.419788 0.151308 -0.090068 0 255 255
0.413449 -0.005826 -0.048068 0 255 255
0.420308 0.124382 -0.083053 0 255 255
0.519191 -0.107320 -0.108067 0 255 255
0.433223 0.197428 -0.102067 0 255 255
0.427197 0.089686 -0.012067 0 255 255
0.437394 -0.067450 0.001933 0 255 255
0.486205 -0.107344 -0.120067 0 255 255
0.494216 -0.104290 -0.136068 0 255 255
0.425619 0.116875 -0.056067 0 255 255
0.433549 -0.103593 -0.133126 0 255 255
0.500975 -0.105975 -0.036139 0 255 255
0.496742 -0.106419 0.019933 0 255 255
0.466062 0.168628 0.073933 0 255 255
0.512991 0.194029 -0.034068 0 255 255
0.435827 0.128759 -0.023066 0 255 255
0.412503 0.064492 -0.058068 0 255 255
0.447839 0.033008 0.045933 0 255 255
0.430388 0.200196 -0.016068 0 255 255
0.428618 0.174249 -0.016068 0 255 255
0.405329 0.031239 -0.137031 0 255 255
0.536155 0.196498 0.011932 0 255 255
0.517057 0.198277 -0.124067 0 255 255
0.476364 -0.105479 0.003933 0 255 255
0.415358 0.170666 -0.062068 0 255 255
0.405677 0.033214 -0.086067 0 255 255
0.446937 0.185764 0.001933 0 255 255
0.418903 -0.104461 -0.118068 0 255 255
0.456155 0.061853 0.061933 0 255 255
0.484452 -0.060631 0.179932 0 255 255
0.399385 0.018293 -0.114067 0 255 255
0.418824 0.163915 -0.100067 0 255 255
0.427669 -0.011432 0.000118 0 255 255
0.492953 -0.105083 -0.012067 0 255 255
0.421887 -0.051216 0.017933 0 255 255
0.417342 0.182837 -0.112067 0 255 255
0.480986 0.053601 0.079382 0 255 255
0.427090 0.056732 -0.042067 0 255 255
0.407295 -0.022842 -0.128067 0 255 255
0.445054 0.079049 0.009933 0 255 255
0.401739 -0.000845 -0.102067 0 255 255
0.418471 -0.040058 -0.024804 0 255 255
0.536138 -0.105484 -0.120067 0 255 255
0.405344 0.006501 -0.139046 0 255 255
0.541973 -0.107952 -0.090068 0 255 255
0.487203 0.194276 -0.123118 0 255 255
0.544147 -0.106433 -0.137053 0 255 255
0.465664 0.198825 -0.026067 0 255 255
0.428987 0.130463 -0.046067 0 255 255
0.421261 0.091165 -0.072067 0 255 255
0.445484 0.130472 0.005933 0 255 255
0.454283 0.008728 0.039932 0 255 255
0.430908 0.171209 -0.042067 0 255 255
0.428550 0.087287 -0.044068 0 255 255
0.411625 -0.046596 -0.092067 0 255 255
0.424641 0.009934 -0.010067 0 255 255
0.442935 0.000193 0.011932 0 255 255
0.439604 0.072163 0.023933 0 255 255
0.447500 0.047522 0.017933 0 255 255
0.464268 -0.104389 -0.068067 0 255 255
0.413920 0.169261 -0.124067 0 255 255
0.486964 0.196396 0.109933 0 255 255
0.411761 0.149187 -0.076068 0 255 255
0.400462 -0.025261 -0.106067 0 255 255
0.467864 -0.106501 -0.122068 0 255 255
0.415995 -0.004399 -0.080067 0 255 255
0.437925 0.029296 0.023933 0 255 255
0.405376 -0.042976 -0.137060 0 255 255
0.489154 0.177299 0.116928 0 255 255
0.530138 0.192865 -0.016068 0 255 255
0.425742 -0.056299 -0.034068 0 255 255
0.418928 -0.017498 -0.068067 0 255 255
0.413850 -0.025525 -0.086067 0 255 255
0.477084 0.087554 0.249781 0 255 255
0.489155 0.148441 0.205932 0 255 255
0.454347 -0.016023 0.037933 0 255 255
0.432361 -0.105357 -0.094067 0 255 255
0.407807 -0.047705 -0.066067 0 255 255
0.439714 0.119544 -0.009037 0 255 255
0.508894 0.195051 0.061933 0 255 255
0.416538 -0.060187 -0.072067 0 255 255
0.480450 0.134122 0.228359 0 255 255
0.450393 -0.044299 0.057932 0 255 255
0.453691 -0.105479 0.041933 0 255 255
0.467438 -0.029593 0.067933 0 255 255
0.468304 0.155702 0.055933 0 255 255
0.407104 0.137564 -0.104068 0 255 255
0.472581 -0.104116 -0.054067 0 255 255
0.465004 0.014299 0.060974 0 255 255
0.452202 -0.070112 0.039932 0 255 255
0.455636 -0.105941 -0.004067 0 255 255
0.439497 0.069075 -0.004067 0 255 255
0.463984 0.092881 0.050934 0 255 255
0.421011 0.035575 -0.024067 0 255 255
0.479805 -0.083409 0.109933 0 255 255
0.443605 0.102084 0.031235 0 255 255
0.452256 0.190621 0.015933 0 255 255
0.452897 -0.017723 0.060782 0 255 255
0.477295 0.190562 0.095933 0 255 255
0.400749 -0.068619 -0.102067 0 255 255
0.409925 0.049673 -0.122068 0 255 255
0.484642 0.018662 0.229933 0 255 255
0.459609 0.108400 0.040936 0 255 255
0.491017 -0.104577 0.033933 0 255 255
0.449557 -0.105522 -0.041079 0 255 255
0.492908 -0.105263 -0.088067 0 255 255
0.501802 0.075206 0.075933 0 255 255
0.442224 -0.023306 0.009933 0 255 255
0.478818 0.086242 0.075933 0 255 255
0.487025 0.168762 0.087933 0 255 255
0.471346 -0.042935 0.200897 0 255 255
0.439714 0.119544 0.021558 0 255 255
0.413690 0.039971 -0.052067 0 255 255
0.421754 0.107532 -0.030068 0 255 255
0.452780 0.143083 0.021933 0 255 255
0.459711 -0.093626 0.057932 0 255 255
0.419613 0.143107 -0.042067 0 255 255
0.436685 0.011055 0.021933 0 255 255
0.411359 0.063692 -0.108067 0 255 255
0.464833 -0.088719 0.149933 0 255 255
0.502932 -0.106393 -0.060067 0 255 255
0.408617 0.201501 -0.117459 0 255 255
0.513655 0.192892 0.035933 0 255 255
0.480722 0.093875 0.231933 0 255 255
0.433005 -0.035436 -0.016068 0 255 255
0.417411 0.009677 -0.074067 0 255 255
0.526139 -0.108127 -0.060067 0 255 255
0.468783 0.012925 0.247933 0 255 255
0.418165 0.120795 -0.044068 0 255 255
0.473913 -0.024374 0.235932 0 255 255
0.507321 -0.107558 0.009933 0 255 255
0.417221 0.186989 -0.060067 0 255 255
0.422878 -0.105054 -0.079331 0 255 255
0.444661 -0.038343 0.017933 0 255 255
0.499606 0.194420 -0.064067 0 255 255
0.414659 0.146403 -0.062068 0 255 255
0.431098 -0.063818 -0.013038 0 255 255
0.422703 0.160887 -0.034068 0 255 255
0.415806 -0.024965 -0.034068 0 255 255
0.414423 0.187686 -0.134067 0 255 255
0.476537 0.184567 0.148802 0 255 255
0.441723 -0.066467 0.015933 0 255 255
0.438812 -0.036885 0.001933 0 255 255
0.407789 -0.103353 -0.056067 0 255 255
0.446458 0.150842 0.005933 0 255 255
0.517663 -0.105178 -0.124067 0 255 255
0.422354 -0.057556 0.033933 0 255 255
0.460041 0.147456 0.037933 0 255 255
0.468411 -0.005101 0.078981 0 255 255
0.454891 0.136372 0.053933 0 255 255
0.485477 0.187351 0.159932 0 255 255
0.479273 0.195537 -0.030068 0 255 255
0.419402 0.021547 -0.028437 0 255 255
0.445669 0.132488 0.033933 0 255 255
0.421680 0.200306 -0.042067 0 255 255
0.412217 0.128461 -0.070067 0 255 255
0.467540 0.184749 0.075933 0 255 255
0.414839 0.199950 -0.070067 0 255 255
0.540914 0.194754 -0.048068 0 255 255
0.464855 0.191603 0.047933 0 255 255
0.396447 -0.062260 -0.124067 0 255 255
0.447991 0.070072 0.043433 0 255 255
0.436368 0.027623 -0.012067 0 255 255
0.422792 0.014519 -0.056067 0 255 255
0.504934 -0.106633 -0.106067 0 255 255
0.484773 0.201064 0.076297 0 255 255
0.441617 0.176784 -0.009070 0 255 255
0.461102 0.048252 0.072915 0 255 255
0.489285 -0.028856 0.075029 0 255 255
0.467954 -0.048273 0.079222 0 255 255
0.410382 -0.068959 -0.052067 0 255 255
0.407755 -0.029141 -0.066067 0 255 255
0.425186 -0.104065 -0.004067 0 255 255
0.412561 0.101579 -0.065477 0 255 255
0.438031 -0.034628 0.029932 0 255 255
0.410669 -0.009255 -0.114067 0 255 255
0.470564 -0.062605 0.173933 0 255 255
0.428580 -0.075558 0.009933 0 255 255
0.448087 -0.090728 0.029932 0 255 255
0.487494 0.195443 0.053933 0 255 255
0.419787 0.180165 -0.045231 0 255 255
0.460623 0.038066 0.048946 0 255 255
0.424701 0.063512 -0.016068 0 255 255
0.432240 -0.103267 -0.018067 0 255 255
0.405436 0.018845 -0.084067 0 255 255
0.481486 0.030802 0.079087 0 255 255
0.444066 0.091663 0.003933 0 255 255
0.420297 0.103773 -0.078067 0 255 255
0.440212 0.084379 -0.008067 0 255 255
0.419370 0.050412 -0.074067 0 255 255
0.483083 0.128149 0.209933 0 255 255
0.469778 0.079068 0.065933 0 255 255
0.475748 -0.099685 0.074944 0 255 255
0.400438 0.038643 -0.110067 0 255 255
0.489628 0.195732 -0.137026 0 255 255
0.422758 0.080486 -0.062068 0 255 255
0.407995 0.154248 -0.098067 0 255 255
0.398298 0.039177 -0.128067 0 255 255
0.477080 -0.007262 0.231933 0 255 255
0.435134 0.051573 -0.012067 0 255 255
0.451483 0.199818 -0.084067 0 255 255
0.410526 0.178352 -0.086067 0 255 255
0.478222 0.174787 0.099932 0 255 255
0.402931 -0.011448 -0.089664 0 255 255
0.436033 0.195723 -0.124067 0 255 255
0.479389 -0.085084 0.077933 0 255 255
0.484506 0.191726 0.135933 0 255 255
0.506205 -0.105218 -0.008067 0 255 255
0.420729 0.196421 -0.096067 0 255 255
0.473183 0.121505 0.230851 0 255 255
0.416308 -0.080743 -0.030068 0 255 255
0.461539 0.124408 0.068233 0 255 255
0.451437 -0.106251 -0.074067 0 255 255
0.437831 0.008707 -0.006067 0 255 255
0.410640 -0.046664 -0.052067 0 255 255
0.417893 0.085821 -0.088067 0 255 255
0.406755 0.078292 -0.083694 0 255 255
0.468346 0.029956 0.245932 0 255 255
0.437682 0.056152 0.021933 0 255 255
0.411557 0.155422 -0.137028 0 255 255
0.414653 0.053650 -0.048068 0 255 255
0.456978 0.048246 0.039932 0 255 255
0.429126 -0.013857 -0.027047 0 255 255
0.465146 0.171945 0.047933 0 255 255
0.482026 -0.057966 0.204939 0 255 255
0.465995 -0.068397 0.067933 0 255 255
0.433065 -0.105533 0.022240 0 255 255
0.476740 0.144043 0.193933 0 255 255
0.465524 0.107325 0.077933 0 255 255
0.399231 -0.045567 -0.114067 0 255 255
0.433440 0.040721 -0.022067 0 255 255
0.404318 0.045920 -0.092067 0 255 255
0.478661 -0.104535 -0.039225 0 255 255
0.546994 -0.107143 -0.112067 0 255 255
0.471344 0.064531 0.079933 0 255 255
0.421957 0.188868 -0.084067 0 255 255
0.433773 0.137056 0.003933 0 255 255
0.471257 0.097251 0.242211 0 255 255
0.477853 0.007965 0.237933 0 255 255
0.455469 -0.111119 0.057932 0 255 255
0.476090 0.191037 0.121933 0 255 255
0.445028 0.087301 0.035933 0 255 255
0.444280 0.195730 -0.030068 0 255 255
0.427838 0.134872 -0.014067 0 255 255
0.479130 -0.077855 0.156883 0 255 255
0.449937 0.061342 0.024944 0 255 255
0.421293 0.066423 -0.068067 0 255 255
0.444557 0.110091 0.003933 0 255 255
0.412604 -0.075697 -0.078067 0 255 255
0.433243 0.067565 0.007933 0 255 255
0.499778 0.100447 0.075933 0 255 255
0.520131 -0.106629 -0.014067 0 255 255
0.442014 0.154012 0.021933 0 255 255
0.439676 0.148411 -0.014067 0 255 255
0.434968 -0.048293 -0.007061 0 255 255
0.427580 0.103949 -0.012067 0 255 255
0.459706 -0.068889 0.055933 0 255 255
0.485804 0.105992 0.234977 0 255 255
0.433822 0.141625 -0.028067 0 255 255
0.458861 0.196343 -0.116067 0 255 255
0.432560 -0.086856 -0.010067 0 255 255
0.441636 0.032493 0.005933 0 255 255
0.429485 0.099421 -0.038067 0 255 255
0.440992 0.045021 0.029932 0 255 255
0.395658 -0.015819 -0.131899 0 255 255
0.476745 0.177129 0.121933 0 255 255
0.452747 0.176070 0.019933 0 255 255
0.475128 0.112775 0.220674 0 255 255
0.446338 -0.010961 0.021933 0 255 255
0.426170 0.044594 -0.048068 0 255 255
0.410142 -0.060655 -0.096067 0 255 255
0.514367 0.195747 -0.136912 0 255 255
0.490137 0.156442 0.083586 0 255 255
0.417890 0.077577 -0.040067 0 255 255
0.412233 0.006845 -0.052067 0 255 255
0.433449 0.053085 0.009382 0 255 255
0.438811 -0.003905 -0.000067 0 255 255
0.503496 0.193487 0.015933 0 255 255
0.472683 0.144304 0.066968 0 255 255
0.453909 -0.092179 0.043932 0 255 255
0.466533 -0.103572 0.044953 0 255 255
0.464251 0.052614 0.055933 0 255 255
0.409262 -0.056312 -0.112067 0 255 255
0.409337 -0.010559 -0.062068 0 255 255
0.413578 0.002387 -0.096067 0 255 255
0.442264 0.003480 0.037933 0 255 255
0.452410 -0.056764 0.039932 0 255 255
0.477902 -0.024907 0.219933 0 255 255
0.433504 -0.078847 0.021933 0 255 255
0.492536 0.170272 0.181933 0 255 255
0.459275 0.102300 0.065933 0 255 255
0.410196 0.030026 -0.064067 0 255 255
0.411135 0.017424 -0.108067 0 255 255
0.434038 -0.046001 0.019933 0 255 255
0.422878 -0.105054 -0.051358 0 255 255
0.440462 -0.100665 0.039932 0 255 255
0.412744 0.163370 -0.074067 0 255 255
0.406870 -0.103124 -0.126615 0 255 255
0.430036 0.076610 -0.034068 0 255 255
0.460775 0.195753 -0.050067 0 255 255
0.404791 -0.040770 -0.080067 0 255 255
0.458313 -0.105644 -0.018067 0 255 255
0.449933 0.024240 0.025932 0 255 255
0.425851 0.196220 -0.134067 0 255 255
0.408191 0.014036 -0.124067 0 255 255
0.464350 0.090728 0.075933 0 255 255
0.444300 0.195811 -0.006067 0 255 255
0.468715 -0.086555 0.165933 0 255 255
0.489634 0.158628 0.171932 0 255 255
0.475509 -0.084105 0.143932 0 255 255
0.472730 0.070088 0.236609 0 255 255
0.429494 -0.059296 0.009933 0 255 255
0.445436 0.186138 0.027933 0 255 255
0.454076 -0.062599 0.065933 0 255 255
0.434133 0.113698 -0.026067 0 255 255
0.463094 -0.104775 -0.134067 0 255 255
0.441795 -0.103587 -0.123052 0 255 255
0.485113 0.061884 0.249933 0 255 255
0.402431 0.011349 -0.097588 0 255 255
0.448633 -0.086741 0.057932 0 255 255
0.548473 0.197550 -0.094067 0 255 255
0.428148 -0.001246 -0.031051 0 255 255
0.410533 0.190718 -0.090068 0 255 255
0.482169 0.174086 0.075933 0 255 255
0.454172 0.157164 0.027933 0 255 255
0.447920 0.173151 0.007933 0 255 255
0.428611 0.013068 -0.034068 0 255 255
0.477156 -0.040261 0.217932 0 255 255
0.427018 0.163934 -0.058068 0 255 255
0.414214 0.157813 -0.118068 0 255 255
0.460249 0.071138 0.069933 0 255 255
0.450641 0.172473 0.041933 0 255 255
0.453922 -0.104550 0.020811 0 255 255
0.485603 0.196127 -0.006067 0 255 255
0.542262 0.191891 -0.034068 0 255 255
0.435316 -0.023646 0.021933 0 255 255
0.407928 -0.060102 -0.062068 0 255 255
0.423994 0.024525 -0.014067 0 255 255
0.479083 -0.003639 0.246722 0 255 255
0.479502 0.051909 0.243932 0 255 255
0.424287 -0.033262 -0.039023 0 255 255
0.433665 0.087018 -0.024067 0 255 255
0.453696 0.035670 0.059933 0 255 255
0.474566 0.189181 0.065933 0 255 255
0.470300 0.076877 0.247676 0 255 255
0.500863 0.199461 -0.042067 0 255 255
0.463620 -0.098723 0.079890 0 255 255
0.420211 0.054325 -0.030068 0 255 255
0.490264 -0.107600 -0.064067 0 255 255
0.412895 -0.077831 -0.042067 0 255 255
0.460625 0.000963 0.051933 0 255 255
0.453328 -0.003402 0.035933 0 255 255
0.470151 -0.080796 0.101933 0 255 255
0.429652 -0.090253 0.013933 0 255 255
0.411674 -0.030117 -0.100067 0 255 255
0.425113 0.180899 -0.070067 0 255 255
0.558116 0.193085 -0.124067 0 255 255
0.407627 -0.000252 -0.070067 0 255 255
0.467627 -0.097660 0.111933 0 255 255
0.408263 -0.006594 -0.127064 0 255 255
0.471963 0.199290 -0.056067 0 255 255
0.507859 0.194453 -0.008067 0 255 255
0.408340 0.185081 -0.102067 0 255 255
0.448943 0.094570 0.015933 0 255 255
0.489758 -0.010423 0.075104 0 255 255
0.468672 -0.094994 0.135933 0 255 255
0.414926 -0.103072 -0.028067 0 255 255
0.428010 -0.023885 0.003933 0 255 255
0.427971 0.192554 -0.056067 0 255 255
0.486834 0.010919 0.075016 0 255 255
0.539298 -0.109347 -0.063012 0 255 255
0.410125 0.116615 -0.084475 0 255 255
0.432357 0.015636 0.009933 0 255 255
0.420880 -0.013862 -0.055040 0 255 255
0.428730 0.161446 -0.014067 0 255 255
0.461607 0.017208 0.076037 0 255 255
0.422357 -0.049272 -0.045042 0 255 255
0.417938 0.036340 -0.080067 0 255 255
0.430999 0.092860 -0.000341 0 255 255
0.491561 0.166392 0.147933 0 255 255
0.465401 0.144058 0.051933 0 255 255
0.436393 -0.096057 0.003933 0 255 255
0.424181 0.127539 -0.066067 0 255 255
0.423441 0.049397 -0.018067 0 255 255
0.417372 0.133359 -0.098067 0 255 255
0.474706 -0.066446 0.185933 0 255 255
0.462586 -0.040751 0.059933 0 255 255
0.447596 -0.072054 0.054536 0 255 255
0.458686 -0.015044 0.049933 0 255 255
0.476376 0.167382 0.157933 0 255 255
0.475355 0.130223 0.071932 0 255 255
0.435659 0.180331 0.003933 0 255 255
0.477984 0.198635 -0.078162 0 255 255
0.457654 0.121255 0.033933 0 255 255
0.454519 -0.030494 0.065933 0 255 255
0.440309 0.168865 0.017933 0 255 255
0.490283 -0.074452 0.078741 0 255 255
0.457663 -0.106078 -0.104068 0 255 255
0.429784 0.037510 0.001933 0 255 255
0.472645 0.164925 0.063933 0 255 255
0.465913 -0.056456 0.203933 0 255 255
0.523238 0.198259 -0.094067 0 255 255
0.417996 -0.070858 -0.062068 0 255 255
0.447538 0.018655 0.047346 0 255 255
0.479549 0.018918 0.245932 0 255 255
0.415938 0.065522 -0.044068 0 255 255
0.461503 0.138847 0.067933 0 255 255
0.421521 -0.030511 -0.016068 0 255 255
0.436451 -0.001254 0.023933 0 255 255
0.461664 -0.073500 0.078445 0 255 255
0.431287 0.127829 -0.004067 0 255 255
0.414443 0.111416 -0.058068 0 255 255
0.403784 0.180033 -0.132068 0 255 255
0.439178 0.200066 -0.041842 0 255 255
0.476095 0.112534 0.073933 0 255 255
0.474207 0.034679 0.236026 0 255 255
0.453622 -0.001414 0.061933 0 255 255
0.440726 -0.074463 0.037933 0 255 255
0.469825 0.029588 0.069933 0 255 255
0.457283 -0.049734 0.048943 0 255 255
0.488425 0.199178 -0.040067 0 255 255
0.440314 0.195660 0.015933 0 255 255
0.412822 0.053024 -0.100067 0 255 255
0.398869 -0.002191 -0.114067 0 255 255
0.484284 0.178514 0.137933 0 255 255
0.560198 0.197693 -0.066067 0 255 255
0.424756 -0.006584 -0.043058 0 255 255
0.395810 -0.048836 -0.130067 0 255 255
0.455963 0.201252 0.033933 0 255 255
0.418373 -0.052401 -0.024067 0 255 255
0.428841 0.042872 -0.034068 0 255 255
0.408625 0.172643 -0.098067 0 255 255
0.433729 -0.056229 0.045933 0 255 255
0.422620 0.119684 -0.028067 0 255 255
0.468673 0.007201 0.079933 0 255 255
0.493665 -0.052622 0.078637 0 255 255
0.477521 0.163710 0.193809 0 255 255
0.408241 -0.027201 -0.116067 0 255 255
0.406927 -0.102894 -0.102067 0 255 255
0.415064 -0.049514 -0.078067 0 255 255
0.458344 0.194269 -0.074067 0 255 255
0.414036 0.029068 -0.096067 0 255 255
0.454682 -0.088249 0.069933 0 255 255
0.404023 -0.067374 -0.082067 0 255 255
0.413490 0.134328 -0.124067 0 255 255
0.450327 0.191102 0.039932 0 255 255
0.463925 0.113508 0.051933 0 255 255
0.420917 -0.005626 -0.020067 0 255 255
0.400239 -0.012839 -0.106067 0 255 255
0.448036 0.160755 0.037933 0 255 255
0.412457 0.146952 -0.126067 0 255 255
0.423218 0.115412 -0.068067 0 255 255
0.454848 -0.034699 0.042946 0 255 255
0.411641 0.089442 -0.064067 0 255 255
0.450100 0.194270 -0.060067 0 255 255
0.464279 -0.104347 -0.044068 0 255 255
0.440462 0.131725 0.021933 0 255 255
0.454702 0.196195 0.005076 0 255 255
0.489175 0.144314 0.192896 0 255 255
0.482991 -0.082941 0.133932 0 255 255
0.431197 0.110188 -0.002068 0 255 255
0.522413 0.194952 -0.046067 0 255 255
0.461638 -0.032269 0.078313 0 255 255
0.427308 0.073168 -0.008067 0 255 255
0.415011 0.061805 -0.089028 0 255 255
0.416416 0.014047 -0.038067 0 255 255
0.421353 -0.065511 -0.048068 0 255 255
0.440497 -0.049671 0.035933 0 255 255
0.472678 0.152550 0.079540 0 255 255
0.485898 -0.042440 0.079468 0 255 255
0.426709 -0.044173 -0.034068 0 255 255
0.424713 0.030528 -0.048068 0 255 255
0.420742 0.171683 -0.090068 0 255 255
0.476189 0.199083 -0.100067 0 255 255
0.485269 0.182391 0.087933 0 255 255
0.408861 0.104563 -0.082067 0 255 255
0.452744 0.021479 0.057932 0 255 255
0.446514 0.035400 0.017933 0 255 255
0.411151 0.029788 -0.109046 0 255 255
0.458635 0.075663 0.041933 0 255 255
0.499196 -0.104844 -0.048068 0 255 255
0.454791 0.027152 0.037933 0 255 255
0.453787 0.109852 0.028953 0 255 255
0.480966 0.041239 0.249933 0 255 255
0.503982 0.195439 -0.022067 0 255 255
0.405303 -0.028529 -0.078067 0 255 255
0.428622 -0.044650 0.005933 0 255 255
0.411907 -0.032237 -0.048068 0 255 255
0.431005 0.006287 -0.022067 0 255 255
0.447970 0.103057 0.042436 0 255 255
0.446969 0.119796 0.011932 0 255 255
0.450357 0.083911 0.021933 0 255 255
0.449632 0.126258 0.043932 0 255 255
0.404398 -0.030366 -0.137024 0 255 255
0.488410 0.198097 -0.022067 0 255 255
0.417092 0.032430 -0.038067 0 255 255
0.462631 -0.081986 0.061933 0 255 255
0.535724 0.196606 -0.106067 0 255 255
0.536221 0.198543 -0.084067 0 255 255
0.450690 0.141543 0.043932 0 255 255
0.428992 0.155197 -0.050067 0 255 255
0.476485 -0.088460 0.121933 0 255 255
0.420827 0.039743 -0.068067 0 255 255
0.441278 -0.093152 0.015933 0 255 255
0.434772 0.153756 -0.026067 0 255 255
0.482058 -0.107443 -0.006405 0 255 255
0.423037 0.146376 -0.030068 0 255 255
0.418287 0.194968 -0.108067 0 255 255
0.464447 0.127806 0.050954 0 255 255
0.431929 0.125607 -0.034068 0 255 255
0.470558 -0.106636 -0.078067 0 255 255
0.476237 -0.105991 -0.022076 0 255 255
0.403735 0.167678 -0.132068 0 255 255
0.521887 0.192843 -0.026067 0 255 255
0.470971 0.195305 0.023933 0 255 255
0.436248 0.192551 0.003933 0 255 255
0.426010 0.193042 -0.026067 0 255 255
0.404925 0.194961 -0.132068 0 255 255
0.546141 0.190920 -0.118068 0 255 255
0.467574 -0.013137 0.235932 0 255 255
0.405406 0.150772 -0.114067 0 255 255
0.423006 0.060803 -0.054067 0 255 255
0.423012 0.078361 -0.022067 0 255 255
0.417597 0.196183 -0.124067 0 255 255
0.447376 -0.018407 0.049933 0 255 255
0.463472 0.029110 0.057932 0 255 255
0.431762 -0.102491 -0.068067 0 255 255
0.458485 -0.006749 0.071932 0 255 255
0.473024 0.049402 0.253932 0 255 255
0.412450 -0.102455 -0.084067 0 255 255
0.465874 -0.106220 -0.094067 0 255 255
