ply
format ascii 1.0
element vertex 1196
property float x
property float y
property float z
property uchar red
property uchar green
property uchar blue
end_header
-0.812247 -0.231297 -0.834773 0 255 255
-0.551066 -0.464700 -0.775277 0 255 255
-0.680780 -0.482111 -0.779865 0 255 255
-0.948997 -0.316732 -0.834819 0 255 255
-0.535491 -0.352946 -0.827865 0 255 255
-0.744205 -0.363300 -0.835865 0 255 255
-0.489938 -0.183259 -0.799865 0 255 255
-0.889184 -0.333535 -0.834834 0 255 255
-0.529082 -0.414165 -0.837865 0 255 255
-0.450263 -0.107860 -0.805865 0 255 255
-0.920440 -0.442107 -0.821865 0 255 255
-0.694202 -0.053965 -0.783865 0 255 255
-0.666064 -0.125375 -0.833865 0 255 255
-0.811151 -0.303094 -0.834773 0 255 255
-0.840803 -0.437874 -0.835865 0 255 255
-0.872315 -0.023307 -0.827865 0 255 255
-0.601722 -0.241286 -0.827338 0 255 255
-0.792009 -0.227420 -0.835865 0 255 255
-0.662745 -0.244673 -0.835865 0 255 255
-0.576295 -0.458342 -0.793865 0 255 255
-0.810061 -0.446453 -0.833865 0 255 255
-0.748735 -0.086410 -0.833865 0 255 255
-0.674711 -0.113314 -0.775150 0 255 255
-0.571240 -0.102593 -0.835865 0 255 255
-0.868918 -0.295909 -0.835865 0 255 255
-0.941692 -0.426653 -0.816839 0 255 255
-0.801331 -0.405371 -0.831865 0 255 255
-0.745652 -0.384490 -0.835865 0 255 255
-0.698802 -0.048898 -0.761865 0 255 255
-0.730991 -0.277194 -0.835865 0 255 255
-0.735556 -0.361093 -0.835865 0 255 255
-0.804491 -0.190007 -0.835865 0 255 255
-0.864152 -0.321585 -0.827865 0 255 255
-0.563346 -0.512855 -0.793865 0 255 255
-0.563763 -0.428240 -0.837865 0 255 255
-0.809972 -0.417847 -0.785865 0 255 255
-0.781967 -0.108083 -0.779865 0 255 255
-0.566092 -0.458433 -0.833865 0 255 255
-0.629332 -0.433751 -0.791865 0 255 255
-0.759915 -0.201527 -0.835865 0 255 255
-0.737910 -0.487594 -0.697865 0 255 255
-0.726471 -0.404925 -0.834727 0 255 255
-0.907511 -0.049518 -0.783865 0 255 255
-0.583797 -0.061074 -0.809865 0 255 255
-0.721200 -0.130014 -0.792836 0 255 255
-0.664949 -0.230921 -0.835865 0 255 255
-0.929991 -0.448560 -0.835865 0 255 255
-0.782585 -0.466911 -0.733865 0 255 255
-0.691135 -0.402212 -0.836838 0 255 255
-0.794999 -0.313685 -0.835865 0 255 255
-0.750396 -0.291471 -0.835865 0 255 255
-0.877888 -0.463160 -0.751865 0 255 255
-0.778885 -0.062546 -0.827865 0 255 255
-0.754866 -0.043115 -0.807865 0 255 255
-0.553221 -0.513314 -0.836849 0 255 255
-0.984267 -0.444184 -0.800749 0 255 255
-0.593987 -0.493480 -0.833865 0 255 255
-0.843356 -0.071333 -0.825865 0 255 255
-0.882308 -0.464715 -0.757865 0 255 255
-0.658949 -0.188228 -0.835865 0 255 255
-0.838037 -0.304533 -0.835865 0 255 255
-0.677800 -0.272142 -0.836858 0 255 255
-0.459157 -0.114149 -0.807865 0 255 255
-0.843719 -0.090779 -0.789865 0 255 255
-0.783726 -0.077874 -0.780949 0 255 255
-0.566653 -0.244651 -0.835865 0 255 255
-0.665621 -0.123425 -0.793865 0 255 255
-0.813107 -0.398873 -0.779865 0 255 255
-0.709060 -0.212336 -0.835865 0 255 255
-0.669055 -0.486648 -0.797865 0 255 255
-0.584867 -0.461605 -0.773865 0 255 255
-0.481652 -0.174797 -0.825865 0 255 255
-0.665832 -0.336027 -0.835865 0 255 255
-0.555423 -0.533293 -0.836860 0 255 255
-0.691247 -0.037195 -0.831865 0 255 255
-0.734694 -0.323435 -0.835865 0 255 255
-0.745265 -0.286427 -0.835865 0 255 255
-0.888577 -0.070955 -0.819865 0 255 255
-0.745424 -0.104418 -0.833865 0 255 255
-0.588992 -0.210251 -0.835865 0 255 255
-0.723328 -0.417861 -0.823865 0 255 255
-0.754598 -0.037038 -0.758813 0 255 255
-0.671632 -0.295945 -0.835865 0 255 255
-0.688596 -0.500897 -0.791865 0 255 255
-0.791539 -0.335888 -0.834773 0 255 255
-0.631528 -0.106135 -0.827865 0 255 255
-0.682550 -0.491958 -0.785865 0 255 255
-0.637621 -0.111973 -0.835865 0 255 255
-0.753345 -0.112957 -0.775865 0 255 255
-0.929507 -0.407802 -0.817865 0 255 255
-0.538281 -0.087107 -0.814806 0 255 255
-0.834238 -0.363616 -0.836837 0 255 255
-0.739630 -0.418738 -0.823865 0 255 255
-0.698703 -0.264660 -0.835865 0 255 255
-0.770570 -0.092939 -0.786854 0 255 255
-0.621233 -0.511126 -0.785865 0 255 255
-0.737195 -0.498746 -0.759865 0 255 255
-0.530771 -0.162312 -0.835865 0 255 255
-0.644027 -0.185266 -0.835865 0 255 255
-0.540236 -0.509940 -0.830219 0 255 255
-0.923486 -0.365093 -0.827865 0 255 255
-0.557714 -0.520538 -0.807865 0 255 255
-0.806803 -0.398073 -0.788817 0 255 255
-0.768430 -0.357157 -0.835865 0 255 255
-0.977706 -0.449668 -0.805865 0 255 255
-0.687563 -0.366167 -0.836817 0 255 255
-0.831141 -0.089322 -0.793865 0 255 255
-0.529685 -0.171715 -0.835865 0 255 255
-0.993217 -0.438192 -0.796329 0 255 255
-0.643883 -0.256860 -0.836839 0 255 255
-0.867147 -0.018231 -0.809865 0 255 255
-0.797329 -0.117921 -0.833865 0 255 255
-0.565404 -0.478010 -0.775865 0 255 255
-0.909447 -0.159519 -0.827178 0 255 255
-0.633241 -0.533860 -0.833865 0 255 255
-0.629999 -0.451274 -0.783865 0 255 255
-0.633471 -0.492167 -0.805865 0 255 255
-0.681958 -0.508442 -0.835865 0 255 255
-0.688401 -0.485542 -0.775865 0 255 255
-0.706352 -0.069784 -0.727735 0 255 255
-0.505807 -0.174820 -0.835865 0 255 255
-0.772403 -0.082326 -0.786494 0 255 255
-0.829474 -0.456639 -0.836749 0 255 255
-0.493537 -0.121153 -0.833865 0 255 255
-0.720016 -0.422654 -0.778616 0 255 255
-0.547940 -0.074830 -0.836853 0 255 255
-0.676174 -0.504975 -0.757865 0 255 255
-0.749096 -0.492126 -0.675040 0 255 255
-0.963410 -0.423016 -0.813865 0 255 255
-0.634064 -0.052434 -0.833865 0 255 255
-0.785768 -0.106720 -0.797865 0 255 255
-0.930994 -0.112001 -0.833865 0 255 255
-0.724580 -0.429862 -0.835865 0 255 255
-0.534622 -0.271906 -0.827658 0 255 255
-0.890476 -0.460031 -0.835865 0 255 255
-0.771110 -0.076239 -0.797865 0 255 255
-0.566799 -0.130117 -0.835865 0 255 255
-0.922354 -0.441485 -0.809865 0 255 255
-0.811368 -0.415505 -0.833865 0 255 255
-0.965281 -0.345237 -0.791865 0 255 255
-0.773869 -0.041121 -0.772859 0 255 255
-0.619858 -0.509373 -0.778851 0 255 255
-0.861561 -0.059285 -0.834863 0 255 255
-0.880895 -0.059265 -0.789865 0 255 255
-0.837679 -0.025512 -0.809865 0 255 255
-0.479051 -0.150813 -0.779865 0 255 255
-0.525298 -0.108268 -0.817865 0 255 255
-0.793676 -0.057357 -0.834733 0 255 255
-0.733742 -0.444273 -0.835865 0 255 255
-0.726237 -0.124853 -0.834803 0 255 255
-0.481942 -0.154288 -0.793865 0 255 255
-0.476671 -0.253554 -0.833865 0 255 255
-0.973692 -0.250142 -0.829180 0 255 255
-0.738483 -0.490293 -0.806927 0 255 255
-0.475194 -0.175081 -0.835865 0 255 255
-0.790784 -0.091850 -0.831865 0 255 255
-0.919270 -0.080678 -0.833865 0 255 255
-0.745694 -0.505118 -0.803865 0 255 255
-0.616306 -0.492659 -0.819865 0 255 255
-0.925668 -0.428223 -0.797865 0 255 255
-0.647029 -0.127377 -0.826234 0 255 255
-0.855417 -0.395919 -0.788449 0 255 255
-0.761431 -0.213473 -0.827229 0 255 255
-0.601296 -0.499006 -0.827188 0 255 255
-0.560308 -0.171493 -0.779865 0 255 255
-0.679584 -0.410802 -0.835865 0 255 255
-0.579975 -0.552610 -0.787401 0 255 255
-0.832263 -0.036887 -0.834801 0 255 255
-0.471765 -0.130091 -0.805865 0 255 255
-0.812011 -0.454217 -0.829865 0 255 255
-0.478373 -0.161180 -0.794841 0 255 255
-0.509956 -0.095172 -0.831865 0 255 255
-0.784024 -0.112570 -0.833865 0 255 255
-0.616648 -0.128734 -0.831865 0 255 255
-0.881808 -0.447560 -0.791865 0 255 255
-0.668638 -0.113596 -0.831865 0 255 255
-0.969033 -0.449467 -0.827335 0 255 255
-0.711803 -0.489830 -0.836773 0 255 255
-0.715056 -0.043398 -0.729309 0 255 255
-0.840806 -0.396980 -0.827865 0 255 255
-0.550555 -0.520015 -0.800227 0 255 255
-0.796015 -0.481993 -0.819865 0 255 255
-0.889747 -0.470856 -0.829865 0 255 255
-0.902576 -0.175292 -0.834749 0 255 255
-0.852335 -0.400663 -0.823333 0 255 255
-0.515925 -0.106985 -0.781865 0 255 255
-0.618780 -0.485066 -0.781205 0 255 255
-0.805951 -0.490265 -0.821739 0 255 255
-0.978570 -0.378900 -0.781865 0 255 255
-0.599621 -0.471881 -0.835865 0 255 255
-0.549726 -0.419917 -0.827865 0 255 255
-0.903558 -0.226201 -0.827865 0 255 255
-0.689661 -0.439330 -0.793865 0 255 255
-0.934337 -0.228523 -0.827865 0 255 255
-0.748944 -0.486025 -0.833865 0 255 255
-0.948099 -0.437559 -0.826894 0 255 255
-0.848278 -0.410428 -0.781865 0 255 255
-0.648872 -0.068709 -0.677865 0 255 255
-0.679842 -0.474132 -0.815468 0 255 255
-0.580950 -0.470616 -0.791313 0 255 255
-0.603914 -0.520941 -0.790990 0 255 255
-0.667584 -0.089407 -0.833865 0 255 255
-0.832561 -0.177907 -0.827865 0 255 255
-0.811131 -0.399198 -0.829302 0 255 255
-0.741801 -0.422113 -0.781865 0 255 255
-0.566699 -0.134228 -0.827083 0 255 255
-0.872612 -0.467194 -0.807865 0 255 255
-0.821991 0.001823 -0.808116 0 255 255
-0.854585 -0.392006 -0.818888 0 255 255
-0.689096 -0.508053 -0.783865 0 255 255
-1.005488 -0.404914 -0.797865 0 255 255
-0.787760 -0.087240 -0.790600 0 255 255
-0.596997 -0.142101 -0.773537 0 255 255
-0.850088 0.013930 -0.827129 0 255 255
-0.671824 -0.504462 -0.809865 0 255 255
-0.970422 -0.446381 -0.791865 0 255 255
-0.750013 -0.461261 -0.831865 0 255 255
-0.927860 -0.342343 -0.827865 0 255 255
-0.779068 -0.099311 -0.799865 0 255 255
-0.827689 -0.015368 -0.769923 0 255 255
-0.842711 -0.403482 -0.773865 0 255 255
-0.657156 -0.107681 -0.831865 0 255 255
-0.941266 -0.299592 -0.827865 0 255 255
-0.733805 -0.420192 -0.817865 0 255 255
-0.907575 -0.362341 -0.802844 0 255 255
-0.858098 -0.403527 -0.797865 0 255 255
-0.722416 -0.485529 -0.833865 0 255 255
-0.961766 -0.367180 -0.771078 0 255 255
-0.836720 -0.163665 -0.833865 0 255 255
-0.563021 -0.097685 -0.829865 0 255 255
-0.981356 -0.430490 -0.795478 0 255 255
-0.688403 -0.439597 -0.779865 0 255 255
-0.858305 -0.082468 -0.771865 0 255 255
-0.556331 -0.152789 -0.830743 0 255 255
-0.555475 -0.456582 -0.801865 0 255 255
-0.708925 -0.089684 -0.767865 0 255 255
-0.745724 -0.490799 -0.707865 0 255 255
-0.533311 -0.100431 -0.801865 0 255 255
-0.912015 -0.377753 -0.791865 0 255 255
-0.618650 -0.436359 -0.775865 0 255 255
-0.759201 -0.126025 -0.832606 0 255 255
-0.621682 -0.335188 -0.827218 0 255 255
-0.527129 -0.073120 -0.827085 0 255 255
-0.636333 -0.144383 -0.829865 0 255 255
-0.739872 -0.410255 -0.777416 0 255 255
-0.870939 -0.453960 -0.751865 0 255 255
-0.824189 -0.066238 -0.775865 0 255 255
-0.702401 -0.051197 -0.779865 0 255 255
-0.702657 -0.504514 -0.807865 0 255 255
-0.810081 -0.442359 -0.736061 0 255 255
-0.820034 -0.421842 -0.834686 0 255 255
-0.696030 -0.482959 -0.790765 0 255 255
-0.895156 -0.438589 -0.834693 0 255 255
-0.568733 -0.163039 -0.779865 0 255 255
-0.628582 -0.386883 -0.834664 0 255 255
-0.821184 -0.071957 -0.789865 0 255 255
-0.632864 -0.516832 -0.817865 0 255 255
-0.573124 -0.472279 -0.794855 0 255 255
-0.864905 -0.402081 -0.804691 0 255 255
-0.768111 -0.312242 -0.836853 0 255 255
-1.011949 -0.430121 -0.834696 0 255 255
-0.447952 -0.143111 -0.827238 0 255 255
-0.553071 -0.435648 -0.834680 0 255 255
-0.547230 -0.504364 -0.834700 0 255 255
-0.596339 -0.427584 -0.827865 0 255 255
-0.944756 -0.133242 -0.827865 0 255 255
-0.628742 -0.204872 -0.834701 0 255 255
-0.940491 -0.392148 -0.834729 0 255 255
-0.645392 -0.167770 -0.827865 0 255 255
-0.707646 -0.047018 -0.734746 0 255 255
-0.856050 -0.350801 -0.834733 0 255 255
-0.650943 -0.126545 -0.834733 0 255 255
-0.684425 -0.235975 -0.834706 0 255 255
-0.990972 -0.365061 -0.773865 0 255 255
-0.920636 -0.404548 -0.834750 0 255 255
-0.882506 -0.083459 -0.779865 0 255 255
-0.785599 -0.474144 -0.735865 0 255 255
-0.595484 -0.106116 -0.829865 0 255 255
-0.669021 -0.259696 -0.834720 0 255 255
-0.683972 -0.066362 -0.727865 0 255 255
-0.870425 -0.274137 -0.834738 0 255 255
-0.718165 -0.106122 -0.782788 0 255 255
-0.726188 -0.153489 -0.834726 0 255 255
-0.638232 -0.211034 -0.834724 0 255 255
-0.783856 -0.251644 -0.834738 0 255 255
-0.460595 -0.183362 -0.834689 0 255 255
-0.649997 -0.276008 -0.834728 0 255 255
-0.579995 -0.088463 -0.809865 0 255 255
-0.579371 -0.241947 -0.834747 0 255 255
-0.792275 -0.435921 -0.737865 0 255 255
-0.755533 -0.147252 -0.834741 0 255 255
-0.904059 -0.461233 -0.834718 0 255 255
-0.884127 -0.434799 -0.754857 0 255 255
-0.646014 -0.060118 -0.729865 0 255 255
-0.741781 -0.438475 -0.834709 0 255 255
-0.892230 -0.078514 -0.785865 0 255 255
-0.639667 -0.525610 -0.838859 0 255 255
-0.601052 -0.478611 -0.838850 0 255 255
-0.805130 -0.226676 -0.834739 0 255 255
-0.757457 -0.444889 -0.829865 0 255 255
-0.575866 -0.081161 -0.834749 0 255 255
-0.881208 -0.257532 -0.834746 0 255 255
-0.576017 -0.158828 -0.829391 0 255 255
-0.599473 -0.249942 -0.834703 0 255 255
-0.454290 -0.086557 -0.789865 0 255 255
-0.697258 -0.046236 -0.805865 0 255 255
-0.685843 -0.223405 -0.834728 0 255 255
-0.538357 -0.125940 -0.836817 0 255 255
-0.668257 -0.131043 -0.774529 0 255 255
-0.545595 -0.140758 -0.834732 0 255 255
-0.772393 -0.342002 -0.834733 0 255 255
-0.949394 -0.414792 -0.812900 0 255 255
-0.589329 -0.057921 -0.795865 0 255 255
-0.909484 -0.390560 -0.806859 0 255 255
-0.848111 -0.068278 -0.789865 0 255 255
-0.677037 -0.114639 -0.767865 0 255 255
-0.800679 -0.503942 -0.833865 0 255 255
-0.743795 -0.149747 -0.834755 0 255 255
-0.738256 -0.373794 -0.834719 0 255 255
-0.523234 -0.401097 -0.836750 0 255 255
-0.774662 -0.237241 -0.834753 0 255 255
-0.737660 -0.404591 -0.835865 0 255 255
-0.963183 -0.354610 -0.773052 0 255 255
-0.899354 -0.265944 -0.834754 0 255 255
-0.825896 -0.483981 -0.827865 0 255 255
-0.618233 -0.309340 -0.834740 0 255 255
-0.583189 -0.298387 -0.834723 0 255 255
-0.756440 -0.189997 -0.834760 0 255 255
-0.758982 -0.173099 -0.834757 0 255 255
-0.731547 -0.207557 -0.834754 0 255 255
-0.566968 -0.501034 -0.823865 0 255 255
-0.930784 -0.442674 -0.825865 0 255 255
-0.784498 -0.370099 -0.836835 0 255 255
-0.625728 -0.084877 -0.834760 0 255 255
-0.801681 -0.200828 -0.834763 0 255 255
-0.829741 -0.063498 -0.797865 0 255 255
-0.612788 -0.476116 -0.838859 0 255 255
-0.960981 -0.334631 -0.834776 0 255 255
-0.687554 -0.202595 -0.834775 0 255 255
-0.748842 -0.308159 -0.836810 0 255 255
-0.843112 -0.318792 -0.834754 0 255 255
-0.816036 -0.220268 -0.834775 0 255 255
-0.557026 -0.537042 -0.805865 0 255 255
-0.673728 -0.454985 -0.798749 0 255 255
-0.866806 -0.266728 -0.834782 0 255 255
-0.828361 -0.201291 -0.834778 0 255 255
-0.639140 -0.075892 -0.777865 0 255 255
-0.798136 -0.232251 -0.834761 0 255 255
-0.751648 -0.215552 -0.834772 0 255 255
-0.600607 -0.409187 -0.836777 0 255 255
-0.610142 -0.463668 -0.777865 0 255 255
-0.795254 -0.286026 -0.834752 0 255 255
-0.773046 -0.200781 -0.834782 0 255 255
-0.748690 -0.230493 -0.834781 0 255 255
-0.678463 -0.294493 -0.834738 0 255 255
-0.849571 -0.249943 -0.827865 0 255 255
-0.746675 -0.081660 -0.771865 0 255 255
-0.681599 -0.424686 -0.834760 0 255 255
-0.872041 -0.310598 -0.836865 0 255 255
-0.595919 -0.541043 -0.785690 0 255 255
-0.584328 -0.082494 -0.801865 0 255 255
-0.566963 -0.058519 -0.834734 0 255 255
-0.789044 -0.324150 -0.834782 0 255 255
-0.701597 -0.326380 -0.834732 0 255 255
-0.825193 -0.426879 -0.829290 0 255 255
-0.832586 -0.096114 -0.799964 0 255 255
-0.766816 -0.335009 -0.834763 0 255 255
-0.967144 -0.325143 -0.834797 0 255 255
-0.854444 -0.477913 -0.834775 0 255 255
-0.741291 -0.397686 -0.834779 0 255 255
-0.834522 -0.191803 -0.834799 0 255 255
-0.720726 -0.416370 -0.834798 0 255 255
-0.736130 -0.392648 -0.836816 0 255 255
-0.899844 -0.306733 -0.834789 0 255 255
-0.535879 -0.441347 -0.838865 0 255 255
-0.767097 -0.047744 -0.801865 0 255 255
-0.798419 -0.483687 -0.740756 0 255 255
-0.795017 -0.429204 -0.834766 0 255 255
-0.498012 -0.195856 -0.827369 0 255 255
-0.536352 -0.154991 -0.804840 0 255 255
-0.895242 -0.217745 -0.834806 0 255 255
-0.876436 -0.186983 -0.834802 0 255 255
-0.891017 -0.322922 -0.834783 0 255 255
-0.882843 -0.197889 -0.834803 0 255 255
-0.827754 -0.313877 -0.834776 0 255 255
-0.791939 -0.464618 -0.817865 0 255 255
-0.824136 -0.306468 -0.834771 0 255 255
-0.693038 -0.093722 -0.827865 0 255 255
-0.713600 -0.248176 -0.834773 0 255 255
-0.892851 -0.312309 -0.834803 0 255 255
-0.534774 -0.349571 -0.838858 0 255 255
-0.623987 -0.461468 -0.836813 0 255 255
-0.797420 -0.074964 -0.827628 0 255 255
-0.486276 -0.121409 -0.789865 0 255 255
-0.852988 -0.259441 -0.834812 0 255 255
-0.538745 -0.147010 -0.775865 0 255 255
-0.571187 -0.376591 -0.838858 0 255 255
-0.914919 -0.060211 -0.771115 0 255 255
-0.920456 -0.259413 -0.836850 0 255 255
-0.887371 -0.248044 -0.834805 0 255 255
-0.901849 -0.277681 -0.834801 0 255 255
-0.727208 -0.466109 -0.838864 0 255 255
-0.495667 -0.261784 -0.836815 0 255 255
-0.980619 -0.369306 -0.782620 0 255 255
-0.586572 -0.448974 -0.836808 0 255 255
-1.003291 -0.427872 -0.793089 0 255 255
-0.743330 -0.039433 -0.827865 0 255 255
-0.757526 -0.377877 -0.834797 0 255 255
-0.787417 -0.460786 -0.741865 0 255 255
-0.547986 -0.469444 -0.771288 0 255 255
-0.949044 -0.153415 -0.827865 0 255 255
-0.640037 -0.132951 -0.834806 0 255 255
-0.622042 -0.306486 -0.827865 0 255 255
-0.562898 -0.404934 -0.836831 0 255 255
-0.752527 -0.412071 -0.777865 0 255 255
-0.592980 -0.084720 -0.793865 0 255 255
-0.624846 -0.494367 -0.801865 0 255 255
-0.981649 -0.422249 -0.804809 0 255 255
-0.599436 -0.442151 -0.836838 0 255 255
-0.632644 -0.463717 -0.836841 0 255 255
-0.933537 -0.417143 -0.781865 0 255 255
-0.854044 -0.091258 -0.779865 0 255 255
-0.602743 -0.130656 -0.785203 0 255 255
-0.973043 -0.439477 -0.797865 0 255 255
-0.811717 -0.382716 -0.834834 0 255 255
-0.906687 -0.223491 -0.834832 0 255 255
-0.974921 -0.352115 -0.832825 0 255 255
-0.840973 -0.058622 -0.777865 0 255 255
-0.677500 -0.116811 -0.788819 0 255 255
-0.883839 -0.072952 -0.791865 0 255 255
-0.681923 -0.070290 -0.827865 0 255 255
-0.772424 -0.034324 -0.777865 0 255 255
-0.637116 -0.061496 -0.731865 0 255 255
-0.556331 -0.152789 -0.794837 0 255 255
-0.713404 -0.093342 -0.827865 0 255 255
-0.965854 -0.222886 -0.827865 0 255 255
-0.833313 0.006274 -0.778842 0 255 255
-0.747339 -0.118323 -0.778836 0 255 255
-0.678784 -0.502982 -0.805865 0 255 255
-0.526939 -0.187662 -0.834767 0 255 255
-0.714470 -0.059880 -0.728910 0 255 255
-0.637758 -0.074141 -0.790886 0 255 255
-0.862736 -0.435257 -0.809865 0 255 255
-0.896153 -0.048879 -0.789865 0 255 255
-0.491481 -0.174752 -0.834836 0 255 255
-0.805685 -0.398311 -0.769865 0 255 255
-0.674284 -0.491671 -0.823865 0 255 255
-0.537255 -0.081191 -0.809865 0 255 255
-0.858115 -0.442373 -0.829865 0 255 255
-0.778705 -0.410180 -0.802827 0 255 255
-0.546737 -0.463575 -0.798302 0 255 255
-0.917970 -0.411248 -0.768868 0 255 255
-0.672015 -0.100632 -0.781865 0 255 255
-0.553005 -0.137139 -0.836849 0 255 255
-0.734290 -0.511631 -0.771865 0 255 255
-0.802024 -0.096629 -0.771865 0 255 255
-0.714526 -0.202996 -0.827865 0 255 255
-0.775378 -0.394529 -0.778966 0 255 255
-0.509570 -0.324258 -0.827865 0 255 255
-0.640636 -0.068441 -0.745865 0 255 255
-0.693488 -0.499857 -0.751582 0 255 255
-0.876919 -0.064200 -0.827283 0 255 255
-0.968179 -0.412844 -0.817865 0 255 255
-0.835969 -0.383695 -0.797865 0 255 255
-0.903597 -0.064663 -0.832860 0 255 255
-0.702059 -0.424745 -0.827865 0 255 255
-0.882143 -0.415837 -0.833865 0 255 255
-1.005956 -0.421172 -0.802817 0 255 255
-0.497936 -0.157023 -0.792809 0 255 255
-0.890965 -0.384273 -0.775865 0 255 255
-0.617779 -0.499592 -0.778719 0 255 255
-0.858518 -0.391272 -0.783865 0 255 255
-0.469471 -0.138537 -0.829359 0 255 255
-0.819220 -0.464953 -0.733865 0 255 255
-0.456116 -0.104571 -0.798579 0 255 255
-0.837689 -0.074583 -0.787865 0 255 255
-0.684489 -0.505616 -0.765865 0 255 255
-0.790797 -0.452592 -0.835865 0 255 255
-0.953153 -0.384381 -0.833865 0 255 255
-0.744597 -0.509440 -0.796846 0 255 255
-0.537253 -0.082274 -0.777865 0 255 255
-0.819007 -0.456820 -0.735865 0 255 255
-0.894160 -0.077974 -0.797865 0 255 255
-0.844346 -0.030229 -0.831865 0 255 255
-0.648757 -0.075892 -0.681865 0 255 255
-0.510722 -0.111367 -0.827145 0 255 255
-0.845741 -0.081050 -0.783225 0 255 255
-0.914480 -0.405856 -0.827865 0 255 255
-0.528187 -0.093342 -0.803865 0 255 255
-0.579479 -0.086529 -0.823865 0 255 255
-0.694671 -0.511873 -0.793865 0 255 255
-0.587728 -0.088865 -0.784548 0 255 255
-0.582455 -0.089985 -0.815865 0 255 255
-0.796525 -0.465151 -0.761865 0 255 255
-0.667624 -0.470595 -0.827865 0 255 255
-0.673543 -0.134009 -0.791865 0 255 255
-0.740551 -0.480785 -0.763865 0 255 255
-0.821141 -0.090368 -0.827822 0 255 255
-0.711294 -0.121895 -0.772512 0 255 255
-0.693042 -0.507374 -0.801865 0 255 255
-0.745987 -0.429402 -0.831114 0 255 255
-0.509507 -0.074821 -0.829865 0 255 255
-0.691114 -0.465602 -0.827865 0 255 255
-0.805367 -0.083498 -0.773120 0 255 255
-0.609915 -0.503308 -0.777865 0 255 255
-0.855526 -0.425295 -0.827865 0 255 255
-0.779861 -0.467185 -0.827865 0 255 255
-0.923104 -0.369263 -0.773865 0 255 255
-0.971701 -0.231155 -0.835865 0 255 255
-0.642087 -0.075265 -0.670699 0 255 255
-0.543525 -0.499017 -0.829865 0 255 255
-0.730949 -0.495984 -0.743865 0 255 255
-0.815194 -0.476032 -0.732904 0 255 255
-0.616782 -0.504525 -0.769865 0 255 255
-0.583401 -0.058895 -0.821865 0 255 255
-0.617728 -0.451251 -0.789865 0 255 255
-0.748812 -0.508544 -0.779865 0 255 255
-0.667315 -0.453682 -0.801865 0 255 255
-0.741349 -0.109373 -0.772144 0 255 255
-0.853118 -0.447524 -0.785865 0 255 255
-0.867676 -0.078432 -0.827037 0 255 255
-0.571465 -0.542150 -0.795865 0 255 255
-0.773773 -0.098392 -0.780907 0 255 255
-0.679749 -0.117776 -0.777865 0 255 255
-0.857301 -0.448680 -0.793865 0 255 255
-0.985450 -0.353553 -0.825865 0 255 255
-0.701802 -0.510110 -0.827865 0 255 255
-0.449688 -0.105938 -0.795865 0 255 255
-0.694661 -0.043644 -0.736540 0 255 255
-0.960410 -0.432897 -0.815865 0 255 255
-0.590546 -0.169464 -0.827865 0 255 255
-0.630761 -0.065405 -0.779865 0 255 255
-0.932128 -0.381658 -0.782334 0 255 255
-0.745553 -0.100301 -0.825925 0 255 255
-0.962504 -0.356799 -0.795865 0 255 255
-0.691042 -0.036234 -0.728214 0 255 255
-0.722970 -0.138341 -0.769865 0 255 255
-0.734251 -0.376690 -0.827865 0 255 255
-0.920172 -0.431227 -0.776801 0 255 255
-0.867244 -0.387271 -0.827865 0 255 255
-0.617091 -0.467501 -0.789865 0 255 255
-0.651108 -0.065169 -0.671865 0 255 255
-0.702312 -0.056330 -0.815865 0 255 255
-0.993401 -0.448672 -0.827865 0 255 255
-0.878524 -0.360337 -0.827286 0 255 255
-0.685735 -0.347951 -0.827865 0 255 255
-0.850446 -0.088228 -0.833865 0 255 255
-0.808030 -0.500046 -0.829246 0 255 255
-0.674635 -0.417988 -0.779865 0 255 255
-0.858114 -0.440328 -0.775865 0 255 255
-0.882665 -0.473959 -0.829865 0 255 255
-0.942230 -0.438806 -0.773456 0 255 255
-0.849010 -0.385013 -0.784485 0 255 255
-0.883282 -0.050579 -0.785865 0 255 255
-0.492207 -0.130068 -0.829865 0 255 255
-0.584028 -0.067159 -0.799865 0 255 255
-0.684443 -0.053288 -0.827865 0 255 255
-0.864959 -0.460051 -0.769865 0 255 255
-0.727078 -0.494355 -0.779865 0 255 255
-0.617085 -0.467471 -0.777865 0 255 255
-0.607167 -0.074509 -0.751493 0 255 255
-0.546200 -0.465734 -0.785865 0 255 255
-0.704056 -0.087840 -0.773865 0 255 255
-0.741555 -0.321976 -0.829379 0 255 255
-0.582919 -0.462019 -0.829865 0 255 255
-0.594704 -0.132365 -0.781865 0 255 255
-0.802423 -0.473663 -0.773865 0 255 255
-0.663450 -0.454733 -0.773865 0 255 255
-0.573861 -0.533463 -0.795644 0 255 255
-0.600389 -0.223167 -0.827865 0 255 255
-0.949852 -0.390159 -0.829865 0 255 255
-0.995902 -0.351745 -0.773865 0 255 255
-0.637898 -0.084416 -0.767865 0 255 255
-0.636250 -0.057420 -0.747865 0 255 255
-0.797025 -0.130831 -0.827865 0 255 255
-0.678180 -0.423368 -0.775865 0 255 255
-0.709471 -0.507717 -0.835865 0 255 255
-0.591197 -0.461111 -0.833865 0 255 255
-0.906050 -0.381067 -0.815865 0 255 255
-0.963060 -0.344413 -0.773340 0 255 255
-0.817369 -0.005293 -0.807254 0 255 255
-0.737418 -0.490519 -0.827865 0 255 255
-0.764406 -0.077891 -0.833865 0 255 255
-0.729487 -0.101671 -0.774810 0 255 255
-0.776480 -0.313138 -0.827865 0 255 255
-0.970743 -0.428656 -0.798148 0 255 255
-0.605114 -0.079035 -0.791865 0 255 255
-0.620889 -0.139067 -0.788802 0 255 255
-0.591995 -0.126806 -0.801865 0 255 255
-0.731650 -0.044510 -0.827865 0 255 255
-0.707598 -0.085266 -0.779865 0 255 255
-0.664501 -0.452857 -0.827865 0 255 255
-0.741481 -0.499879 -0.699865 0 255 255
-0.741154 -0.506083 -0.709865 0 255 255
-0.461289 -0.196243 -0.831865 0 255 255
-0.535661 -0.488421 -0.832450 0 255 255
-0.756907 -0.413444 -0.831865 0 255 255
-0.842445 -0.382990 -0.777865 0 255 255
-0.643130 -0.109804 -0.773865 0 255 255
-0.670629 -0.132584 -0.827173 0 255 255
-0.548339 -0.131996 -0.827865 0 255 255
-0.561321 -0.445607 -0.799865 0 255 255
-0.732746 -0.497646 -0.781865 0 255 255
-0.829148 -0.113202 -0.833865 0 255 255
-0.604532 -0.139064 -0.819865 0 255 255
-0.922219 -0.095464 -0.827865 0 255 255
-0.623158 -0.034306 -0.829306 0 255 255
-0.696045 -0.338738 -0.835865 0 255 255
-0.718567 -0.079154 -0.829865 0 255 255
-0.734354 -0.480485 -0.789865 0 255 255
-0.947101 -0.144281 -0.833865 0 255 255
-0.626041 -0.501925 -0.771865 0 255 255
-0.627153 -0.117289 -0.831865 0 255 255
-0.695402 -0.114463 -0.781865 0 255 255
-0.676905 -0.085160 -0.833865 0 255 255
-0.507657 -0.154957 -0.785865 0 255 255
-0.633170 -0.466191 -0.785865 0 255 255
-0.751829 -0.058073 -0.833865 0 255 255
-0.589874 -0.119079 -0.827865 0 255 255
-0.450481 -0.109858 -0.813865 0 255 255
-0.461515 -0.087066 -0.809865 0 255 255
-0.666242 -0.419772 -0.787196 0 255 255
-0.687659 -0.513364 -0.795865 0 255 255
-0.974827 -0.409386 -0.795111 0 255 255
-0.827195 -0.349722 -0.835865 0 255 255
-0.914371 -0.358852 -0.777865 0 255 255
-0.572999 -0.505021 -0.805865 0 255 255
-0.528132 -0.281464 -0.827865 0 255 255
-0.558189 -0.138081 -0.773865 0 255 255
-0.739608 -0.485965 -0.680723 0 255 255
-0.482332 -0.131714 -0.827060 0 255 255
-0.456100 -0.120932 -0.813865 0 255 255
-0.647245 -0.503552 -0.778338 0 255 255
-0.905635 -0.314736 -0.835865 0 255 255
-0.809949 -0.268589 -0.834775 0 255 255
-0.619982 -0.096321 -0.834764 0 255 255
-0.681838 -0.498244 -0.765865 0 255 255
-0.758878 -0.172603 -0.827865 0 255 255
-0.607583 -0.076466 -0.767501 0 255 255
-0.777261 -0.052667 -0.833865 0 255 255
-0.564770 -0.202112 -0.836855 0 255 255
-0.884678 -0.456630 -0.829865 0 255 255
-0.770911 -0.426149 -0.835865 0 255 255
-0.673991 -0.494706 -0.813865 0 255 255
-0.803874 -0.172669 -0.833865 0 255 255
-0.985553 -0.407106 -0.805865 0 255 255
-0.751395 -0.031585 -0.792840 0 255 255
-0.755980 -0.274410 -0.827865 0 255 255
-0.855245 -0.404732 -0.779865 0 255 255
-0.921705 -0.385918 -0.789865 0 255 255
-0.517716 -0.105791 -0.768937 0 255 255
-0.897425 -0.333827 -0.834677 0 255 255
-0.784942 -0.497241 -0.829865 0 255 255
-0.551780 -0.448821 -0.783865 0 255 255
-0.801982 -0.356160 -0.834785 0 255 255
-0.584275 -0.534359 -0.803865 0 255 255
-0.910069 -0.422172 -0.835865 0 255 255
-0.648372 -0.124075 -0.801865 0 255 255
-0.516968 -0.419710 -0.835865 0 255 255
-0.774091 -0.369232 -0.835865 0 255 255
-0.954684 -0.178529 -0.827865 0 255 255
-0.452065 -0.075890 -0.833865 0 255 255
-0.694957 -0.213289 -0.835865 0 255 255
-0.902155 -0.455503 -0.831865 0 255 255
-0.716192 -0.030888 -0.827865 0 255 255
-0.460199 -0.085301 -0.836860 0 255 255
-0.588830 -0.329903 -0.835865 0 255 255
-0.681392 -0.212083 -0.834774 0 255 255
-0.540389 -0.164357 -0.834738 0 255 255
-0.532290 -0.078157 -0.778850 0 255 255
-0.791029 -0.391203 -0.800574 0 255 255
-0.647759 -0.298975 -0.835865 0 255 255
-0.554348 -0.460899 -0.835865 0 255 255
-0.813655 -0.406840 -0.781865 0 255 255
-0.823992 -0.468028 -0.737865 0 255 255
-0.915535 -0.063108 -0.833865 0 255 255
-0.833032 -0.020366 -0.769865 0 255 255
-0.740287 -0.166850 -0.835865 0 255 255
-0.618176 -0.174403 -0.834733 0 255 255
-0.710366 -0.223340 -0.835865 0 255 255
-0.750340 -0.031809 -0.803865 0 255 255
-0.795507 -0.320732 -0.835865 0 255 255
-0.885262 -0.444782 -0.759865 0 255 255
-0.633118 -0.177361 -0.836846 0 255 255
-0.718066 -0.435337 -0.793865 0 255 255
-0.582706 -0.179898 -0.827865 0 255 255
-0.964000 -0.406553 -0.835865 0 255 255
-0.629303 -0.270183 -0.835865 0 255 255
-0.508050 -0.381832 -0.833865 0 255 255
-0.826864 -0.256816 -0.835865 0 255 255
-0.755543 -0.310824 -0.834752 0 255 255
-0.814524 -0.290109 -0.834817 0 255 255
-0.924851 -0.135798 -0.834829 0 255 255
-0.732661 -0.495620 -0.689865 0 255 255
-0.533063 -0.370382 -0.836799 0 255 255
-0.601047 -0.114659 -0.777865 0 255 255
-0.637239 -0.239871 -0.835865 0 255 255
-0.803154 -0.323195 -0.826996 0 255 255
-0.899245 -0.371243 -0.787865 0 255 255
-0.655612 -0.090793 -0.834812 0 255 255
-0.868779 -0.444195 -0.759865 0 255 255
-0.730336 -0.432729 -0.836808 0 255 255
-0.751989 -0.178675 -0.834765 0 255 255
-0.748973 -0.481929 -0.755000 0 255 255
-0.562789 -0.510233 -0.835865 0 255 255
-0.554646 -0.510399 -0.809865 0 255 255
-0.838784 -0.466929 -0.835865 0 255 255
-0.518975 -0.063619 -0.835865 0 255 255
-0.680136 -0.042642 -0.834817 0 255 255
-0.987995 -0.346291 -0.787865 0 255 255
-0.888656 -0.061705 -0.828827 0 255 255
-0.994374 -0.385915 -0.833865 0 255 255
-0.819438 -0.274751 -0.834737 0 255 255
-0.643684 -0.207830 -0.836837 0 255 255
-0.689522 -0.471575 -0.757865 0 255 255
-0.918338 -0.427528 -0.829865 0 255 255
-0.673859 -0.219819 -0.835865 0 255 255
-0.680372 -0.337026 -0.835865 0 255 255
-0.955549 -0.431886 -0.829865 0 255 255
-0.672759 -0.325378 -0.835865 0 255 255
-0.800663 -0.479121 -0.807865 0 255 255
-0.571615 -0.527806 -0.805865 0 255 255
-0.836298 -0.455189 -0.835865 0 255 255
-0.840728 0.009872 -0.815865 0 255 255
-0.753690 -0.205911 -0.835865 0 255 255
-0.631620 -0.458898 -0.799865 0 255 255
-0.724714 -0.454370 -0.836811 0 255 255
-0.739515 -0.500297 -0.687865 0 255 255
-0.844172 -0.015954 -0.771318 0 255 255
-0.682456 -0.318180 -0.835865 0 255 255
-0.625310 -0.506170 -0.816807 0 255 255
-0.662539 -0.209957 -0.834697 0 255 255
-0.543563 -0.102341 -0.782692 0 255 255
-0.738282 -0.229624 -0.835865 0 255 255
-0.702004 -0.164764 -0.834780 0 255 255
-0.625236 -0.467337 -0.802645 0 255 255
-0.852273 -0.015590 -0.829865 0 255 255
-0.456660 -0.102411 -0.821865 0 255 255
-0.636483 -0.483348 -0.815865 0 255 255
-0.857337 -0.019289 -0.799865 0 255 255
-0.808642 -0.002711 -0.811865 0 255 255
-0.895973 -0.197143 -0.835865 0 255 255
-0.708263 -0.059155 -0.817865 0 255 255
-0.538138 -0.173014 -0.795967 0 255 255
-0.559275 -0.479312 -0.805865 0 255 255
-0.920938 -0.218417 -0.835865 0 255 255
-0.689159 -0.498732 -0.778879 0 255 255
-0.558626 -0.538746 -0.794815 0 255 255
-0.847540 -0.060659 -0.829865 0 255 255
-0.946313 -0.419536 -0.770970 0 255 255
-0.824202 -0.181728 -0.834807 0 255 255
-0.857487 -0.242128 -0.827066 0 255 255
-0.957551 -0.294466 -0.835865 0 255 255
-0.751459 -0.330094 -0.834765 0 255 255
-0.603127 -0.529287 -0.791865 0 255 255
-0.705734 -0.196686 -0.835865 0 255 255
-0.552361 -0.478737 -0.787865 0 255 255
-0.544479 -0.175755 -0.789865 0 255 255
-0.580904 -0.417464 -0.837865 0 255 255
-0.777175 -0.152875 -0.834783 0 255 255
-0.885699 -0.076646 -0.773463 0 255 255
-0.792098 -0.251937 -0.834748 0 255 255
-0.638345 -0.057659 -0.677396 0 255 255
-0.589082 -0.513870 -0.803865 0 255 255
-0.500020 -0.091150 -0.827865 0 255 255
-0.678890 -0.479271 -0.759865 0 255 255
-0.967663 -0.433401 -0.808854 0 255 255
-0.815186 -0.312460 -0.834754 0 255 255
-0.639004 -0.065697 -0.817865 0 255 255
-0.457039 -0.177984 -0.829865 0 255 255
-0.587956 -0.455484 -0.831865 0 255 255
-0.720460 -0.184255 -0.827865 0 255 255
-0.654803 -0.072563 -0.779865 0 255 255
-0.740689 -0.298658 -0.835865 0 255 255
-0.837584 -0.283162 -0.834803 0 255 255
-0.652123 -0.441175 -0.789865 0 255 255
-0.946966 -0.278315 -0.834797 0 255 255
-0.683131 -0.258741 -0.836862 0 255 255
-0.748465 -0.113995 -0.827054 0 255 255
-0.521940 -0.423863 -0.836770 0 255 255
-0.587122 -0.509279 -0.791865 0 255 255
-0.923840 -0.410001 -0.808317 0 255 255
-0.697412 -0.239349 -0.827530 0 255 255
-0.659494 -0.445742 -0.836844 0 255 255
-0.799536 -0.075304 -0.771865 0 255 255
-0.981602 -0.450884 -0.820638 0 255 255
-0.986898 -0.360370 -0.825865 0 255 255
-0.918576 -0.298662 -0.834755 0 255 255
-0.615275 -0.439718 -0.801865 0 255 255
-0.785897 -0.453634 -0.738492 0 255 255
-0.569606 -0.066136 -0.835865 0 255 255
-0.679379 -0.077562 -0.834772 0 255 255
-0.569325 -0.237948 -0.835865 0 255 255
-0.875964 -0.261722 -0.835865 0 255 255
-0.929662 -0.437389 -0.786849 0 255 255
-0.881434 -0.374031 -0.827083 0 255 255
-0.633031 -0.062878 -0.801865 0 255 255
-0.725669 -0.433721 -0.775865 0 255 255
-0.574486 -0.113146 -0.835865 0 255 255
-0.599663 -0.135400 -0.834830 0 255 255
-0.777992 -0.204812 -0.835865 0 255 255
-0.581465 -0.497087 -0.835865 0 255 255
-0.757217 -0.400434 -0.835865 0 255 255
-0.700876 -0.120980 -0.787865 0 255 255
-0.505785 -0.141042 -0.835865 0 255 255
-0.612818 -0.120336 -0.777501 0 255 255
-0.654377 -0.166709 -0.835865 0 255 255
-0.591946 -0.161576 -0.835865 0 255 255
-0.933590 -0.088958 -0.827865 0 255 255
-0.658324 -0.267090 -0.835865 0 255 255
-0.628798 -0.339809 -0.836858 0 255 255
-0.670089 -0.120430 -0.823246 0 255 255
-0.906604 -0.266447 -0.835865 0 255 255
-0.702455 -0.186122 -0.835865 0 255 255
-0.887419 -0.277128 -0.827865 0 255 255
-0.846580 -0.393708 -0.785865 0 255 255
-0.909976 -0.431350 -0.821212 0 255 255
-0.597553 -0.139938 -0.795865 0 255 255
-0.914134 -0.450913 -0.836857 0 255 255
-0.592934 -0.065266 -0.790853 0 255 255
-0.711313 -0.449041 -0.836863 0 255 255
-0.801852 -0.461362 -0.807865 0 255 255
-0.664682 -0.477354 -0.827865 0 255 255
-0.613707 -0.259185 -0.836855 0 255 255
-0.799620 -0.272830 -0.835865 0 255 255
-0.852758 -0.388305 -0.793865 0 255 255
-0.634732 -0.069523 -0.697865 0 255 255
-0.750306 -0.031816 -0.829865 0 255 255
-0.595921 -0.088936 -0.777865 0 255 255
-0.896605 -0.070239 -0.832830 0 255 255
-0.627136 -0.331984 -0.836829 0 255 255
-0.887527 -0.192804 -0.827865 0 255 255
-0.694614 -0.072278 -0.824387 0 255 255
-0.617940 -0.317581 -0.827251 0 255 255
-0.894970 -0.070586 -0.817865 0 255 255
-0.637157 -0.061691 -0.693865 0 255 255
-0.592422 -0.543831 -0.802784 0 255 255
-0.461030 -0.089214 -0.792127 0 255 255
-0.737650 -0.274746 -0.835865 0 255 255
-0.791888 -0.068178 -0.827865 0 255 255
-0.723742 -0.113116 -0.826858 0 255 255
-0.871068 -0.392592 -0.778794 0 255 255
-0.739961 -0.502247 -0.811865 0 255 255
-0.613093 -0.333257 -0.827865 0 255 255
-0.519161 -0.430588 -0.827865 0 255 255
-0.692353 -0.309943 -0.827865 0 255 255
-0.869329 -0.470993 -0.817865 0 255 255
-0.562069 -0.545323 -0.829865 0 255 255
-0.529011 -0.211758 -0.835865 0 255 255
-0.869354 -0.028609 -0.789865 0 255 255
-0.933197 -0.203920 -0.827865 0 255 255
-0.725532 -0.342787 -0.835865 0 255 255
-0.859089 -0.072078 -0.781865 0 255 255
-0.736127 -0.431112 -0.823865 0 255 255
-0.633636 -0.497235 -0.809865 0 255 255
-0.717083 -0.327178 -0.835865 0 255 255
-0.989985 -0.365271 -0.836847 0 255 255
-0.558182 -0.469321 -0.834815 0 255 255
-0.825394 -0.004570 -0.779865 0 255 255
-0.628937 -0.069882 -0.759865 0 255 255
-0.704737 -0.470885 -0.835865 0 255 255
-0.636070 -0.460595 -0.829865 0 255 255
-0.589442 -0.217315 -0.835865 0 255 255
-0.758715 -0.046791 -0.779865 0 255 255
-0.722095 -0.432436 -0.826887 0 255 255
-0.913568 -0.414229 -0.811865 0 255 255
-0.775140 -0.415027 -0.797865 0 255 255
-0.544935 -0.176125 -0.775865 0 255 255
-0.612333 -0.291200 -0.835865 0 255 255
-0.496490 -0.102123 -0.804851 0 255 255
-0.677845 -0.455117 -0.803865 0 255 255
-0.843972 -0.390173 -0.834809 0 255 255
-0.660583 -0.123799 -0.813865 0 255 255
-0.642448 -0.120172 -0.795865 0 255 255
-0.697031 -0.516521 -0.835865 0 255 255
-0.645124 -0.050084 -0.827865 0 255 255
-0.860064 -0.081100 -0.833865 0 255 255
-0.467419 -0.128890 -0.797865 0 255 255
-0.692083 -0.041133 -0.813865 0 255 255
-0.861489 -0.434104 -0.785865 0 255 255
-0.972113 -0.444723 -0.836860 0 255 255
-0.900130 -0.134919 -0.827381 0 255 255
-0.684836 -0.449536 -0.789865 0 255 255
-0.497444 -0.116234 -0.787709 0 255 255
-0.477020 -0.159424 -0.803865 0 255 255
-0.686169 -0.042170 -0.727865 0 255 255
-0.656991 -0.510923 -0.833865 0 255 255
-0.729780 -0.093430 -0.772491 0 255 255
-0.850795 -0.435750 -0.821865 0 255 255
-0.616698 -0.111332 -0.827865 0 255 255
-0.546417 -0.441152 -0.827865 0 255 255
-0.546844 -0.146627 -0.830720 0 255 255
-0.846782 -0.232135 -0.829865 0 255 255
-0.628414 -0.530391 -0.829865 0 255 255
-0.978370 -0.377963 -0.799781 0 255 255
-0.648351 -0.061666 -0.677865 0 255 255
-0.921277 -0.412590 -0.815865 0 255 255
-0.831507 -0.012511 -0.797865 0 255 255
-0.624801 -0.138235 -0.769448 0 255 255
-0.819304 -0.076446 -0.779865 0 255 255
-0.818974 -0.082650 -0.795865 0 255 255
-0.459476 -0.081900 -0.797865 0 255 255
-0.661774 -0.446850 -0.775865 0 255 255
-0.743079 -0.260312 -0.827865 0 255 255
-0.698763 -0.061174 -0.807865 0 255 255
-0.627256 -0.390272 -0.827865 0 255 255
-1.005786 -0.439610 -0.792124 0 255 255
-0.769614 -0.391665 -0.827865 0 255 255
-0.633144 -0.062854 -0.817865 0 255 255
-0.610980 -0.088012 -0.795865 0 255 255
-0.606757 -0.438120 -0.789865 0 255 255
-0.961825 -0.375346 -0.785865 0 255 255
-1.005466 -0.380382 -0.832633 0 255 255
-0.762254 -0.053813 -0.807913 0 255 255
-0.569547 -0.446459 -0.779865 0 255 255
-0.841269 -0.478669 -0.835865 0 255 255
-0.935998 -0.351771 -0.829865 0 255 255
-0.614160 -0.492183 -0.808446 0 255 255
-0.593724 -0.146886 -0.783865 0 255 255
-0.930867 -0.443066 -0.775865 0 255 255
-0.696383 -0.475001 -0.827865 0 255 255
-0.741086 -0.387107 -0.829865 0 255 255
-0.757462 -0.031271 -0.771865 0 255 255
-0.668834 -0.489685 -0.815865 0 255 255
-0.752476 -0.104005 -0.833865 0 255 255
-0.965262 -0.364392 -0.824173 0 255 255
-0.665220 -0.129644 -0.787865 0 255 255
-0.449691 -0.136607 -0.835865 0 255 255
-0.593916 -0.146845 -0.836818 0 255 255
-0.626207 -0.481531 -0.775865 0 255 255
-0.616693 -0.514135 -0.815865 0 255 255
-0.883296 -0.430886 -0.827070 0 255 255
-0.573190 -0.347540 -0.827506 0 255 255
-0.799923 -0.193023 -0.827865 0 255 255
-0.592690 -0.480389 -0.831865 0 255 255
-0.752792 -0.115119 -0.766345 0 255 255
-0.741374 -0.109500 -0.823865 0 255 255
-0.635458 -0.053693 -0.755865 0 255 255
-0.743726 -0.457246 -0.831865 0 255 255
-0.750367 -0.050205 -0.799865 0 255 255
-0.623712 -0.431307 -0.777865 0 255 255
-0.631790 -0.065301 -0.749865 0 255 255
-0.685783 -0.145720 -0.827865 0 255 255
-0.892995 -0.399561 -0.829865 0 255 255
-0.620391 -0.146342 -0.777865 0 255 255
-0.691618 -0.067802 -0.733865 0 255 255
-0.586370 -0.193432 -0.835865 0 255 255
-0.794908 -0.404691 -0.825865 0 255 255
-0.705570 -0.075728 -0.829865 0 255 255
-0.649668 -0.128861 -0.773865 0 255 255
-0.863100 -0.480162 -0.826753 0 255 255
-0.806463 -0.434950 -0.741788 0 255 255
-0.771920 -0.031959 -0.751865 0 255 255
-0.568184 -0.048036 -0.829865 0 255 255
-0.865566 -0.058886 -0.829865 0 255 255
-0.900228 -0.385490 -0.801865 0 255 255
-0.505095 -0.084889 -0.833865 0 255 255
-0.695785 -0.048927 -0.791865 0 255 255
-0.868689 -0.436036 -0.779865 0 255 255
-0.550791 -0.534278 -0.821865 0 255 255
-0.450418 -0.087380 -0.836796 0 255 255
-0.685247 -0.499564 -0.772953 0 255 255
-0.685976 -0.397175 -0.827883 0 255 255
-0.751468 -0.493667 -0.760825 0 255 255
-0.490506 -0.146334 -0.775865 0 255 255
-0.967218 -0.363976 -0.834839 0 255 255
-0.876940 -0.464952 -0.813865 0 255 255
-0.998226 -0.365564 -0.834850 0 255 255
-0.846520 -0.066571 -0.773865 0 255 255
-0.920835 -0.290052 -0.827865 0 255 255
-0.707319 -0.459116 -0.835865 0 255 255
-0.807011 -0.471637 -0.809865 0 255 255
-0.796340 -0.473906 -0.810085 0 255 255
-0.833688 0.004514 -0.809865 0 255 255
-0.677583 -0.129061 -0.781865 0 255 255
-0.723145 -0.389274 -0.828059 0 255 255
-0.928925 -0.376205 -0.768673 0 255 255
-0.550802 -0.540409 -0.827397 0 255 255
-0.991443 -0.410608 -0.795865 0 255 255
-0.886625 -0.023287 -0.791449 0 255 255
-0.749779 -0.504960 -0.755865 0 255 255
-0.790640 -0.100790 -0.775865 0 255 255
-0.959877 -0.430966 -0.797865 0 255 255
-0.806746 -0.474766 -0.819865 0 255 255
-0.562706 -0.544013 -0.791865 0 255 255
-0.738188 -0.508140 -0.807865 0 255 255
-0.507745 -0.174312 -0.777865 0 255 255
-0.908237 -0.384692 -0.821932 0 255 255
-0.853739 -0.060962 -0.827865 0 255 255
-0.834558 -0.422844 -0.834743 0 255 255
-0.526821 -0.099766 -0.793865 0 255 255
-0.714623 -0.079838 -0.771865 0 255 255
-0.686084 -0.474641 -0.789865 0 255 255
-0.795830 -0.494461 -0.737865 0 255 255
-0.965384 -0.253953 -0.833865 0 255 255
-0.835809 -0.005463 -0.771629 0 255 255
-0.934741 -0.461286 -0.829865 0 255 255
-0.655364 -0.041773 -0.827865 0 255 255
-0.530740 -0.152095 -0.797865 0 255 255
-0.757619 -0.093647 -0.827865 0 255 255
-0.468714 -0.228664 -0.827865 0 255 255
-0.553355 -0.513947 -0.799865 0 255 255
-0.670244 -0.496619 -0.751865 0 255 255
-0.591640 -0.088033 -0.751303 0 255 255
-0.878723 0.013882 -0.794745 0 255 255
-0.919172 -0.070597 -0.827865 0 255 255
-0.829834 -0.323659 -0.827087 0 255 255
-0.541484 -0.092560 -0.807352 0 255 255
-0.665591 -0.137744 -0.769793 0 255 255
-0.471596 -0.129907 -0.823865 0 255 255
-0.825070 -0.416682 -0.834823 0 255 255
-0.701807 -0.115734 -0.826126 0 255 255
-0.669473 -0.492693 -0.834696 0 255 255
-0.589050 -0.133567 -0.827618 0 255 255
-0.666269 -0.063977 -0.827865 0 255 255
-0.575021 -0.048327 -0.827865 0 255 255
-0.627051 -0.129578 -0.786342 0 255 255
-0.857355 -0.068358 -0.832633 0 255 255
-0.526572 -0.157070 -0.826826 0 255 255
-0.918710 -0.049182 -0.832697 0 255 255
-0.959640 -0.386034 -0.828072 0 255 255
-0.681354 -0.404291 -0.826998 0 255 255
-0.870000 -0.282406 -0.827865 0 255 255
-0.657510 -0.076077 -0.755865 0 255 255
-0.801003 -0.086470 -0.833865 0 255 255
-0.679986 -0.461833 -0.831865 0 255 255
-0.741859 -0.477320 -0.757865 0 255 255
-0.706218 -0.104572 -0.771865 0 255 255
-0.677639 -0.454153 -0.771106 0 255 255
-0.614601 -0.513504 -0.775865 0 255 255
-0.747396 -0.253260 -0.827843 0 255 255
-0.590154 -0.090668 -0.757865 0 255 255
-0.490772 -0.181037 -0.774750 0 255 255
-0.528600 -0.118517 -0.827865 0 255 255
-0.467360 -0.128607 -0.785865 0 255 255
-0.767148 -0.077309 -0.777865 0 255 255
-0.554167 -0.455862 -0.793865 0 255 255
-0.459270 -0.090552 -0.819865 0 255 255
-0.822279 -0.008339 -0.771865 0 255 255
-0.767375 -0.251058 -0.827285 0 255 255
-0.669663 -0.378151 -0.827632 0 255 255
-0.798466 -0.455052 -0.733846 0 255 255
-0.581027 -0.086200 -0.788929 0 255 255
-0.821707 -0.073800 -0.827865 0 255 255
-0.744410 -0.200733 -0.827694 0 255 255
-0.648418 -0.470588 -0.831217 0 255 255
-0.581613 -0.069718 -0.751418 0 255 255
-0.742848 -0.082474 -0.833865 0 255 255
-0.913179 -0.436803 -0.810803 0 255 255
-0.692410 -0.475550 -0.794673 0 255 255
-0.814117 -0.451725 -0.742832 0 255 255
-0.858566 -0.021073 -0.825865 0 255 255
-0.737416 -0.417933 -0.783865 0 255 255
-0.983549 -0.286896 -0.829220 0 255 255
-0.547369 -0.139485 -0.795865 0 255 255
-0.672992 -0.480389 -0.807865 0 255 255
-0.552129 -0.517793 -0.811865 0 255 255
-0.662329 -0.420603 -0.777042 0 255 255
-0.640764 -0.402696 -0.827865 0 255 255
-0.628592 -0.127206 -0.773617 0 255 255
-0.576659 -0.277283 -0.826940 0 255 255
-0.727328 -0.485908 -0.761865 0 255 255
-0.729553 -0.438662 -0.801865 0 255 255
-0.740762 -0.125855 -0.792828 0 255 255
-0.886778 -0.379930 -0.833865 0 255 255
-0.849056 -0.423706 -0.827865 0 255 255
-0.443255 -0.121618 -0.827865 0 255 255
-0.729240 -0.504526 -0.787911 0 255 255
-0.719290 -0.101794 -0.811544 0 255 255
-0.924937 -0.338204 -0.832660 0 255 255
-0.789310 -0.248440 -0.826670 0 255 255
-0.753890 -0.043322 -0.752171 0 255 255
-0.699703 -0.500239 -0.785865 0 255 255
-0.903550 -0.093298 -0.829269 0 255 255
-0.730056 -0.441025 -0.783865 0 255 255
-0.979455 -0.359330 -0.815865 0 255 255
-0.692136 -0.050315 -0.727865 0 255 255
-0.743001 -0.376875 -0.826901 0 255 255
-0.921723 -0.169178 -0.827765 0 255 255
-0.587146 -0.047653 -0.829865 0 255 255
-0.863196 0.000358 -0.802819 0 255 255
-0.698153 -0.031213 -0.825865 0 255 255
-0.502604 -0.121271 -0.827602 0 255 255
-0.929751 -0.312760 -0.827865 0 255 255
-0.879338 -0.037104 -0.832655 0 255 255
-0.645971 -0.430215 -0.834663 0 255 255
-0.992697 -0.329935 -0.829239 0 255 255
-0.662982 -0.279382 -0.826698 0 255 255
-0.500138 -0.177002 -0.826800 0 255 255
-0.923831 -0.246428 -0.827683 0 255 255
-0.752285 -0.491449 -0.833865 0 255 255
-0.936400 -0.247846 -0.827216 0 255 255
-0.569911 -0.303254 -0.827578 0 255 255
-0.453357 -0.090845 -0.801865 0 255 255
-0.873420 -0.437075 -0.791865 0 255 255
-0.867401 0.009431 -0.795850 0 255 255
-0.965919 -0.441950 -0.805865 0 255 255
-0.807200 -0.072884 -0.827962 0 255 255
-0.858644 -0.372623 -0.773865 0 255 255
-0.845371 -0.050458 -0.826991 0 255 255
-0.539708 -0.190017 -0.835865 0 255 255
-0.635170 -0.119674 -0.827602 0 255 255
-0.520825 -0.168515 -0.827651 0 255 255
-0.624328 -0.424591 -0.826820 0 255 255
-0.518297 -0.079669 -0.773865 0 255 255
-0.813164 -0.014366 -0.808921 0 255 255
-0.705713 -0.413076 -0.827865 0 255 255
-0.607553 -0.432246 -0.834731 0 255 255
-0.480990 -0.183116 -0.827341 0 255 255
-0.790120 -0.424111 -0.799865 0 255 255
-0.551209 -0.215218 -0.827865 0 255 255
-0.927166 -0.425651 -0.780854 0 255 255
-0.785699 -0.404604 -0.820012 0 255 255
-0.797576 -0.422006 -0.793865 0 255 255
-0.926817 -0.298955 -0.826830 0 255 255
-0.745893 -0.486673 -0.675755 0 255 255
-0.866715 -0.429835 -0.789865 0 255 255
-0.646628 -0.077391 -0.789865 0 255 255
-0.749825 -0.389738 -0.834721 0 255 255
-0.576097 -0.226286 -0.827865 0 255 255
-0.797570 -0.152629 -0.827659 0 255 255
-0.780000 -0.387413 -0.827624 0 255 255
-0.756572 -0.363767 -0.832531 0 255 255
-0.785699 -0.404604 -0.790540 0 255 255
-0.569515 -0.205193 -0.827691 0 255 255
-0.555707 -0.448053 -0.775865 0 255 255
-0.989928 -0.441955 -0.803865 0 255 255
-0.781013 -0.113210 -0.827740 0 255 255
-0.570874 -0.480936 -0.827684 0 255 255
-0.708515 -0.281971 -0.827139 0 255 255
-0.922499 -0.038154 -0.834847 0 255 255
-0.762403 -0.131479 -0.827288 0 255 255
-0.680628 -0.083431 -0.826811 0 255 255
-0.518954 -0.371336 -0.827741 0 255 255
-0.926563 -0.230422 -0.827865 0 255 255
-0.660817 -0.490444 -0.828307 0 255 255
-0.931396 -0.320473 -0.827865 0 255 255
-0.731396 -0.129891 -0.826278 0 255 255
-0.762723 -0.046406 -0.771865 0 255 255
-0.896169 -0.164386 -0.827355 0 255 255
-0.965575 -0.260047 -0.827997 0 255 255
-0.822886 -0.021622 -0.817865 0 255 255
-0.738144 -0.103920 -0.773781 0 255 255
-0.564749 -0.509831 -0.803865 0 255 255
-0.569010 -0.164337 -0.827865 0 255 255
-0.925560 -0.129513 -0.827908 0 255 255
-0.677857 -0.455177 -0.779865 0 255 255
-0.738200 -0.238857 -0.827792 0 255 255
-0.668849 -0.496915 -0.805865 0 255 255
-0.801491 -0.315370 -0.826897 0 255 255
-0.936182 -0.294919 -0.826810 0 255 255
-0.718997 -0.110035 -0.774780 0 255 255
-0.568173 -0.156406 -0.793865 0 255 255
-0.509088 -0.171010 -0.827549 0 255 255
-0.809628 -0.209362 -0.827762 0 255 255
-0.728621 -0.434276 -0.787865 0 255 255
-0.892609 -0.176497 -0.827865 0 255 255
-0.825146 -0.080356 -0.797865 0 255 255
-0.650677 -0.202254 -0.827666 0 255 255
-0.729996 -0.469605 -0.828276 0 255 255
-0.524152 -0.184165 -0.827547 0 255 255
-0.686920 -0.247712 -0.834737 0 255 255
-0.596488 -0.197415 -0.834758 0 255 255
-0.701808 -0.050303 -0.735865 0 255 255
-0.600201 -0.147554 -0.827026 0 255 255
-0.505224 -0.100267 -0.793865 0 255 255
-0.677433 -0.241550 -0.827520 0 255 255
-0.576746 -0.056439 -0.827499 0 255 255
-0.909055 -0.425411 -0.817865 0 255 255
-0.745198 -0.501134 -0.733865 0 255 255
-0.734694 -0.078073 -0.826922 0 255 255
-0.817878 -0.373228 -0.834759 0 255 255
-0.621182 -0.130826 -0.790796 0 255 255
-0.920853 -0.357474 -0.773531 0 255 255
-0.521499 -0.123587 -0.827865 0 255 255
-0.778072 -0.455297 -0.834721 0 255 255
-0.866068 -0.205544 -0.827670 0 255 255
-0.854312 -0.032200 -0.829865 0 255 255
-0.506130 -0.185951 -0.827216 0 255 255
-0.959535 -0.279732 -0.827676 0 255 255
-0.712286 -0.367046 -0.826854 0 255 255
-0.857594 -0.006966 -0.801865 0 255 255
-0.910299 -0.067327 -0.832736 0 255 255
-0.604927 -0.477788 -0.827865 0 255 255
-0.589427 -0.327731 -0.827866 0 255 255
-0.756469 -0.257466 -0.827715 0 255 255
-0.655846 -0.370864 -0.827155 0 255 255
-0.637182 -0.254194 -0.827731 0 255 255
-0.763963 -0.456252 -0.827601 0 255 255
-0.793477 -0.431576 -0.827471 0 255 255
-0.733749 -0.227535 -0.826878 0 255 255
-0.559337 -0.109212 -0.827393 0 255 255
-1.007328 -0.437238 -0.814839 0 255 255
-0.963326 -0.268703 -0.828088 0 255 255
-0.644469 -0.240379 -0.827817 0 255 255
-0.642020 -0.200005 -0.827603 0 255 255
