ply
format ascii 1.0
element vertex 1284
property float x
property float y
property float z
property uchar red
property uchar green
property uchar blue
end_header
-0.275595 0.270606 0.247979 255 0 0
-0.448415 0.190793 0.250651 255 0 0
-0.495455 0.181116 0.225979 255 0 0
-0.534747 0.280707 0.239979 255 0 0
-0.535850 0.188931 0.251979 255 0 0
-0.413679 0.190684 0.227979 255 0 0
-0.453764 0.300298 0.250996 255 0 0
-0.417597 0.306923 0.251035 255 0 0
-0.409735 0.205063 0.251979 255 0 0
-0.540720 0.343318 0.250840 255 0 0
-0.467685 0.186710 0.256203 255 0 0
-0.271163 0.267619 0.231979 255 0 0
-0.301684 0.323179 0.251152 255 0 0
-0.404639 0.242829 0.250992 255 0 0
-0.294132 0.233653 0.251053 255 0 0
-0.436847 0.206736 0.251177 255 0 0
-0.475435 0.227207 0.256453 255 0 0
-0.448046 0.221385 0.256447 255 0 0
-0.436668 0.351871 0.251018 255 0 0
-0.501795 0.187827 0.251979 255 0 0
-0.348389 0.353553 0.251052 255 0 0
-0.351621 0.280632 0.251151 255 0 0
-0.301487 0.247150 0.255979 255 0 0
-0.336878 0.234560 0.251138 255 0 0
-0.343966 0.297407 0.251138 255 0 0
-0.344240 0.209544 0.248986 255 0 0
-0.275885 0.194448 0.241979 255 0 0
-0.431366 0.271001 0.251061 255 0 0
-0.528765 0.293749 0.256611 255 0 0
-0.340620 0.216953 0.251122 255 0 0
-0.294615 0.356436 0.256506 255 0 0
-0.539652 0.339001 0.241979 255 0 0
-0.350497 0.276303 0.256371 255 0 0
-0.274791 0.209213 0.247979 255 0 0
-0.285359 0.207591 0.255979 255 0 0
-0.542427 0.315055 0.251979 255 0 0
-0.363019 0.246250 0.251080 255 0 0
-0.537403 0.195395 0.251121 255 0 0
-0.446695 0.333555 0.250988 255 0 0
-0.536480 0.244271 0.245979 255 0 0
-0.271506 0.253528 0.229979 255 0 0
-0.280964 0.222675 0.243979 255 0 0
-0.492182 0.302330 0.256320 255 0 0
-0.330660 0.360008 0.251076 255 0 0
-0.325235 0.289336 0.251054 255 0 0
-0.319243 0.298286 0.257090 255 0 0
-0.342256 0.276593 0.255979 255 0 0
-0.283049 0.223118 0.229979 255 0 0
-0.541336 0.343448 0.231979 255 0 0
-0.301004 0.201323 0.241979 255 0 0
-0.451910 0.241686 0.251979 255 0 0
-0.517936 0.200406 0.247979 255 0 0
-0.300607 0.347486 0.251091 255 0 0
-0.395144 0.200924 0.233979 255 0 0
-0.282461 0.355897 0.228980 255 0 0
-0.436526 0.265964 0.251003 255 0 0
-0.332918 0.205092 0.251032 255 0 0
-0.278187 0.279810 0.255979 255 0 0
-0.273331 0.266035 0.253979 255 0 0
-0.537450 0.224031 0.251029 255 0 0
-0.406303 0.235004 0.256339 255 0 0
-0.326176 0.198335 0.247979 255 0 0
-0.281317 0.255465 0.251173 255 0 0
-0.332229 0.294912 0.256974 255 0 0
-0.314669 0.319805 0.251125 255 0 0
-0.382752 0.268847 0.256319 255 0 0
-0.496292 0.254131 0.251044 255 0 0
-0.282179 0.232175 0.237979 255 0 0
-0.430705 0.293352 0.250980 255 0 0
-0.353951 0.192717 0.243979 255 0 0
-0.456089 0.270122 0.256280 255 0 0
-0.271962 0.328336 0.253979 255 0 0
-0.408061 0.284450 0.256827 255 0 0
-0.367244 0.351427 0.256139 255 0 0
-0.537888 0.193111 0.241979 255 0 0
-0.538934 0.361340 0.246452 255 0 0
-0.497738 0.199232 0.251073 255 0 0
-0.533311 0.339698 0.251072 255 0 0
-0.275400 0.317592 0.247979 255 0 0
-0.489773 0.203673 0.251979 255 0 0
-0.312738 0.184445 0.231979 255 0 0
-0.542242 0.249586 0.255210 255 0 0
-0.266171 0.186815 0.229979 255 0 0
-0.482353 0.271615 0.256267 255 0 0
-0.435183 0.277947 0.251979 255 0 0
-0.441365 0.320154 0.251066 255 0 0
-0.535070 0.346206 0.239979 255 0 0
-0.534709 0.256163 0.251039 255 0 0
-0.408591 0.185762 0.229979 255 0 0
-0.399083 0.345926 0.256874 255 0 0
-0.543440 0.186232 0.255979 255 0 0
-0.542554 0.353931 0.254315 255 0 0
-0.278426 0.365263 0.246977 255 0 0
-0.282074 0.290385 0.243013 255 0 0
-0.372649 0.325995 0.251036 255 0 0
-0.273954 0.367064 0.235979 255 0 0
-0.506280 0.192869 0.227979 255 0 0
-0.448604 0.305336 0.251055 255 0 0
-0.529970 0.232664 0.255979 255 0 0
-0.526544 0.217623 0.256281 255 0 0
-0.275528 0.231743 0.247979 255 0 0
-0.281692 0.239187 0.249979 255 0 0
-0.513360 0.270028 0.251081 255 0 0
-0.528309 0.190082 0.251979 255 0 0
-0.470615 0.269120 0.251037 255 0 0
-0.409922 0.227594 0.251171 255 0 0
-0.310274 0.196190 0.248646 255 0 0
-0.361252 0.360377 0.251024 255 0 0
-0.282398 0.279238 0.243979 255 0 0
-0.443378 0.185633 0.233007 255 0 0
-0.353701 0.184273 0.231979 255 0 0
-0.347217 0.320589 0.251061 255 0 0
-0.274946 0.358389 0.241979 255 0 0
-0.311570 0.190095 0.235979 255 0 0
-0.466797 0.190887 0.235979 255 0 0
-0.275621 0.348309 0.239979 255 0 0
-0.323164 0.248002 0.255979 255 0 0
-0.457959 0.231671 0.255979 255 0 0
-0.282830 0.325305 0.232992 255 0 0
-0.539575 0.330806 0.245979 255 0 0
-0.515519 0.192535 0.243979 255 0 0
-0.539371 0.301570 0.241979 255 0 0
-0.541724 0.243341 0.233979 255 0 0
-0.347198 0.224485 0.256813 255 0 0
-0.275554 0.262418 0.245979 255 0 0
-0.339569 0.351679 0.249979 255 0 0
-0.541641 0.224922 0.233979 255 0 0
-0.486728 0.299126 0.251074 255 0 0
-0.364342 0.201548 0.234998 255 0 0
-0.521110 0.310524 0.256806 255 0 0
-0.521875 0.181871 0.224602 255 0 0
-0.278889 0.343846 0.255979 255 0 0
-0.344779 0.197390 0.226992 255 0 0
-0.288004 0.195151 0.255979 255 0 0
-0.272493 0.224964 0.225979 255 0 0
-0.336749 0.196688 0.227979 255 0 0
-0.541805 0.299739 0.231979 255 0 0
-0.454168 0.192583 0.241979 255 0 0
-0.468483 0.202196 0.243979 255 0 0
-0.487348 0.190395 0.235979 255 0 0
-0.536761 0.313850 0.256546 255 0 0
-0.286723 0.230033 0.251167 255 0 0
-0.388573 0.241458 0.256127 255 0 0
-0.465717 0.288526 0.255979 255 0 0
-0.282805 0.243513 0.231979 255 0 0
-0.504973 0.198725 0.251979 255 0 0
-0.356249 0.345434 0.255979 255 0 0
-0.321587 0.364214 0.254758 255 0 0
-0.309095 0.287950 0.255979 255 0 0
-0.284727 0.191328 0.237979 255 0 0
-0.437991 0.307169 0.251075 255 0 0
-0.523130 0.343668 0.255979 255 0 0
-0.280029 0.247012 0.249979 255 0 0
-0.540427 0.335077 0.250680 255 0 0
-0.467178 0.280658 0.255979 255 0 0
-0.537110 0.187154 0.224607 255 0 0
-0.359427 0.186191 0.224717 255 0 0
-0.511376 0.337080 0.256732 255 0 0
-0.304913 0.192556 0.239979 255 0 0
-0.532630 0.265945 0.251073 255 0 0
-0.349727 0.333391 0.255979 255 0 0
-0.519075 0.185427 0.255979 255 0 0
-0.539582 0.314450 0.235979 255 0 0
-0.352330 0.286916 0.255868 255 0 0
-0.479763 0.226082 0.250990 255 0 0
-0.523652 0.327421 0.255895 255 0 0
-0.536987 0.197351 0.229063 255 0 0
-0.275250 0.303247 0.245730 255 0 0
-0.477882 0.186833 0.224701 255 0 0
-0.541062 0.198218 0.255979 255 0 0
-0.479333 0.293465 0.255979 255 0 0
-0.365117 0.332573 0.256273 255 0 0
-0.537394 0.358968 0.234819 255 0 0
-0.394584 0.328613 0.256026 255 0 0
-0.288518 0.192730 0.245979 255 0 0
-0.409629 0.219353 0.256102 255 0 0
-0.311390 0.364091 0.254850 255 0 0
-0.480096 0.352923 0.255979 255 0 0
-0.313866 0.256249 0.251075 255 0 0
-0.513748 0.335540 0.251023 255 0 0
-0.442613 0.314285 0.256855 255 0 0
-0.541764 0.331271 0.231979 255 0 0
-0.492638 0.213607 0.251979 255 0 0
-0.416757 0.185822 0.253979 255 0 0
-0.401348 0.325652 0.255979 255 0 0
-0.313157 0.249964 0.256790 255 0 0
-0.366345 0.230600 0.251100 255 0 0
-0.289871 0.359517 0.248982 255 0 0
-0.378761 0.191426 0.227979 255 0 0
-0.341178 0.300904 0.256045 255 0 0
-0.272199 0.202410 0.233979 255 0 0
-0.496998 0.193094 0.243979 255 0 0
-0.277575 0.273071 0.227097 255 0 0
-0.340687 0.341693 0.256254 255 0 0
-0.504458 0.292671 0.256901 255 0 0
-0.433398 0.232584 0.256897 255 0 0
-0.325386 0.211670 0.256632 255 0 0
-0.391333 0.305430 0.256394 255 0 0
-0.534704 0.309324 0.245979 255 0 0
-0.279846 0.334895 0.255979 255 0 0
-0.355902 0.250871 0.256272 255 0 0
-0.507935 0.199355 0.228991 255 0 0
-0.367054 0.236884 0.256430 255 0 0
-0.442229 0.200658 0.237979 255 0 0
-0.462884 0.324728 0.256853 255 0 0
-0.355978 0.212039 0.256212 255 0 0
-0.287404 0.303786 0.257011 255 0 0
-0.340989 0.186361 0.224682 255 0 0
-0.388776 0.192409 0.243979 255 0 0
-0.541996 0.269980 0.256631 255 0 0
-0.331907 0.354139 0.256502 255 0 0
-0.297894 0.312150 0.256276 255 0 0
-0.541259 0.331164 0.256878 255 0 0
-0.452148 0.336759 0.256708 255 0 0
-0.334043 0.209421 0.256618 255 0 0
-0.423343 0.318368 0.256768 255 0 0
-0.440118 0.326023 0.256272 255 0 0
-0.457459 0.254056 0.256344 255 0 0
-0.482919 0.191993 0.256049 255 0 0
-0.536009 0.235993 0.229979 255 0 0
-0.456326 0.201673 0.245979 255 0 0
-0.445259 0.224882 0.251034 255 0 0
-0.542261 0.345690 0.256602 255 0 0
-0.539074 0.203929 0.243979 255 0 0
-0.481549 0.208059 0.256839 255 0 0
-0.417508 0.201527 0.239979 255 0 0
-0.405566 0.296187 0.255987 255 0 0
-0.414175 0.265302 0.256192 255 0 0
-0.284909 0.315524 0.256285 255 0 0
-0.431338 0.338470 0.256178 255 0 0
-0.515468 0.192777 0.256815 255 0 0
-0.505745 0.190424 0.235979 255 0 0
-0.277603 0.205603 0.256432 255 0 0
-0.461098 0.342751 0.256629 255 0 0
-0.494506 0.272154 0.256121 255 0 0
-0.508862 0.252714 0.256252 255 0 0
-0.406794 0.194214 0.256216 255 0 0
-0.320028 0.265738 0.256570 255 0 0
-0.395123 0.316459 0.251185 255 0 0
-0.276375 0.307576 0.256571 255 0 0
-0.285523 0.264537 0.256563 255 0 0
-0.401606 0.266720 0.251171 255 0 0
-0.370060 0.280462 0.256323 255 0 0
-0.346754 0.293910 0.256517 255 0 0
-0.317731 0.228445 0.251208 255 0 0
-0.316503 0.330418 0.256358 255 0 0
-0.461400 0.187419 0.226990 255 0 0
-0.279947 0.271531 0.256515 255 0 0
-0.334676 0.254538 0.256321 255 0 0
-0.347822 0.192694 0.241979 255 0 0
-0.479933 0.244520 0.256401 255 0 0
-0.538962 0.293872 0.256617 255 0 0
-0.445230 0.292350 0.251014 255 0 0
-0.412833 0.213900 0.251171 255 0 0
-0.453452 0.195953 0.256182 255 0 0
-0.410924 0.242120 0.251185 255 0 0
-0.508323 0.264867 0.251116 255 0 0
-0.349447 0.233142 0.251112 255 0 0
-0.311465 0.325258 0.251005 255 0 0
-0.293689 0.303077 0.251179 255 0 0
-0.523803 0.249756 0.256286 255 0 0
-0.287432 0.236318 0.251060 255 0 0
-0.339833 0.201416 0.239979 255 0 0
-0.274126 0.298919 0.256882 255 0 0
-0.346414 0.257033 0.251006 255 0 0
-0.392771 0.202473 0.241979 255 0 0
-0.409970 0.256230 0.251070 255 0 0
-0.358785 0.304646 0.251122 255 0 0
-0.281678 0.306659 0.249979 255 0 0
-0.472108 0.242857 0.256635 255 0 0
-0.460588 0.287436 0.251027 255 0 0
-0.463697 0.224712 0.255996 255 0 0
-0.420951 0.223804 0.251096 255 0 0
-0.535414 0.297207 0.231979 255 0 0
-0.299510 0.275689 0.256718 255 0 0
-0.291487 0.323056 0.251059 255 0 0
-0.359446 0.282295 0.251112 255 0 0
-0.321861 0.276351 0.251026 255 0 0
-0.377544 0.245248 0.251014 255 0 0
-0.492748 0.222708 0.251061 255 0 0
-0.336973 0.291831 0.251081 255 0 0
-0.502360 0.206349 0.251011 255 0 0
-0.383801 0.312008 0.251071 255 0 0
-0.456996 0.227377 0.251123 255 0 0
-0.476115 0.300960 0.256727 255 0 0
-0.520798 0.206179 0.256585 255 0 0
-0.477826 0.321770 0.251008 255 0 0
-0.336585 0.226319 0.256551 255 0 0
-0.310293 0.292294 0.251037 255 0 0
-0.369351 0.274177 0.251098 255 0 0
-0.341452 0.213040 0.256121 255 0 0
-0.361110 0.274470 0.251048 255 0 0
-0.454256 0.259509 0.251060 255 0 0
-0.316020 0.207635 0.251093 255 0 0
-0.328344 0.226612 0.256634 255 0 0
-0.383924 0.301811 0.256371 255 0 0
-0.397646 0.237253 0.251118 255 0 0
-0.346130 0.200653 0.235979 255 0 0
-0.317164 0.308067 0.251087 255 0 0
-0.321057 0.212795 0.251113 255 0 0
-0.327560 0.259160 0.251065 255 0 0
-0.433540 0.318491 0.251030 255 0 0
-0.522773 0.302698 0.251024 255 0 0
-0.470955 0.305997 0.251017 255 0 0
-0.446894 0.284525 0.251014 255 0 0
-0.481426 0.218257 0.251074 255 0 0
-0.483402 0.314777 0.251074 255 0 0
-0.470322 0.260879 0.251090 255 0 0
-0.532999 0.235353 0.251026 255 0 0
-0.510620 0.302160 0.256314 255 0 0
-0.529644 0.318472 0.251056 255 0 0
-0.425573 0.230921 0.250992 255 0 0
-0.399139 0.210989 0.251098 255 0 0
-0.485528 0.333631 0.251025 255 0 0
-0.459491 0.215639 0.251102 255 0 0
-0.490348 0.291717 0.250995 255 0 0
-0.426575 0.245447 0.250993 255 0 0
-0.379397 0.351965 0.251089 255 0 0
-0.486530 0.348156 0.251062 255 0 0
-0.400283 0.311422 0.256771 255 0 0
-0.530995 0.206301 0.251065 255 0 0
-0.371184 0.284790 0.251117 255 0 0
-0.284691 0.268450 0.251026 255 0 0
-0.392316 0.223852 0.251068 255 0 0
-0.315331 0.297454 0.251134 255 0 0
-0.472741 0.287974 0.251089 255 0 0
-0.334090 0.238056 0.256321 255 0 0
-0.399725 0.227471 0.256327 255 0 0
-0.452082 0.212019 0.251041 255 0 0
-0.460295 0.279195 0.251104 255 0 0
-0.383678 0.322205 0.251038 255 0 0
-0.540238 0.220534 0.256503 255 0 0
-0.296136 0.262704 0.251095 255 0 0
-0.377913 0.214656 0.251060 255 0 0
-0.392609 0.232093 0.251022 255 0 0
-0.442688 0.275452 0.256432 255 0 0
-0.368566 0.306725 0.256790 255 0 0
-0.535418 0.262448 0.227006 255 0 0
-0.390019 0.186559 0.227072 255 0 0
-0.474206 0.329180 0.251075 255 0 0
-0.405353 0.200996 0.237979 255 0 0
-0.339203 0.204384 0.256271 255 0 0
-0.391163 0.286992 0.251053 255 0 0
-0.397278 0.267845 0.256350 255 0 0
-0.379283 0.198590 0.251032 255 0 0
-0.278529 0.258962 0.256379 255 0 0
-0.420167 0.256353 0.251035 255 0 0
-0.461618 0.234493 0.251011 255 0 0
-0.435934 0.201416 0.245979 255 0 0
-0.417304 0.298682 0.251118 255 0 0
-0.281981 0.281204 0.233979 255 0 0
-0.306891 0.346777 0.251005 255 0 0
-0.499515 0.344783 0.251013 255 0 0
-0.428824 0.254103 0.251057 255 0 0
-0.524437 0.294873 0.251023 255 0 0
-0.330613 0.331373 0.251005 255 0 0
-0.374313 0.318170 0.251044 255 0 0
-0.524267 0.276435 0.250997 255 0 0
-0.405689 0.285990 0.251062 255 0 0
-0.503995 0.265992 0.256171 255 0 0
-0.282470 0.192325 0.227008 255 0 0
-0.507737 0.248385 0.251023 255 0 0
-0.418183 0.323405 0.251069 255 0 0
-0.442764 0.236620 0.251124 255 0 0
-0.327805 0.238765 0.251045 255 0 0
-0.495706 0.237650 0.251005 255 0 0
-0.376444 0.359517 0.257979 255 0 0
-0.275202 0.313461 0.233979 255 0 0
-0.303301 0.204931 0.249979 255 0 0
-0.483260 0.228870 0.256791 255 0 0
-0.369549 0.225147 0.256709 255 0 0
-0.460569 0.191332 0.250145 255 0 0
-0.430180 0.190008 0.235979 255 0 0
-0.518596 0.226157 0.256727 255 0 0
-0.526100 0.287048 0.256605 255 0 0
-0.282647 0.321177 0.245979 255 0 0
-0.488930 0.279147 0.251012 255 0 0
-0.423276 0.193628 0.256484 255 0 0
-0.396881 0.365905 0.251017 255 0 0
-0.447876 0.202947 0.256702 255 0 0
-0.413173 0.250777 0.256646 255 0 0
-0.296795 0.192266 0.247979 255 0 0
-0.536468 0.305609 0.256079 255 0 0
-0.275014 0.208165 0.227979 255 0 0
-0.369839 0.186359 0.255979 255 0 0
-0.274277 0.221253 0.250133 255 0 0
-0.541136 0.277976 0.227979 255 0 0
-0.411209 0.192681 0.241979 255 0 0
-0.535296 0.272645 0.251026 255 0 0
-0.436158 0.296556 0.256676 255 0 0
-0.456287 0.221092 0.255849 255 0 0
-0.286478 0.250428 0.251087 255 0 0
-0.317406 0.181348 0.225979 255 0 0
-0.354612 0.367144 0.253979 255 0 0
-0.530476 0.314559 0.256559 255 0 0
-0.538603 0.252901 0.235979 255 0 0
-0.503135 0.337373 0.256633 255 0 0
-0.426546 0.312915 0.251106 255 0 0
-0.272404 0.364738 0.255979 255 0 0
-0.336020 0.190501 0.235979 255 0 0
-0.514041 0.343781 0.251061 255 0 0
-0.406133 0.216565 0.251004 255 0 0
-0.490717 0.261125 0.251008 255 0 0
-0.540925 0.308601 0.227979 255 0 0
-0.310341 0.320930 0.256483 255 0 0
-0.491085 0.230533 0.251056 255 0 0
-0.272689 0.190246 0.231703 255 0 0
-0.496680 0.319644 0.251116 255 0 0
-0.359003 0.351720 0.255787 255 0 0
-0.288822 0.316356 0.251042 255 0 0
-0.524833 0.196813 0.256887 255 0 0
-0.381476 0.342184 0.256992 255 0 0
-0.478979 0.258630 0.256560 255 0 0
-0.339052 0.282049 0.256943 255 0 0
-0.501481 0.181626 0.224628 255 0 0
-0.535878 0.209384 0.241979 255 0 0
-0.501084 0.279686 0.251044 255 0 0
-0.529570 0.244847 0.255979 255 0 0
-0.535457 0.297216 0.243979 255 0 0
-0.441299 0.195414 0.229119 255 0 0
-0.408196 0.197237 0.249979 255 0 0
-0.300729 0.337289 0.251037 255 0 0
-0.336740 0.360261 0.249979 255 0 0
-0.339030 0.185955 0.255979 255 0 0
-0.424694 0.206198 0.256802 255 0 0
-0.480150 0.185784 0.253979 255 0 0
-0.358697 0.261689 0.249979 255 0 0
-0.277433 0.187165 0.229224 255 0 0
-0.430099 0.180766 0.226066 255 0 0
-0.513600 0.201563 0.233979 255 0 0
-0.324431 0.225780 0.251083 255 0 0
-0.364994 0.342770 0.251044 255 0 0
-0.514996 0.329671 0.256545 255 0 0
-0.476720 0.201921 0.235979 255 0 0
-0.447281 0.350037 0.250998 255 0 0
-0.224811 0.126907 0.221006 255 255 0
0.124979 0.002557 0.243979 255 255 0
-0.002149 0.202885 0.243979 255 255 0
-0.089438 -0.044248 0.231979 255 255 0
-0.234068 -0.018342 0.241979 255 255 0
0.125349 0.142444 0.243979 255 255 0
-0.001208 0.063021 0.247648 255 255 0
-0.127018 0.202208 0.241979 255 255 0
-0.122328 0.070364 0.246946 255 255 0
0.025234 -0.043446 0.225979 255 255 0
-0.058035 0.132351 0.239036 255 255 0
0.080494 0.072236 0.239102 255 255 0
-0.208594 0.203203 0.244372 255 255 0
-0.201364 0.054449 0.247019 255 255 0
0.075554 0.202909 0.245979 255 255 0
-0.163414 -0.031316 0.211979 255 255 0
0.032200 0.133618 0.239071 255 255 0
-0.064423 0.025341 0.239076 255 255 0
-0.155679 0.134704 0.246929 255 255 0
0.046084 0.016165 0.247579 255 255 0
-0.125853 0.005683 0.246405 255 255 0
-0.064707 0.197155 0.246713 255 255 0
-0.030533 -0.026845 0.247003 255 255 0
0.084718 -0.032941 0.213154 255 255 0
0.114809 0.185578 0.209137 255 255 0
-0.055152 0.078577 0.247550 255 255 0
-0.183540 0.003633 0.247052 255 255 0
-0.106820 0.152944 0.239014 255 255 0
-0.013163 0.112590 0.247219 255 255 0
0.080692 0.121266 0.246656 255 255 0
-0.003362 0.014407 0.239043 255 255 0
0.125155 0.051484 0.243979 255 255 0
-0.229610 0.027375 0.217979 255 255 0
-0.229132 0.078753 0.215979 255 255 0
-0.167616 0.088169 0.241056 255 255 0
-0.198179 0.156006 0.247308 255 255 0
-0.225249 0.172946 0.211979 255 255 0
-0.017709 0.158539 0.239000 255 255 0
-0.157201 0.040972 0.239003 255 255 0
0.036746 0.087669 0.239060 255 255 0
0.119358 0.096690 0.237979 255 255 0
-0.095989 0.107704 0.247881 255 255 0
0.035480 0.177904 0.247270 255 255 0
-0.133144 -0.038238 0.243979 255 255 0
-0.194892 -0.040159 0.241979 255 255 0
0.088356 0.027626 0.237979 255 255 0
-0.167219 0.186229 0.241102 255 255 0
0.059702 -0.025579 0.247624 255 255 0
0.087468 0.162764 0.239049 255 255 0
-0.208282 0.098858 0.247936 255 255 0
-0.010352 -0.028096 0.209979 255 255 0
0.122464 0.202353 0.246694 255 255 0
-0.054131 -0.032053 0.213040 255 255 0
-0.087558 -0.006546 0.246654 255 255 0
-0.100761 0.037154 0.247415 255 255 0
-0.215332 -0.030504 0.211041 255 255 0
0.100492 -0.026070 0.246594 255 255 0
-0.117271 -0.030900 0.211073 255 255 0
0.048691 0.052415 0.237979 255 255 0
-0.030505 0.040623 0.238995 255 255 0
-0.133281 0.105407 0.241168 255 255 0
0.021824 -0.011393 0.246918 255 255 0
-0.233515 0.153294 0.243514 255 255 0
-0.138829 0.165882 0.247360 255 255 0
-0.074148 0.162357 0.247631 255 255 0
-0.087823 0.069164 0.239025 255 255 0
-0.215965 0.014614 0.247149 255 255 0
-0.035617 0.006950 0.247022 255 255 0
-0.165054 -0.024833 0.247260 255 255 0
-0.096430 0.187540 0.239979 255 255 0
-0.234418 0.051251 0.241979 255 255 0
-0.032845 0.188338 0.239979 255 255 0
-0.185823 0.122709 0.239979 255 255 0
-0.063913 -0.029974 0.246878 255 255 0
0.020066 0.038053 0.246556 255 255 0
0.114024 0.153030 0.215105 255 255 0
0.052586 -0.030200 0.214978 255 255 0
0.059834 0.148191 0.247118 255 255 0
-0.000064 -0.037411 0.244957 255 255 0
-0.025269 0.084493 0.239005 255 255 0
0.080759 -0.003473 0.237014 255 255 0
0.012467 0.156215 0.247478 255 255 0
0.119081 0.172402 0.239979 255 255 0
-0.228437 -0.003182 0.215979 255 255 0
-0.231984 0.183638 0.241979 255 255 0
0.113656 0.122438 0.223090 255 255 0
0.006986 0.091950 0.239032 255 255 0
-0.154664 0.009763 0.239979 255 255 0
0.065089 0.095957 0.247904 255 255 0
-0.045002 0.107090 0.246963 255 255 0
-0.128149 0.042976 0.239009 255 255 0
-0.213782 0.130697 0.247514 255 255 0
-0.230837 0.081160 0.245979 255 255 0
-0.125503 0.132380 0.247078 255 255 0
-0.232588 -0.044352 0.229979 255 255 0
-0.045513 0.162405 0.246783 255 255 0
-0.184531 0.032469 0.239979 255 255 0
-0.206301 -0.011976 0.239979 255 255 0
-0.030940 0.134771 0.247124 255 255 0
-0.086255 0.134260 0.247129 255 255 0
-0.234386 0.110540 0.241979 255 255 0
-0.110251 -0.022169 0.239979 255 255 0
-0.170125 0.158221 0.239979 255 255 0
-0.066843 0.052436 0.247296 255 255 0
0.063699 0.175995 0.246696 255 255 0
0.107173 0.072699 0.247221 255 255 0
-0.027991 -0.043743 0.225023 255 255 0
0.026584 0.203388 0.241979 255 255 0
-0.151795 0.066404 0.247362 255 255 0
-0.060047 -0.002170 0.239020 255 255 0
-0.227864 0.199120 0.219178 255 255 0
0.005105 0.131199 0.239005 255 255 0
0.078598 -0.042495 0.237979 255 255 0
0.098610 0.191066 0.237979 255 255 0
-0.070973 0.100342 0.241049 255 255 0
-0.006812 -0.011441 0.247528 255 255 0
0.094140 0.097961 0.247341 255 255 0
0.113675 0.026334 0.247693 255 255 0
-0.190007 -0.036411 0.215979 255 255 0
0.054013 0.120803 0.246779 255 255 0
0.073132 0.047220 0.247003 255 255 0
-0.176934 0.063569 0.239013 255 255 0
0.023515 0.063900 0.239027 255 255 0
-0.142164 -0.013341 0.239014 255 255 0
0.098960 0.139875 0.247124 255 255 0
-0.192774 0.181438 0.246962 255 255 0
0.000559 0.177148 0.238990 255 255 0
0.023298 0.110974 0.246697 255 255 0
-0.154882 -0.044315 0.231979 255 255 0
-0.079385 -0.030774 0.211979 255 255 0
0.051791 0.196928 0.239027 255 255 0
-0.101838 0.012847 0.239030 255 255 0
-0.225691 0.103528 0.211979 255 255 0
0.035688 -0.032742 0.247004 255 255 0
0.100227 0.049640 0.239090 255 255 0
0.047379 -0.006602 0.236993 255 255 0
0.022901 0.012914 0.239083 255 255 0
-0.006613 0.037589 0.247488 255 255 0
-0.157749 0.110608 0.239979 255 255 0
0.117153 0.119650 0.247290 255 255 0
-0.193586 0.081421 0.238988 255 255 0
-0.118903 0.178004 0.239979 255 255 0
-0.035712 0.064221 0.247291 255 255 0
-0.110846 0.090415 0.239979 255 255 0
0.100860 0.004522 0.247611 255 255 0
0.056186 0.073313 0.246847 255 255 0
-0.230418 0.150590 0.219979 255 255 0
0.064645 0.026532 0.236993 255 255 0
-0.140038 -0.032195 0.216862 255 255 0
-0.224131 0.053154 0.221030 255 255 0
-0.150235 0.203066 0.243979 255 255 0
-0.048443 -0.043485 0.235979 255 255 0
0.051820 -0.043423 0.233979 255 255 0
-0.215303 0.036965 0.241063 255 255 0
-0.218535 -0.035957 0.246299 255 255 0
-0.114208 -0.043819 0.229979 255 255 0
0.039146 0.156678 0.239095 255 255 0
-0.184196 0.202552 0.243979 255 255 0
0.026528 -0.027743 0.209979 255 255 0
0.078981 0.142077 0.236993 255 255 0
-0.138176 0.024660 0.247063 255 255 0
-0.216079 0.167989 0.241114 255 255 0
0.003277 -0.040934 0.221979 255 255 0
-0.140761 0.084505 0.239979 255 255 0
-0.185193 -0.018508 0.239979 255 255 0
-0.185099 0.102109 0.247299 255 255 0
-0.234110 0.025444 0.241979 255 255 0
-0.090176 -0.028481 0.246605 255 255 0
0.063959 0.004187 0.247979 255 255 0
-0.058668 0.177469 0.238984 255 255 0
-0.105766 0.056620 0.239979 255 255 0
-0.114720 0.115775 0.239014 255 255 0
-0.230614 0.003415 0.236120 255 255 0
-0.083693 0.021258 0.247037 255 255 0
-0.068780 -0.043252 0.227299 255 255 0
-0.210108 -0.044406 0.227979 255 255 0
-0.175374 -0.034907 0.230992 255 255 0
0.115347 0.197732 0.227282 255 255 0
-0.180695 0.142066 0.247819 255 255 0
-0.211731 0.073010 0.247180 255 255 0
-0.049359 0.038497 0.247219 255 255 0
0.039629 0.033894 0.239077 255 255 0
-0.011254 0.140810 0.247786 255 255 0
-0.022093 0.022478 0.247428 255 255 0
-0.089950 0.088018 0.246961 255 255 0
0.097883 0.115568 0.236983 255 255 0
-0.229642 0.094560 0.229979 255 255 0
0.016826 0.186339 0.247979 255 255 0
-0.233761 0.132899 0.241787 255 255 0
-0.166812 0.024613 0.247045 255 255 0
-0.117782 0.024415 0.247492 255 255 0
-0.138583 0.186277 0.247145 255 255 0
-0.084572 0.045981 0.238979 255 255 0
-0.095252 0.168888 0.247733 255 255 0
0.106615 0.156650 0.236983 255 255 0
-0.230566 -0.025221 0.223370 255 255 0
-0.167180 -0.005979 0.239003 255 255 0
0.017102 -0.028792 0.237979 255 255 0
-0.033321 -0.030342 0.211009 255 255 0
-0.017879 0.176978 0.247141 255 255 0
0.080513 -0.023868 0.247118 255 255 0
-0.041732 -0.012197 0.238995 255 255 0
0.083385 0.182034 0.247191 255 255 0
-0.073099 0.119196 0.247126 255 255 0
-0.126623 0.151020 0.239979 255 255 0
-0.018521 0.058523 0.239000 255 255 0
-0.197111 0.016741 0.241114 255 255 0
-0.149981 0.151895 0.238993 255 255 0
-0.078231 0.181627 0.246909 255 255 0
0.042445 0.104860 0.246862 255 255 0
-0.097875 -0.035844 0.215979 255 255 0
-0.107537 -0.004344 0.247050 255 255 0
-0.084140 0.201925 0.243979 255 255 0
0.068178 -0.039648 0.221979 255 255 0
-0.223742 0.069429 0.231979 255 255 0
-0.227827 0.203201 0.243979 255 255 0
-0.010410 0.093603 0.247979 255 255 0
-0.018427 0.001251 0.239021 255 255 0
-0.104693 0.134090 0.241128 255 255 0
-0.140690 0.123339 0.239979 255 255 0
-0.060161 0.151206 0.241129 255 255 0
0.112999 0.171650 0.221979 255 255 0
0.125399 0.077004 0.243979 255 255 0
-0.042488 0.022723 0.239015 255 255 0
0.004860 0.110804 0.239021 255 255 0
0.020973 0.080798 0.247252 255 255 0
0.101701 0.172007 0.247557 255 255 0
-0.013565 -0.033594 0.231979 255 255 0
-0.174391 0.046671 0.247187 255 255 0
-0.052610 0.061679 0.239036 255 255 0
0.008253 0.001715 0.247134 255 255 0
-0.027396 0.103347 0.238995 255 255 0
-0.047809 0.199697 0.239047 255 255 0
-0.073155 -0.015741 0.239076 255 255 0
0.082129 0.012593 0.247035 255 255 0
-0.107287 0.202116 0.243979 255 255 0
-0.155008 0.171366 0.239979 255 255 0
-0.020714 0.202117 0.244485 255 255 0
0.111067 -0.009916 0.241979 255 255 0
-0.230840 0.169082 0.229979 255 255 0
0.055824 0.038631 0.247979 255 255 0
-0.136976 0.059165 0.239014 255 255 0
-0.071634 0.077991 0.239042 255 255 0
-0.125682 -0.012755 0.247228 255 255 0
-0.215909 0.149551 0.247367 255 255 0
-0.198009 0.137568 0.241053 255 255 0
-0.214293 0.186012 0.247480 255 255 0
-0.044416 0.090608 0.239031 255 255 0
0.119355 0.139629 0.226216 255 255 0
-0.006122 0.078379 0.239005 255 255 0
-0.088381 0.153115 0.241122 255 255 0
-0.103058 0.074447 0.247360 255 255 0
0.080313 0.104989 0.237979 255 255 0
-0.204539 0.116464 0.241174 255 255 0
-0.042971 0.145507 0.238979 255 255 0
0.019706 0.171033 0.239016 255 255 0
0.037332 0.071187 0.247832 255 255 0
0.034932 0.002178 0.246933 255 255 0
-0.076822 0.005485 0.238989 255 255 0
-0.041676 0.122740 0.239042 255 255 0
0.006079 0.049204 0.239037 255 255 0
-0.104602 -0.038633 0.243979 255 255 0
0.064570 -0.012300 0.236998 255 255 0
0.097098 0.083019 0.236993 255 255 0
-0.147447 -0.028575 0.247281 255 255 0
0.008914 0.024066 0.246974 255 255 0
-0.054765 0.013065 0.246947 255 255 0
0.065845 0.061037 0.239049 255 255 0
0.033174 0.051624 0.246789 255 255 0
-0.031696 0.169691 0.239042 255 255 0
0.065324 0.130667 0.237979 255 255 0
0.087780 0.058419 0.247340 255 255 0
0.112948 0.186444 0.247979 255 255 0
0.068614 0.160638 0.239072 255 255 0
-0.168372 0.123089 0.246520 255 255 0
0.034686 -0.018217 0.236992 255 255 0
0.061715 0.108942 0.236992 255 255 0
-0.217430 0.055819 0.241086 255 255 0
-0.134418 -0.044234 0.227979 255 255 0
0.047142 0.136576 0.246912 255 255 0
-0.220123 -0.004949 0.247184 255 255 0
-0.178371 0.172242 0.247340 255 255 0
-0.223374 0.018234 0.230960 255 255 0
-0.224010 0.111436 0.227979 255 255 0
0.019338 0.140441 0.247688 255 255 0
-0.230039 0.040097 0.229979 255 255 0
0.095161 -0.012669 0.236998 255 255 0
-0.147098 0.098121 0.247699 255 255 0
0.049467 0.166752 0.247860 255 255 0
-0.224053 0.183997 0.225979 255 255 0
-0.126410 0.089634 0.247204 255 255 0
-0.199653 0.033638 0.247309 255 255 0
-0.223547 -0.011437 0.229979 255 255 0
-0.076349 -0.040387 0.241979 255 255 0
0.109450 0.131511 0.237014 255 255 0
-0.000934 0.150884 0.239005 255 255 0
0.066507 0.083388 0.236993 255 255 0
0.103771 0.018216 0.237019 255 255 0
-0.018077 0.127948 0.239010 255 255 0
-0.139906 0.141575 0.247304 255 255 0
0.113165 0.081649 0.233028 255 255 0
-0.143800 0.046302 0.247217 255 255 0
-0.057865 0.113913 0.238999 255 255 0
-0.204303 -0.026714 0.247264 255 255 0
-0.011056 0.189840 0.239000 255 255 0
0.079492 0.086762 0.246893 255 255 0
-0.047431 -0.029388 0.247151 255 255 0
-0.014051 -0.026259 0.247172 255 255 0
-0.072854 0.139591 0.239025 255 255 0
-0.023293 -0.012027 0.247541 255 255 0
0.070523 0.188858 0.239054 255 255 0
-0.226578 0.012781 0.211051 255 255 0
0.006467 -0.016308 0.239018 255 255 0
-0.031110 0.153209 0.247332 255 255 0
0.099272 0.035530 0.247428 255 255 0
0.112919 0.061255 0.237019 255 255 0
-0.116894 0.163264 0.246776 255 255 0
-0.074498 0.035661 0.246762 255 255 0
0.039185 -0.035530 0.222882 255 255 0
-0.224764 0.098272 0.246787 255 255 0
-0.087209 0.120150 0.238999 255 255 0
-0.179287 -0.034076 0.246770 255 255 0
-0.178673 0.016911 0.238993 255 255 0
-0.179892 0.078510 0.247051 255 255 0
-0.141210 0.000769 0.246846 255 255 0
-0.044142 0.178471 0.247147 255 255 0
-0.028397 0.117873 0.247495 255 255 0
-0.162115 0.056330 0.238998 255 255 0
0.009113 0.073096 0.239043 255 255 0
0.037531 0.120217 0.246698 255 255 0
-0.190628 0.066480 0.247219 255 255 0
0.108543 0.088765 0.246879 255 255 0
0.092009 0.203368 0.245979 255 255 0
0.050421 0.180862 0.239021 255 255 0
0.022343 0.096864 0.239026 255 255 0
0.052104 0.092583 0.239077 255 255 0
-0.152286 0.025615 0.239009 255 255 0
-0.202394 0.001506 0.247639 255 255 0
0.038806 0.193554 0.247726 255 255 0
0.119184 0.158067 0.247040 255 255 0
-0.219481 0.113506 0.246887 255 255 0
-0.224490 0.143196 0.233979 255 255 0
-0.029531 -0.041371 0.240830 255 255 0
-0.119785 0.053466 0.247247 255 255 0
0.075674 0.030322 0.247507 255 255 0
0.011381 -0.031665 0.211080 255 255 0
-0.056673 -0.015155 0.247127 255 255 0
-0.004308 0.163870 0.247110 255 255 0
-0.166001 0.201579 0.243979 255 255 0
-0.043641 -0.040417 0.221099 255 255 0
0.031265 0.023404 0.247116 255 255 0
0.111735 0.108534 0.229979 255 255 0
0.107957 0.105247 0.246954 255 255 0
-0.021895 0.071508 0.247016 255 255 0
0.095728 0.066953 0.237014 255 255 0
-0.057695 0.095475 0.247464 255 255 0
-0.058253 -0.032203 0.231979 255 255 0
0.092952 -0.036735 0.237979 255 255 0
-0.227504 0.066139 0.247531 255 255 0
0.019924 0.123959 0.239043 255 255 0
-0.233889 -0.034738 0.241979 255 255 0
-0.188501 0.047625 0.241016 255 255 0
-0.168617 0.102695 0.247528 255 255 0
0.011053 -0.042829 0.235979 255 255 0
0.124908 0.036215 0.243979 255 255 0
-0.144366 -0.033320 0.232986 255 255 0
-0.154753 0.081346 0.247327 255 255 0
-0.041458 0.075666 0.239015 255 255 0
-0.217062 0.086411 0.241160 255 255 0
-0.117631 0.102081 0.247004 255 255 0
0.066063 -0.034134 0.235979 255 255 0
-0.168182 0.008547 0.246801 255 255 0
-0.230398 0.168988 0.245979 255 255 0
-0.164052 -0.039359 0.243139 255 255 0
0.112437 0.184038 0.232964 255 255 0
0.011002 0.197420 0.239000 255 255 0
-0.042951 0.049403 0.239005 255 255 0
-0.122724 -0.027696 0.246763 255 255 0
0.047133 -0.026996 0.239049 255 255 0
-0.217581 -0.021847 0.241087 255 255 0
-0.224771 -0.017196 0.211979 255 255 0
0.119442 0.160057 0.229979 255 255 0
-0.151681 0.187016 0.239979 255 255 0
0.027392 0.159176 0.247979 255 255 0
0.115922 0.200436 0.209979 255 255 0
-0.095922 -0.017036 0.238981 255 255 0
-0.165649 0.073438 0.239979 255 255 0
0.086410 0.042353 0.239066 255 255 0
0.090596 0.129384 0.239078 255 255 0
-0.226229 0.139477 0.211018 255 255 0
0.107686 0.200165 0.245979 255 255 0
-0.185194 0.159380 0.241049 255 255 0
0.111549 0.045188 0.247521 255 255 0
-0.156274 -0.012386 0.246674 255 255 0
-0.092274 0.057842 0.247395 255 255 0
-0.076085 0.066669 0.247602 255 255 0
0.075437 0.173500 0.236992 255 255 0
-0.225236 -0.038622 0.218609 255 255 0
0.086929 0.150611 0.247245 255 255 0
-0.196148 0.194423 0.241043 255 255 0
-0.201137 0.170948 0.241043 255 255 0
-0.124181 -0.034550 0.223979 255 255 0
-0.166170 0.143068 0.241070 255 255 0
-0.019060 0.046369 0.247088 255 255 0
-0.187537 -0.044030 0.229979 255 255 0
-0.101842 -0.035269 0.229979 255 255 0
-0.095015 0.025710 0.239020 255 255 0
-0.090517 0.008396 0.247024 255 255 0
-0.116941 0.191900 0.247719 255 255 0
-0.006340 0.125453 0.247190 255 255 0
-0.061097 0.040992 0.239076 255 255 0
-0.203824 -0.034079 0.219979 255 255 0
-0.220291 -0.034598 0.231979 255 255 0
-0.136759 0.012091 0.239014 255 255 0
-0.039818 -0.032052 0.233979 255 255 0
0.114677 0.011808 0.248112 255 255 0
-0.138394 0.071734 0.246722 255 255 0
0.034695 0.145356 0.247093 255 255 0
-0.101319 0.121105 0.247408 255 255 0
-0.115183 0.142454 0.246865 255 255 0
0.069975 0.013131 0.236998 255 255 0
-0.017642 0.033800 0.239010 255 255 0
0.101918 0.124933 0.247398 255 255 0
0.035573 -0.042906 0.235979 255 255 0
0.001098 0.189302 0.247383 255 255 0
-0.081019 -0.033496 0.225979 255 255 0
-0.016654 -0.038509 0.217979 255 255 0
-0.114871 0.038109 0.241105 255 255 0
-0.022992 0.143305 0.239005 255 255 0
-0.047894 -0.002708 0.247589 255 255 0
-0.192319 -0.008814 0.247491 255 255 0
0.052246 0.006676 0.239055 255 255 0
0.071024 -0.030030 0.211013 255 255 0
-0.166128 -0.040962 0.221979 255 255 0
-0.005857 0.002669 0.246648 255 255 0
-0.068874 0.014019 0.247252 255 255 0
0.019064 0.052578 0.247031 255 255 0
-0.126458 0.118270 0.246927 255 255 0
-0.085083 0.101296 0.241101 255 255 0
-0.180913 0.189140 0.247036 255 255 0
-0.229413 0.037919 0.246633 255 255 0
-0.105326 0.179208 0.247076 255 255 0
0.005124 0.035094 0.239060 255 255 0
-0.098285 0.144996 0.247308 255 255 0
0.042209 -0.013682 0.247979 255 255 0
-0.045466 0.133769 0.246879 255 255 0
-0.059207 0.165315 0.247448 255 255 0
-0.134462 -0.025201 0.239041 255 255 0
0.029318 0.187393 0.239026 255 255 0
-0.152826 -0.034643 0.221979 255 255 0
-0.144187 0.111815 0.247036 255 255 0
-0.224796 0.122815 0.237979 255 255 0
0.083924 0.194188 0.239049 255 255 0
-0.158515 0.159843 0.247437 255 255 0
-0.176710 -0.031571 0.215979 255 255 0
-0.113699 0.005145 0.239004 255 255 0
-0.230652 0.195623 0.232698 255 255 0
-0.231275 0.115736 0.215979 255 255 0
-0.033387 0.094398 0.247681 255 255 0
-0.196544 0.096363 0.241065 255 255 0
0.023498 -0.040375 0.241979 255 255 0
0.112361 0.145205 0.247361 255 255 0
-0.035240 0.201115 0.244290 255 255 0
0.079123 0.056170 0.236998 255 255 0
-0.176736 0.112599 0.241077 255 255 0
0.014878 -0.034453 0.225013 255 255 0
0.098790 0.158313 0.248005 255 255 0
0.067291 0.115936 0.247258 255 255 0
-0.230769 0.081146 0.231979 255 255 0
-0.067116 -0.035427 0.215466 255 255 0
-0.119350 -0.040682 0.242115 255 255 0
0.003140 -0.031958 0.232984 255 255 0
-0.141966 0.035689 0.239014 255 255 0
-0.230372 -0.029351 0.209979 255 255 0
-0.036496 0.031673 0.247177 255 255 0
-0.007001 0.103102 0.238995 255 255 0
-0.075424 0.089020 0.246897 255 255 0
0.009925 0.173112 0.248073 255 255 0
0.092898 0.010304 0.237979 255 255 0
0.091107 0.074069 0.247475 255 255 0
-0.229563 0.013415 0.245979 255 255 0
-0.008447 0.048203 0.239021 255 255 0
0.071865 0.137455 0.247578 255 255 0
-0.203818 -0.034052 0.233979 255 255 0
-0.204908 0.085872 0.247006 255 255 0
0.046698 0.067152 0.239077 255 255 0
-0.054217 0.188791 0.247216 255 255 0
0.067556 0.040226 0.236993 255 255 0
0.045696 0.081677 0.247406 255 255 0
0.060610 0.017167 0.247293 255 255 0
-0.032338 0.051236 0.247331 255 255 0
-0.107018 0.103914 0.239041 255 255 0
0.019527 0.025899 0.239025 255 255 0
-0.196591 0.124998 0.247733 255 255 0
0.087024 0.093339 0.236998 255 255 0
0.071686 -0.007679 0.247327 255 255 0
-0.082682 0.170305 0.241099 255 255 0
0.023373 0.149807 0.239048 255 255 0
0.059853 0.052087 0.246960 255 255 0
0.055620 -0.006309 0.247504 255 255 0
0.107929 0.037779 0.237019 255 255 0
-0.176490 0.132994 0.238998 255 255 0
0.019991 -0.000780 0.239083 255 255 0
-0.070660 -0.004003 0.246847 255 255 0
0.002951 0.082584 0.247791 255 255 0
0.053672 0.157680 0.239083 255 255 0
0.050119 0.025531 0.239072 255 255 0
-0.224276 0.090946 0.217979 255 255 0
-0.226448 0.065915 0.217979 255 255 0
0.092335 0.176042 0.239072 255 255 0
0.005228 0.141396 0.247482 255 255 0
-0.225018 0.159666 0.211979 255 255 0
-0.207601 0.025104 0.241033 255 255 0
-0.026129 0.013112 0.238995 255 255 0
-0.181310 0.091080 0.241064 255 255 0
0.008895 0.120170 0.247439 255 255 0
-0.096508 -0.000554 0.238984 255 255 0
0.102381 0.098254 0.237014 255 255 0
0.062405 0.198762 0.246661 255 255 0
-0.066304 0.064590 0.238994 255 255 0
-0.178209 -0.009769 0.246942 255 255 0
-0.168173 0.172120 0.238998 255 255 0
-0.154630 0.091543 0.238998 255 255 0
-0.223702 0.007075 0.223979 255 255 0
0.069880 0.070403 0.247358 255 255 0
-0.223072 0.159252 0.233979 255 255 0
-0.218498 0.195084 0.238982 255 255 0
0.096362 0.021836 0.247194 255 255 0
-0.170602 0.035642 0.241112 255 255 0
0.090766 0.110946 0.246895 255 255 0
-0.136750 0.175664 0.238998 255 255 0
0.005889 0.163747 0.238995 255 255 0
0.119137 0.186703 0.221471 255 255 0
0.104262 0.059005 0.247178 255 255 0
-0.112839 0.076526 0.239041 255 255 0
0.124997 0.021883 0.243095 255 255 0
0.090540 -0.005553 0.246835 255 255 0
-0.201487 0.044252 0.238988 255 255 0
0.081930 -0.036437 0.226997 255 255 0
-0.075736 0.193365 0.239036 255 255 0
-0.077059 0.148663 0.247291 255 255 0
-0.045815 0.007073 0.239015 255 255 0
0.011437 0.103272 0.247239 255 255 0
-0.003380 -0.043392 0.233979 255 255 0
-0.077191 -0.025107 0.247023 255 255 0
-0.155802 0.124507 0.238993 255 255 0
0.025198 -0.024379 0.247006 255 255 0
-0.056339 -0.042442 0.223979 255 255 0
-0.007568 0.023480 0.247161 255 255 0
-0.053829 0.123279 0.247106 255 255 0
-0.116610 -0.008549 0.239004 255 255 0
0.043664 0.043260 0.246865 255 255 0
-0.031412 -0.002122 0.239000 255 255 0
0.029819 -0.031495 0.235012 255 255 0
-0.193218 0.112013 0.247723 255 255 0
-0.221711 0.026059 0.246871 255 255 0
-0.128272 0.032779 0.247219 255 255 0
-0.225813 0.141433 0.247155 255 255 0
-0.013481 -0.038649 0.243979 255 255 0
-0.016347 0.011033 0.247263 255 255 0
0.032248 0.104982 0.239027 255 255 0
-0.004978 -0.022054 0.239054 255 255 0
0.033400 0.168123 0.239060 255 255 0
-0.125314 0.017837 0.239041 255 255 0
-0.076208 0.056472 0.239042 255 255 0
-0.061730 0.086109 0.238994 255 255 0
-0.062245 -0.041365 0.239979 255 255 0
0.053295 -0.036485 0.245757 255 255 0
0.006344 -0.026505 0.246748 255 255 0
-0.126968 0.187897 0.239979 255 255 0
0.072819 0.151565 0.246999 255 255 0
-0.099022 0.083812 0.239036 255 255 0
0.124992 0.187503 0.243979 255 255 0
0.037011 0.011959 0.239072 255 255 0
0.055997 0.187856 0.248044 255 255 0
0.077686 0.164843 0.246910 255 255 0
-0.150283 -0.003436 0.239014 255 255 0
0.120035 0.065876 0.246931 255 255 0
-0.052733 0.051482 0.246824 255 255 0
-0.139037 0.198641 0.239979 255 255 0
0.013318 0.064023 0.246851 255 255 0
0.120760 0.107761 0.243979 255 255 0
-0.105865 0.167054 0.241062 255 255 0
-0.087067 0.034244 0.247376 255 255 0
-0.114597 0.125972 0.247538 255 255 0
-0.156104 -0.030825 0.237006 255 255 0
0.119229 0.119209 0.233979 255 255 0
-0.107585 0.024292 0.238999 255 255 0
-0.081832 0.078114 0.246949 255 255 0
-0.100856 0.094426 0.246932 255 255 0
0.047265 0.146774 0.239037 255 255 0
0.010332 0.011496 0.239032 255 255 0
0.088754 -0.023575 0.237008 255 255 0
-0.021253 0.189963 0.247906 255 255 0
-0.127384 0.171628 0.246831 255 255 0
0.046480 0.114225 0.239077 255 255 0
0.055014 0.106277 0.247310 255 255 0
0.045063 0.126795 0.239060 255 255 0
-0.129888 -0.003682 0.239041 255 255 0
-0.229922 0.058474 0.231979 255 255 0
-0.129913 0.078110 0.239979 255 255 0
0.000721 -0.004863 0.239077 255 255 0
0.030339 0.076763 0.239043 255 255 0
0.111390 0.145411 0.233979 255 255 0
-0.108879 0.047059 0.247515 255 255 0
0.039428 -0.029448 0.211979 255 255 0
-0.188861 -0.031022 0.235979 255 255 0
0.029139 0.042258 0.239083 255 255 0
-0.230029 0.138240 0.223979 255 255 0
-0.187622 0.022902 0.247336 255 255 0
-0.067325 0.175220 0.247654 255 255 0
-0.209387 0.007082 0.238988 255 255 0
0.075476 -0.018708 0.236993 255 255 0
0.074105 -0.034774 0.246606 255 255 0
-0.202782 0.067018 0.241076 255 255 0
-0.090802 -0.031426 0.233979 255 255 0
-0.149962 0.055791 0.241081 255 255 0
-0.070407 -0.031667 0.233979 255 255 0
-0.027664 -0.032588 0.231979 255 255 0
-0.015488 0.082414 0.246996 255 255 0
0.096005 0.183689 0.247979 255 255 0
0.119648 0.131388 0.244716 255 255 0
-0.115525 -0.032304 0.233979 255 255 0
-0.148895 -0.040536 0.241979 255 255 0
0.097707 0.148320 0.237979 255 255 0
-0.232563 -0.005757 0.243979 255 255 0
-0.110727 -0.038592 0.217979 255 255 0
-0.157065 0.147426 0.247979 255 255 0
-0.078233 0.128466 0.239979 255 255 0
0.054593 -0.039996 0.221979 255 255 0
-0.145482 0.134582 0.238998 255 255 0
-0.158269 0.180238 0.247670 255 255 0
0.086391 0.138457 0.246754 255 255 0
-0.010715 0.152964 0.247345 255 255 0
-0.139368 0.153729 0.247076 255 255 0
-0.068648 0.130518 0.247362 255 255 0
0.120697 0.088227 0.246980 255 255 0
-0.099703 0.157566 0.247829 255 255 0
0.099613 -0.001347 0.237019 255 255 0
-0.189645 0.148058 0.241114 255 255 0
-0.053810 0.027175 0.247206 255 255 0
-0.095832 0.199681 0.239979 255 255 0
-0.047034 0.068673 0.247265 255 255 0
-0.021044 -0.020684 0.239016 255 255 0
-0.032801 0.077915 0.247159 255 255 0
-0.182510 0.056575 0.247153 255 255 0
0.069833 0.099038 0.236993 255 255 0
-0.010885 0.171402 0.239015 255 255 0
0.077451 0.130134 0.237979 255 255 0
-0.206798 -0.038452 0.245014 255 255 0
0.073991 0.118601 0.236993 255 255 0
-0.060284 0.141008 0.247557 255 255 0
-0.220850 0.179227 0.239979 255 255 0
-0.064981 0.109292 0.247554 255 255 0
0.075626 0.058958 0.248157 255 255 0
-0.096726 0.046520 0.241058 255 255 0
0.058681 0.085051 0.247383 255 255 0
-0.024702 0.164115 0.247058 255 255 0
0.059296 0.136038 0.246870 255 255 0
0.040885 0.203336 0.241085 255 255 0
0.035253 0.061405 0.239077 255 255 0
-0.209747 0.140063 0.241052 255 255 0
0.067065 -0.000563 0.236998 255 255 0
-0.224965 0.029990 0.233979 255 255 0
0.110641 0.002443 0.240986 255 255 0
-0.109532 0.188280 0.239014 255 255 0
-0.148081 0.016542 0.247357 255 255 0
0.091646 0.086223 0.247173 255 255 0
-0.192149 -0.027252 0.246839 255 255 0
-0.090801 0.180210 0.247549 255 255 0
-0.008617 0.066641 0.239005 255 255 0
-0.049964 0.151083 0.247336 255 255 0
-0.115334 0.064788 0.239041 255 255 0
-0.204511 0.183933 0.241032 255 255 0
0.030897 -0.007188 0.239077 255 255 0
-0.169675 -0.017717 0.238993 255 255 0
-0.067202 0.185417 0.241050 255 255 0
-0.146947 0.175786 0.247396 255 255 0
-0.166737 0.063446 0.247202 255 255 0
-0.029503 0.026097 0.238985 255 255 0
-0.020132 -0.043369 0.233979 255 255 0
-0.223624 0.045919 0.237979 255 255 0
-0.157315 0.194348 0.247540 255 255 0
-0.208377 0.156129 0.241146 255 255 0
0.108136 0.168595 0.237979 255 255 0
0.058123 0.169002 0.239077 255 255 0
-0.150207 0.035396 0.247379 255 255 0
-0.131420 0.162263 0.239003 255 255 0
-0.052052 -0.022271 0.239015 255 255 0
-0.083004 0.111078 0.247247 255 255 0
0.012392 -0.036530 0.245979 255 255 0
0.081987 0.098500 0.247610 255 255 0
-0.191356 0.168868 0.247156 255 255 0
-0.132355 0.052049 0.247099 255 255 0
0.113023 0.167556 0.211002 255 255 0
-0.029617 0.179473 0.246923 255 255 0
0.046991 0.058910 0.247557 255 255 0
-0.076577 0.025880 0.238999 255 255 0
0.091958 -0.018122 0.247319 255 255 0
-0.005319 -0.033279 0.219979 255 255 0
0.034497 0.096326 0.247308 255 255 0
-0.188644 0.133532 0.247275 255 255 0
-0.160064 -0.001357 0.247053 255 255 0
0.015227 0.092243 0.247502 255 255 0
-0.157494 0.049213 0.247251 255 255 0
0.086703 0.034112 0.247670 255 255 0
-0.043188 0.192581 0.247064 255 255 0
-0.084184 -0.019531 0.238994 255 255 0
-0.193321 0.005712 0.241038 255 255 0
-0.006850 0.180768 0.247324 255 255 0
0.000408 0.099482 0.247301 255 255 0
-0.072418 0.045443 0.238999 255 255 0
0.012344 0.146017 0.239021 255 255 0
0.055478 0.079598 0.236992 255 255 0
-0.054075 0.102884 0.238984 255 255 0
0.011588 0.180938 0.238990 255 255 0
-0.035930 0.111295 0.239020 255 255 0
0.077923 0.021665 0.236983 255 255 0
0.099981 0.029245 0.237008 255 255 0
-0.018862 0.095399 0.238995 255 255 0
-0.003429 0.139147 0.239005 255 255 0
-0.014637 -0.009777 0.239010 255 255 0
-0.213224 0.046746 0.247071 255 255 0
-0.234252 0.092110 0.243959 255 255 0
0.103364 0.179832 0.239102 255 255 0
-0.034323 -0.015816 0.247208 255 255 0
-0.020572 0.116210 0.239010 255 255 0
-0.006047 0.117212 0.239000 255 255 0
-0.067032 0.166979 0.239025 255 255 0
-0.041226 -0.038675 0.243979 255 255 0
-0.047762 0.171062 0.239004 255 255 0
-0.150132 0.074229 0.239003 255 255 0
-0.030647 0.126530 0.239015 255 255 0
-0.224027 0.159455 0.247392 255 255 0
-0.033122 0.018688 0.247074 255 255 0
-0.226654 -0.026052 0.246828 255 255 0
-0.149819 -0.030116 0.211125 255 255 0
0.025280 -0.033614 0.219979 255 255 0
-0.223724 0.103166 0.235979 255 255 0
0.108912 0.119357 0.239078 255 255 0
0.053541 -0.016090 0.239096 255 255 0
0.067244 0.144572 0.239095 255 255 0
-0.178753 -0.041183 0.221979 255 255 0
-0.014684 0.018858 0.239021 255 255 0
-0.192291 0.058654 0.238998 255 255 0
-0.103747 -0.015373 0.247142 255 255 0
-0.086773 -0.041331 0.219979 255 255 0
-0.074763 0.111371 0.238989 255 255 0
-0.084591 0.142086 0.239004 255 255 0
0.118858 0.195010 0.237979 255 255 0
-0.102330 -0.027942 0.247212 255 255 0
-0.001746 0.050868 0.247832 255 255 0
-0.176792 -0.022338 0.246640 255 255 0
-0.033946 -0.033286 0.221979 255 255 0
-0.178128 0.153789 0.247979 255 255 0
-0.111620 0.014926 0.246825 255 255 0
-0.229026 -0.027593 0.234661 255 255 0
-0.144150 -0.041920 0.221979 255 255 0
0.069191 -0.019417 0.247251 255 255 0
0.086675 -0.033357 0.246950 255 255 0
-0.151653 -0.019503 0.239009 255 255 0
-0.179133 -0.042970 0.237979 255 255 0
-0.064641 0.072415 0.246976 255 255 0
-0.088306 0.191947 0.247239 255 255 0
-0.092671 -0.040218 0.242018 255 255 0
-0.197432 -0.042487 0.224806 255 255 0
-0.079317 -0.006253 0.238989 255 255 0
-0.215156 -0.034630 0.221979 255 255 0
-0.226068 -0.042534 0.238939 255 255 0
0.080511 0.154020 0.237979 255 255 0
0.056527 0.036437 0.236993 255 255 0
-0.071483 0.155657 0.239030 255 255 0
-0.196355 -0.018180 0.241046 255 255 0
-0.097496 -0.043679 0.223979 255 255 0
-0.098852 0.065374 0.238999 255 255 0
-0.044123 0.082367 0.247459 255 255 0
-0.230028 -0.013067 0.221121 255 255 0
-0.121061 -0.019871 0.239036 255 255 0
-0.133186 -0.033651 0.231979 255 255 0
0.101446 -0.011960 0.247075 255 255 0
0.119374 0.130099 0.231979 255 255 0
-0.096678 0.017884 0.247409 255 255 0
0.026625 0.126625 0.247416 255 255 0
-0.038330 -0.044290 0.229979 255 255 0
-0.223421 0.167505 0.221979 255 255 0
0.073453 0.106447 0.246479 255 255 0
0.079634 0.000855 0.247082 255 255 0
-0.198850 -0.029918 0.211077 255 255 0
-0.029012 0.066887 0.239005 255 255 0
0.091277 0.055631 0.236993 255 255 0
-0.220000 0.005248 0.241071 255 255 0
-0.054170 0.160155 0.239042 255 255 0
0.119366 0.151895 0.237979 255 255 0
0.064012 0.071650 0.236993 255 255 0
-0.036147 0.158369 0.239076 255 255 0
-0.124823 0.058626 0.239009 255 255 0
-0.127884 -0.032734 0.212997 255 255 0
-0.146521 0.163428 0.239979 255 255 0
-0.063837 0.008859 0.239036 255 255 0
-0.168979 -0.043300 0.233979 255 255 0
-0.221513 0.075089 0.241043 255 255 0
0.019243 0.197713 0.247724 255 255 0
-0.212903 0.105974 0.241076 255 255 0
-0.041534 0.036833 0.238995 255 255 0
-0.223759 0.035664 0.221979 255 255 0
0.061958 -0.043824 0.229979 255 255 0
0.062075 -0.024038 0.236998 255 255 0
0.063105 0.028905 0.247518 255 255 0
0.042294 0.027194 0.247237 255 255 0
0.089855 0.047755 0.247979 255 255 0
0.060373 0.160345 0.247221 255 255 0
-0.225615 0.190463 0.247535 255 255 0
-0.020544 0.183678 0.239020 255 255 0
-0.046808 0.185171 0.239036 255 255 0
-0.117876 0.081686 0.247142 255 255 0
-0.174717 0.001757 0.239979 255 255 0
-0.162191 0.017497 0.239003 255 255 0
0.089793 0.192940 0.248071 255 255 0
-0.198746 0.076384 0.247070 255 255 0
-0.125755 0.097673 0.239979 255 255 0
0.077223 0.191523 0.247131 255 255 0
0.046556 0.153058 0.247825 255 255 0
-0.130663 0.127342 0.239009 255 255 0
-0.128168 0.139080 0.239009 255 255 0
-0.229810 0.103433 0.221979 255 255 0
0.081297 0.008680 0.236993 255 255 0
-0.102416 0.192902 0.247206 255 255 0
-0.065354 0.121639 0.239979 255 255 0
-0.230326 0.120201 0.227979 255 255 0
-0.025467 0.035463 0.247037 255 255 0
0.071223 0.019000 0.246481 255 255 0
0.011116 0.044044 0.247260 255 255 0
-0.187764 0.108809 0.238988 255 255 0
-0.062760 0.033166 0.246658 255 255 0
0.010086 -0.008898 0.246624 255 255 0
0.090672 0.168217 0.247781 255 255 0
-0.153137 0.117807 0.247515 255 255 0
0.013346 0.131492 0.247208 255 255 0
-0.107311 0.112155 0.246957 255 255 0
-0.209898 0.062397 0.247722 255 255 0
-0.135360 0.095626 0.246828 255 255 0
0.084737 0.116317 0.237979 255 255 0
-0.010696 0.056859 0.247448 255 255 0
-0.224395 0.128863 0.246889 255 255 0
0.046670 -0.000317 0.247154 255 255 0
-0.170214 -0.029870 0.239000 255 255 0
-0.204171 0.147056 0.247649 255 255 0
0.017864 0.018074 0.247220 255 255 0
-0.044151 0.014898 0.246790 255 255 0
