ply
format ascii 1.0
element vertex 1240
property float x
property float y
property float z
property uchar red
property uchar green
property uchar blue
end_header
0.072732 0.437891 -0.365373 78 55 33
0.081590 0.431671 -0.387153 96 69 30
0.089369 0.426526 -0.381778 102 72 39
0.468247 0.034995 -0.165293 141 97 58
0.221018 0.200986 -0.117623 237 209 174
-0.076345 0.403979 -0.135909 214 212 209
0.384235 -0.060785 -0.195842 37 23 16
0.396130 -0.039801 -0.195702 27 17 12
0.375595 -0.072719 -0.198003 48 27 18
0.397328 -0.061215 -0.186820 45 25 15
0.368460 0.024285 -0.116161 220 191 139
0.430776 -0.046268 -0.121502 155 114 66
0.264742 -0.326654 -0.192290 129 96 48
0.255372 -0.341396 -0.192331 129 88 52
0.268419 -0.318620 -0.171522 52 29 16
0.258139 -0.335228 -0.173727 52 30 16
0.261358 -0.326531 -0.178764 51 29 15
0.256670 -0.333156 -0.183333 52 29 16
0.257741 -0.323463 -0.186920 51 29 19
0.265086 -0.318367 -0.181704 59 34 17
0.345812 0.241108 -0.114004 248 222 188
0.346259 0.209177 -0.114820 251 227 193
-0.052172 0.330729 -0.003054 154 141 126
-0.051049 0.336844 -0.028656 156 146 134
0.103652 0.412426 -0.121098 180 158 156
0.091649 0.424113 -0.124369 178 155 164
0.117327 0.412171 -0.124785 181 157 152
0.102154 -0.098511 -0.123007 206 170 132
0.099173 -0.117022 -0.123415 204 168 134
-0.106526 0.196437 0.418214 129 114 98
-0.093642 0.216149 0.427281 166 151 140
-0.096757 0.208147 0.430342 142 125 113
-0.128935 0.324626 0.000932 246 245 243
-0.119268 0.329983 -0.012614 253 253 252
0.544920 0.138069 -0.285271 28 17 13
0.540224 0.133544 -0.274653 42 27 22
0.536293 0.130271 -0.288877 29 16 12
0.531174 0.121188 -0.301799 34 20 15
0.528193 0.121706 -0.291310 17 12 12
0.105845 0.116734 -0.122653 220 189 158
0.154681 0.350857 -0.118334 211 170 128
0.200680 0.356163 -0.116480 216 177 134
0.462362 0.097631 -0.112065 233 204 147
0.222959 0.351569 -0.394851 138 93 49
0.232518 0.345502 -0.374278 136 92 48
0.235314 0.341613 -0.344135 138 99 52
0.068055 0.279128 -0.121760 196 154 103
0.106599 0.284184 -0.120595 200 158 108
-0.133395 0.332999 -0.024312 250 249 249
-0.116250 0.341202 -0.041509 252 251 251
-0.091461 0.341179 -0.026510 252 253 251
-0.131675 0.330015 -0.014917 251 252 252
-0.102038 0.330896 -0.006547 254 254 254
-0.089331 0.216122 0.380969 159 147 132
-0.087356 0.224062 0.372771 167 154 142
0.239697 -0.110615 -0.120072 203 162 115
0.391808 0.111440 -0.114587 232 202 165
-0.089849 0.234375 0.147722 129 103 83
0.481051 0.049839 -0.250620 63 39 20
0.487433 0.062108 -0.252241 72 41 22
0.498128 0.068822 -0.241443 62 38 18
0.478040 0.070318 -0.260121 31 18 14
-0.142018 0.312574 0.032400 227 223 217
-0.116467 0.310033 0.040633 229 226 221
-0.141827 0.207987 0.076918 196 183 164
0.042703 0.350061 -0.122023 177 139 102
0.448706 0.215840 -0.171896 143 108 66
0.214934 0.345788 -0.179098 178 133 83
0.232509 0.335659 -0.184187 178 136 82
0.240046 0.330989 -0.173893 172 134 79
0.301856 0.303103 -0.282778 145 104 60
0.083752 0.286799 -0.121831 207 164 116
0.103953 0.314714 -0.120225 204 164 118
0.289357 -0.281415 -0.168171 56 31 18
0.282521 -0.295013 -0.167951 55 31 18
-0.119339 0.383628 -0.144603 235 232 231
-0.140389 0.383135 -0.150845 240 240 240
-0.116801 0.388506 -0.149828 235 234 232
-0.123345 0.390153 -0.157439 242 243 239
0.373955 -0.141728 -0.203453 129 95 47
0.355125 -0.141475 -0.186765 46 26 16
0.500005 0.204262 -0.121158 170 134 85
0.504237 0.201275 -0.117050 170 134 85
0.481109 0.198969 -0.110187 242 211 167
0.492560 0.203449 -0.112368 226 193 141
0.468499 0.214625 -0.111354 199 169 106
0.485896 0.211700 -0.126471 155 122 70
-0.130740 0.262626 0.160948 214 210 202
0.379563 -0.147826 -0.228902 87 53 29
-0.176481 0.472149 0.206712 178 169 160
-0.175224 0.484137 0.210560 176 166 157
-0.159405 0.504657 0.206621 175 167 158
-0.179232 0.489706 0.212544 176 166 161
-0.185411 0.501861 0.214713 172 161 155
-0.211387 0.466346 0.214911 250 245 243
-0.239415 0.463481 0.216948 212 210 212
-0.244772 0.451441 0.215398 211 208 210
0.092255 0.423833 -0.359278 124 84 47
0.108634 0.413248 -0.333278 123 88 49
0.117674 0.408430 -0.328693 125 91 46
0.332648 0.285610 -0.278011 142 106 59
0.384201 0.266282 -0.134280 175 141 82
0.269691 -0.315046 -0.123703 183 147 90
0.260919 -0.333677 -0.124290 173 136 88
0.268118 -0.345444 -0.128625 165 128 90
0.106362 0.203421 -0.122172 215 175 126
0.281127 0.317315 -0.222121 172 132 70
0.262625 0.318773 -0.201276 175 134 77
0.256915 -0.351108 -0.237981 97 61 34
0.248518 0.335871 -0.373511 130 94 51
0.264359 0.328557 -0.387528 135 94 50
0.269306 0.324002 -0.370263 134 98 50
0.070151 0.424855 -0.204635 102 84 57
0.141297 -0.160581 -0.122455 195 158 119
0.165287 -0.161024 -0.122265 193 157 109
0.133137 0.405382 -0.137456 187 155 112
0.150939 0.392409 -0.145420 180 146 97
0.402215 -0.103191 -0.137052 129 86 42
0.386833 -0.125614 -0.142416 130 91 50
0.386958 -0.114688 -0.148769 91 57 29
0.377042 -0.123632 -0.155298 47 30 18
0.484387 0.166568 -0.110652 237 210 163
0.500555 0.189035 -0.109710 238 206 155
0.485791 0.196168 -0.159941 155 110 59
0.484248 0.207768 -0.137295 145 106 60
-0.226333 0.423388 0.213661 162 164 171
-0.200624 0.422647 0.205700 154 150 144
-0.207469 0.426098 0.211060 186 177 171
0.079401 0.233885 -0.122296 204 160 112
0.205112 0.356199 -0.261745 160 122 61
-0.093720 0.534053 -0.312194 255 255 255
-0.105869 0.516919 -0.302714 255 255 254
0.088942 -0.063552 -0.122993 205 170 125
0.114670 -0.046101 -0.122678 205 166 130
0.516898 0.197336 -0.314961 132 98 57
0.525177 0.194753 -0.309278 132 98 56
0.537254 0.187305 -0.301028 134 92 62
-0.121593 0.202439 0.193194 142 129 110
-0.096019 0.215581 0.205086 140 121 102
0.181660 0.372509 -0.320778 152 110 61
0.191323 0.366085 -0.296778 151 117 60
0.214629 0.353184 -0.310767 152 111 63
0.243866 -0.070012 -0.120556 206 170 120
0.293321 -0.210921 -0.200957 26 17 15
-0.118362 0.254212 0.436508 173 164 151
-0.106050 0.242134 0.414999 170 161 149
-0.093431 0.225623 0.405668 169 160 151
-0.098276 0.227641 0.431603 169 158 152
0.431627 0.003496 -0.115244 220 186 124
0.467565 0.055569 -0.113235 224 192 134
0.449262 0.030760 -0.114460 219 184 125
-0.172342 0.398051 -0.165034 255 255 255
-0.170428 0.408817 -0.162230 254 255 254
-0.171378 0.401082 -0.142850 252 253 253
0.455318 0.014979 -0.154999 93 60 34
0.438672 -0.004420 -0.161672 53 29 17
0.453198 0.006452 -0.146296 63 37 20
0.453064 -0.003133 -0.138896 74 45 20
0.313998 -0.166523 -0.120557 198 160 103
-0.098578 0.252614 0.218401 166 159 148
-0.110100 0.260168 0.181236 181 178 167
-0.125860 0.266219 0.206446 179 174 169
-0.113166 0.262232 0.199982 170 164 154
-0.039299 0.527169 -0.271256 198 199 194
-0.052963 0.531356 -0.287535 197 198 192
-0.066103 0.517485 -0.269487 213 214 207
-0.016470 0.472899 -0.149315 176 161 154
-0.008554 0.472844 -0.146940 169 150 137
-0.015729 0.488310 -0.170109 248 246 242
-0.015433 0.490281 -0.162656 224 212 217
-0.161663 0.254045 0.710931 189 185 187
-0.149585 0.242720 0.669314 185 178 177
-0.149607 0.240488 0.684980 188 182 185
-0.157039 0.247988 0.684819 191 184 186
-0.142883 0.227862 0.682055 183 174 177
-0.172453 0.266671 0.718958 171 163 166
-0.171114 0.268794 0.699949 181 175 180
-0.161033 0.255832 0.697926 179 172 178
-0.183804 0.288058 0.644156 199 194 186
-0.140463 0.238455 0.603220 173 165 162
-0.150769 0.248676 0.618595 188 179 179
-0.179712 0.279970 0.659970 179 174 169
-0.179607 0.281156 0.644969 184 177 171
-0.139343 0.227905 0.635602 168 158 155
-0.138239 0.220941 0.650498 176 168 166
-0.182998 0.289836 0.619474 198 194 188
-0.180022 0.287980 0.629682 196 190 187
-0.181101 0.289240 0.606909 200 195 185
-0.169130 0.273023 0.662202 166 159 154
-0.170138 0.273282 0.652352 166 159 156
-0.158726 0.257676 0.658575 192 186 187
-0.168610 0.274608 0.632496 178 169 169
-0.160579 0.265593 0.634531 180 174 172
-0.156975 0.255864 0.633565 194 186 187
-0.183337 0.282177 0.781744 190 193 207
-0.154267 0.249335 0.658008 187 181 181
-0.148130 0.244101 0.644350 184 174 173
-0.168005 0.278871 0.590048 166 159 150
-0.170646 0.270595 0.678377 174 165 165
-0.162527 0.259987 0.680242 191 187 190
-0.146304 0.235117 0.657663 179 170 170
-0.158433 0.266860 0.613794 169 160 156
-0.172672 0.279446 0.607503 174 167 158
-0.151141 0.251786 0.606771 186 179 179
-0.158854 0.267725 0.602251 175 164 163
-0.127337 0.204736 0.617383 161 150 146
-0.127395 0.215033 0.599208 169 160 156
-0.132045 0.214995 0.622582 173 165 160
0.127401 -0.651249 -0.686285 64 50 37
0.144678 -0.622432 -0.715727 68 58 19
0.186414 -0.414714 -0.399816 81 50 26
0.228426 -0.452860 -0.757228 41 35 27
0.155970 -0.578851 -0.450778 112 78 42
0.084656 -0.679887 -0.824016 37 30 23
0.072994 -0.694164 -0.834271 39 37 22
0.079691 -0.685155 -0.834037 35 37 17
0.074445 -0.693656 -0.821843 57 37 32
0.085315 -0.681130 -0.812040 39 32 29
0.195154 -0.512077 -0.480903 107 74 32
0.087190 -0.748877 -0.453798 35 26 18
0.084098 -0.755561 -0.468619 51 37 28
0.092754 -0.741191 -0.472499 46 35 24
0.232035 -0.445475 -0.761749 41 35 27
0.232794 -0.442777 -0.757367 39 34 21
0.221633 -0.416428 -0.769615 72 47 24
0.228357 -0.441595 -0.670278 87 58 30
0.227607 -0.447447 -0.692884 89 60 32
0.227470 -0.429693 -0.664278 96 62 42
0.047241 -0.780756 -0.639134 11 7 6
0.047557 -0.783105 -0.625366 36 40 30
0.112831 -0.630864 -0.813811 48 32 25
0.129372 -0.604094 -0.806390 41 36 24
0.125567 -0.600730 -0.820480 52 36 24
0.140096 -0.559775 -0.841300 35 28 22
0.151443 -0.547820 -0.841329 38 31 28
0.147380 -0.557204 -0.849697 36 28 26
0.136037 -0.566568 -0.853211 40 30 24
0.153223 -0.567997 -0.851968 43 40 24
0.166821 -0.549922 -0.855223 48 37 29
0.051845 -0.801624 -0.865703 49 38 32
0.029238 -0.784520 -0.850016 54 40 27
0.040660 -0.787285 -0.852139 45 44 34
0.037239 -0.803979 -0.857989 53 39 33
0.032009 -0.793826 -0.844805 50 40 27
0.161744 -0.589964 -0.734116 52 40 27
0.171543 -0.569954 -0.728575 69 45 26
0.256013 -0.594962 -0.868301 51 41 26
0.209987 -0.583545 -0.867801 45 37 28
0.224685 -0.593899 -0.868419 50 39 35
0.235402 -0.566936 -0.868166 56 44 30
0.136982 -0.626848 -0.527559 91 68 30
0.111015 -0.680797 -0.496778 88 64 37
0.116444 -0.667767 -0.466824 84 58 33
0.131400 -0.638502 -0.656323 72 50 28
0.120340 -0.673768 -0.665605 61 43 25
0.122230 -0.661934 -0.636416 68 48 35
0.176498 -0.547387 -0.630551 86 60 31
0.178002 -0.546665 -0.649600 85 58 35
0.186497 -0.528761 -0.649756 85 58 35
0.102400 -0.709136 -0.549047 56 49 36
0.097677 -0.718782 -0.538842 57 42 32
0.098550 -0.719768 -0.516188 50 40 32
0.322193 -0.617481 -0.869227 59 52 38
0.295562 -0.619452 -0.869591 54 47 32
0.032171 -0.779494 -0.808148 37 26 19
0.024314 -0.788327 -0.842716 49 36 29
0.019710 -0.796364 -0.819359 40 33 21
0.027462 -0.787673 -0.823114 51 38 26
0.032062 -0.776920 -0.828695 49 37 28
0.017679 -0.802625 -0.838106 49 39 28
0.103921 -0.791358 -0.869256 52 43 32
0.192441 -0.515411 -0.545903 100 68 39
0.085761 -0.753956 -0.578716 43 40 30
0.095991 -0.733278 -0.563739 37 35 28
0.087453 -0.750014 -0.565834 45 41 34
0.397328 -0.674012 -0.868363 53 44 29
0.371915 -0.696102 -0.869413 54 48 44
0.172754 -0.552321 -0.429848 112 78 41
0.167526 -0.554518 -0.457086 103 75 33
0.095421 -0.668348 -0.801497 40 31 28
0.075322 -0.707054 -0.797442 53 38 40
0.080458 -0.692741 -0.801663 58 38 29
0.084068 -0.701286 -0.802651 46 43 31
0.075929 -0.701462 -0.804437 54 39 29
0.087045 -0.686685 -0.790699 55 44 37
0.090603 -0.692296 -0.796217 47 43 32
0.098228 -0.686960 -0.787883 54 44 32
0.090863 -0.697268 -0.794129 57 42 34
0.095964 -0.683135 -0.791755 50 40 32
0.124377 -0.651559 -0.415278 115 82 54
0.375069 -0.639381 -0.869055 56 42 32
0.377650 -0.621858 -0.869829 59 42 45
0.114803 -0.642502 -0.799293 49 37 31
0.092780 -0.674093 -0.792508 50 39 38
0.098836 -0.668516 -0.793003 42 33 30
0.101744 -0.673622 -0.796809 43 34 30
0.106841 -0.660169 -0.794119 43 40 24
0.097216 -0.673866 -0.786069 55 42 36
0.105729 -0.676810 -0.782006 47 43 32
0.195236 -0.511392 -0.431278 107 67 31
0.290985 -0.433176 -0.869411 46 42 26
0.286446 -0.418921 -0.870222 50 41 32
0.312858 -0.428801 -0.869671 53 40 29
0.086014 -0.755763 -0.488424 44 34 20
0.077531 -0.768518 -0.494963 40 31 28
0.081546 -0.760141 -0.524749 44 36 22
0.092590 -0.742014 -0.494361 42 35 21
0.167689 -0.525907 -0.824593 34 30 23
0.155818 -0.538760 -0.843881 39 35 25
0.165988 -0.519628 -0.832549 34 29 21
0.156961 -0.533042 -0.840080 35 32 24
0.126351 -0.659055 -0.678082 60 45 28
0.192571 -0.518387 -0.662403 89 64 29
0.232114 -0.435779 -0.869401 51 42 38
0.217195 -0.443741 -0.867433 41 37 21
0.224717 -0.453426 -0.537278 107 70 37
0.220141 -0.463750 -0.495903 104 71 47
0.234047 -0.686662 -0.868636 48 43 27
0.216221 -0.696949 -0.869477 49 43 25
0.035930 -0.775722 -0.795166 33 26 17
0.030045 -0.781997 -0.789730 21 13 11
0.176556 -0.560371 -0.719319 52 39 26
0.180972 -0.550365 -0.742741 52 39 26
0.115892 -0.685811 -0.635323 52 47 35
0.275752 -0.748025 -0.867430 53 36 33
0.291488 -0.756997 -0.867796 53 46 37
0.211467 -0.482072 -0.438319 111 77 35
0.205184 -0.494556 -0.424965 103 69 36
0.220243 -0.465062 -0.428778 106 77 33
0.078764 -0.761921 -0.422594 72 65 47
0.086528 -0.749494 -0.411565 72 65 47
0.080902 -0.755069 -0.399134 112 89 69
0.202598 -0.413910 -0.590810 83 54 22
0.190531 -0.406544 -0.613778 73 44 22
0.200990 -0.502995 -0.673307 87 59 30
0.066422 -0.815721 -0.870853 55 42 32
0.127380 -0.648020 -0.535403 77 55 32
0.131337 -0.636970 -0.551778 90 61 38
0.119843 -0.665340 -0.525705 83 57 37
0.075263 -0.757865 -0.681724 46 39 30
0.069668 -0.762662 -0.674513 46 38 27
0.059237 -0.765613 -0.665398 49 41 28
0.072456 -0.762026 -0.660546 47 41 26
0.122751 -0.656256 -0.583778 76 57 33
0.212299 -0.410435 -0.788702 80 54 29
0.199207 -0.400826 -0.785478 66 47 23
0.217277 -0.415278 -0.790828 64 44 29
0.199575 -0.404396 -0.799130 56 34 19
0.250901 -0.550019 -0.869167 46 40 31
0.066472 -0.749642 -0.715058 51 42 39
0.074668 -0.748859 -0.719917 51 42 39
0.068340 -0.774681 -0.585478 46 40 35
0.057680 -0.782421 -0.570850 45 38 25
0.063488 -0.780779 -0.555909 46 34 28
0.154550 -0.797258 -0.869246 49 42 31
0.217791 -0.473213 -0.412318 113 79 38
0.194857 -0.515117 -0.408205 113 80 39
0.114609 -0.686144 -0.651781 62 48 30
0.345757 -0.536674 -0.870701 53 48 30
0.334190 -0.560938 -0.871038 56 54 38
0.199505 -0.421893 -0.413278 87 48 27
0.172827 -0.556555 -0.614728 87 61 29
0.054706 -0.757969 -0.725099 42 35 28
0.062848 -0.755807 -0.705787 39 32 32
0.066335 -0.749027 -0.726677 50 37 31
0.057795 -0.756809 -0.734108 44 33 29
0.061186 -0.751716 -0.737863 48 41 30
0.049216 -0.762583 -0.736566 20 12 11
0.180816 -0.538415 -0.570508 102 70 35
0.183188 -0.532330 -0.545278 97 68 31
0.299223 -0.571824 -0.869461 59 49 42
0.322543 -0.577856 -0.870077 50 42 24
0.026338 -0.785560 -0.800209 34 27 21
0.224435 -0.435530 -0.532397 112 67 39
0.099643 -0.651548 -0.818758 46 38 26
0.098510 -0.647985 -0.835356 50 31 28
0.102545 -0.648276 -0.843290 44 32 24
0.105390 -0.635883 -0.839402 40 29 31
0.106517 -0.636972 -0.827248 47 32 28
0.227889 -0.499545 -0.867955 58 43 39
0.197449 -0.404124 -0.687278 71 44 23
0.219389 -0.419352 -0.676778 81 50 27
0.208549 -0.409397 -0.700619 70 43 23
0.073912 -0.737436 -0.778437 47 41 32
0.059381 -0.747145 -0.802266 52 40 26
0.067111 -0.722097 -0.807485 52 39 29
0.066476 -0.733176 -0.802554 51 39 26
0.081912 -0.710948 -0.795896 49 37 24
0.080819 -0.724785 -0.777351 58 45 34
0.288952 -0.464177 -0.868068 46 37 42
0.275346 -0.473348 -0.868235 47 39 35
0.119605 -0.665425 -0.598185 59 51 26
0.174121 -0.395358 -0.806838 73 45 26
0.158337 -0.412398 -0.843143 47 30 25
0.179803 -0.415106 -0.831551 52 34 24
0.192525 -0.518256 -0.630467 88 62 37
0.182389 -0.592867 -0.868865 49 34 29
0.161913 -0.576610 -0.863337 42 38 23
0.170292 -0.613043 -0.867618 39 37 22
0.187655 -0.569538 -0.867723 48 39 33
0.047350 -0.729994 -0.854505 32 26 18
0.241918 -0.651766 -0.868154 46 41 30
0.251788 -0.667134 -0.868626 59 44 37
0.245239 -0.632511 -0.869551 61 43 41
0.176353 -0.390876 -0.730501 69 49 25
0.181310 -0.508887 -0.847703 49 41 26
0.175885 -0.530452 -0.857327 38 39 28
0.186975 -0.527044 -0.861656 40 41 27
0.192501 -0.495957 -0.845866 46 32 23
0.192382 -0.508273 -0.857375 44 34 25
0.189967 -0.490568 -0.827461 43 31 21
0.178339 -0.503910 -0.836815 45 33 25
0.177272 -0.508688 -0.821384 43 33 24
0.183461 -0.499808 -0.823831 34 34 23
0.142721 -0.612952 -0.513132 92 66 32
0.134791 -0.619381 -0.492206 104 68 47
0.146526 -0.600483 -0.501346 102 73 32
0.208821 -0.425522 -0.490778 75 43 20
0.185697 -0.410267 -0.510465 76 43 18
0.092703 -0.736094 -0.668331 43 35 28
0.152044 -0.600487 -0.760299 49 41 29
0.164854 -0.578172 -0.754111 45 37 21
0.236004 -0.477005 -0.867705 55 42 37
0.241769 -0.453037 -0.868766 53 39 37
0.041222 -0.766302 -0.817107 56 42 30
0.051260 -0.742781 -0.826377 54 43 33
0.121710 -0.589651 -0.856328 30 24 14
0.130632 -0.572856 -0.847002 37 32 25
0.130934 -0.593061 -0.849159 44 34 26
0.127845 -0.583180 -0.855646 41 37 27
0.138635 -0.576551 -0.850145 41 37 27
0.112874 -0.606814 -0.862781 46 37 25
0.125982 -0.584696 -0.836060 20 12 11
0.120009 -0.659329 -0.449278 100 69 38
0.132871 -0.633464 -0.429278 106 76 45
0.254496 -0.383767 -0.869271 34 42 25
0.248390 -0.359874 -0.870233 45 40 28
0.044078 -0.775348 -0.849685 49 41 24
0.032176 -0.775129 -0.839717 55 40 28
0.037974 -0.762544 -0.841893 49 40 27
0.284805 -0.393643 -0.869937 41 34 30
0.004147 -0.818421 -0.839310 46 39 25
0.017036 -0.799853 -0.829398 39 33 22
0.011961 -0.805147 -0.822687 44 37 24
0.013096 -0.808354 -0.842374 41 42 35
0.003855 -0.813816 -0.818136 40 34 23
0.218018 -0.372117 -0.868953 42 36 27
0.197880 -0.398784 -0.870281 46 38 32
0.234289 -0.377724 -0.869213 42 37 31
0.135979 -0.572232 -0.833996 37 32 20
0.147061 -0.553378 -0.823733 38 31 26
0.160863 -0.552561 -0.804238 33 30 18
0.138578 -0.570407 -0.824325 33 25 17
0.150962 -0.563267 -0.813521 45 36 24
0.183673 -0.535854 -0.673410 90 62 36
0.173467 -0.792363 -0.870469 56 40 35
0.217236 -0.470286 -0.463028 111 73 38
0.209932 -0.485704 -0.474278 110 78 39
0.202049 -0.498782 -0.460653 108 77 37
0.143171 -0.612558 -0.441528 106 75 48
0.169062 -0.563199 -0.662516 80 52 24
0.132116 -0.631816 -0.505278 108 68 43
0.136808 -0.809297 -0.870057 48 48 28
0.151868 -0.545331 -0.849217 33 30 15
0.139521 -0.624283 -0.681743 71 52 31
0.260069 -0.563428 -0.869020 47 40 35
0.137838 -0.625360 -0.643703 83 60 32
0.139917 -0.618789 -0.653920 87 59 34
0.152750 -0.594865 -0.626844 84 58 33
0.142912 -0.574136 -0.806458 54 33 32
0.152932 -0.573370 -0.794099 41 36 26
0.168635 -0.557573 -0.780813 43 38 29
0.152465 -0.568134 -0.804988 25 15 14
0.160134 -0.559947 -0.797043 45 40 29
0.370796 -0.654256 -0.869370 58 47 36
0.165258 -0.565786 -0.491081 101 72 35
0.178604 -0.536238 -0.458508 110 74 43
0.170295 -0.549867 -0.469193 111 75 44
0.182123 -0.420143 -0.865506 25 18 19
0.201455 -0.436913 -0.866008 40 32 33
0.167752 -0.417827 -0.858400 29 16 15
0.185219 -0.428165 -0.854532 33 26 23
0.194784 -0.437360 -0.855349 38 28 21
0.171439 -0.421735 -0.851417 42 30 23
0.112486 -0.688308 -0.622738 49 41 26
0.107103 -0.691482 -0.433881 81 55 31
0.210202 -0.409674 -0.736317 80 52 29
0.221993 -0.418290 -0.737528 80 52 29
0.195407 -0.400263 -0.727893 72 44 28
0.221445 -0.417687 -0.699004 77 50 24
0.117914 -0.664455 -0.763705 54 41 43
0.108884 -0.682078 -0.763560 51 44 31
0.215925 -0.423738 -0.805418 36 29 21
0.200530 -0.438735 -0.841713 37 27 25
0.208162 -0.446842 -0.830286 51 39 22
0.174516 -0.560353 -0.754895 35 28 21
0.160181 -0.571083 -0.778792 41 31 21
0.072705 -0.741561 -0.767011 49 42 30
0.069014 -0.749773 -0.765409 50 46 33
0.077073 -0.746117 -0.749271 48 45 36
0.067326 -0.752270 -0.743609 43 38 33
0.081842 -0.739369 -0.750586 46 41 32
0.077566 -0.685971 -0.846985 49 39 27
0.076974 -0.692384 -0.843121 50 35 34
0.098801 -0.680412 -0.855872 47 40 39
0.086495 -0.669302 -0.845594 53 38 24
0.073780 -0.711903 -0.845573 43 35 28
0.089935 -0.702855 -0.857790 46 37 31
0.075308 -0.705468 -0.843481 51 44 34
0.083868 -0.686577 -0.847487 46 35 28
0.196805 -0.509329 -0.595028 97 62 34
0.299828 -0.736556 -0.868149 58 49 40
0.334099 -0.714552 -0.868441 55 45 35
0.317333 -0.708408 -0.869551 58 53 36
0.215466 -0.677307 -0.868690 51 36 35
0.216362 -0.656187 -0.867835 48 39 33
0.148469 -0.593667 -0.781892 51 38 29
0.140832 -0.627443 -0.749890 46 38 29
0.142256 -0.614493 -0.768576 35 33 21
0.144102 -0.618352 -0.752478 52 39 33
0.202857 -0.498903 -0.576966 92 66 37
0.195924 -0.512434 -0.574153 98 72 38
0.113165 -0.678299 -0.410403 107 87 55
0.132821 -0.613542 -0.794039 51 41 25
0.144723 -0.586911 -0.793050 46 37 27
0.118925 -0.619915 -0.816627 36 28 20
0.212357 -0.486489 -0.709388 71 49 33
0.225230 -0.455522 -0.601343 96 60 35
0.069704 -0.736173 -0.854891 45 41 35
0.065175 -0.728547 -0.841221 50 43 36
0.079971 -0.720171 -0.856541 55 43 38
0.086332 -0.732326 -0.863503 49 47 29
0.070970 -0.719547 -0.844825 46 48 33
0.052548 -0.723413 -0.848502 54 36 32
0.058351 -0.739997 -0.843464 51 41 38
0.177774 -0.545473 -0.499778 110 70 35
0.178582 -0.539564 -0.478028 108 73 33
0.127239 -0.641728 -0.487277 109 76 43
0.165990 -0.402287 -0.432095 72 40 18
0.148456 -0.604750 -0.396434 117 86 48
0.126542 -0.651170 -0.652576 66 46 31
0.124234 -0.655231 -0.621912 68 54 32
0.130476 -0.641669 -0.630808 66 53 36
0.192707 -0.428544 -0.841796 42 29 20
0.189592 -0.406943 -0.814029 61 38 23
0.202717 -0.415561 -0.815335 44 32 19
0.194824 -0.509782 -0.452278 123 84 51
0.146007 -0.713427 -0.868341 49 43 27
0.125971 -0.715893 -0.868178 54 44 33
0.078171 -0.753429 -0.699445 44 36 33
0.069696 -0.757871 -0.692665 48 38 36
0.084840 -0.747905 -0.676073 45 38 33
0.054179 -0.729750 -0.854136 50 40 30
0.047967 -0.746620 -0.840708 54 44 45
0.048969 -0.737343 -0.846324 44 42 36
0.038617 -0.764531 -0.847672 51 41 32
0.049629 -0.757127 -0.846145 49 50 33
0.047894 -0.738758 -0.852551 49 37 37
0.010207 -0.818586 -0.845655 43 37 31
0.021183 -0.796533 -0.846345 48 43 28
0.022857 -0.809105 -0.847154 46 43 34
0.013796 -0.824650 -0.852377 48 39 34
0.352489 -0.607940 -0.870061 48 41 31
0.378109 -0.597899 -0.869534 63 52 43
0.138050 -0.588892 -0.799892 44 33 19
0.187388 -0.537992 -0.729091 58 42 22
0.194522 -0.517647 -0.706785 66 42 37
0.201244 -0.512147 -0.722803 56 40 22
0.226997 -0.551188 -0.868626 47 41 41
0.233754 -0.525395 -0.867780 57 41 34
0.238394 -0.546808 -0.868239 48 43 29
0.189606 -0.524270 -0.689590 83 60 31
0.203060 -0.423379 -0.448778 69 43 24
0.181137 -0.411787 -0.440778 72 47 23
0.316350 -0.519469 -0.869122 57 40 24
0.327263 -0.540692 -0.869664 54 39 28
0.226222 -0.441581 -0.535488 107 72 40
0.213071 -0.427763 -0.506834 93 56 30
0.220743 -0.431889 -0.522028 93 57 22
0.225940 -0.447732 -0.533278 108 71 35
0.214436 -0.431241 -0.429756 81 53 29
0.223506 -0.439506 -0.415230 105 70 42
0.083179 -0.743569 -0.716965 50 43 35
0.073739 -0.750646 -0.734314 46 40 33
0.088018 -0.737799 -0.724756 46 36 34
0.119023 -0.669689 -0.749806 61 46 31
0.119474 -0.673116 -0.728966 54 42 27
0.119909 -0.671479 -0.709496 57 46 25
0.102593 -0.709933 -0.579364 50 35 32
0.100073 -0.717360 -0.564225 45 44 23
0.093224 -0.737284 -0.550231 46 42 24
0.097259 -0.725505 -0.580933 43 40 29
0.061676 -0.779701 -0.580050 48 42 29
0.051517 -0.783180 -0.615314 40 39 28
0.065084 -0.772666 -0.610341 38 37 27
0.052541 -0.786949 -0.597810 37 38 26
0.060247 -0.772770 -0.616950 37 38 28
0.010123 -0.842429 -0.858844 46 39 30
0.024989 -0.838050 -0.861904 42 41 26
0.033038 -0.816876 -0.860186 46 40 31
0.293193 -0.711998 -0.867126 54 43 38
0.282681 -0.687944 -0.868483 53 42 32
0.147455 -0.671201 -0.868104 42 44 24
0.162559 -0.665733 -0.867705 47 49 39
0.053703 -0.788201 -0.558619 39 33 30
0.071976 -0.770474 -0.555725 42 33 27
0.053885 -0.787323 -0.531572 39 30 21
0.072981 -0.772262 -0.519453 40 33 18
0.123034 -0.669465 -0.688882 59 48 30
0.066679 -0.778472 -0.456578 47 34 27
0.067302 -0.776896 -0.435329 41 37 25
0.053365 -0.785646 -0.434174 68 62 45
0.065593 -0.776279 -0.447763 39 37 25
0.119707 -0.664977 -0.614534 78 54 29
-0.002988 -0.828782 -0.847137 40 39 22
-0.003800 -0.824689 -0.830036 41 36 27
-0.015270 -0.836781 -0.833725 41 37 29
0.031772 -0.781307 -0.769687 31 22 21
0.120831 -0.646428 -0.778571 51 42 33
0.116059 -0.660141 -0.778004 46 34 29
0.118292 -0.665893 -0.562028 60 50 27
0.108549 -0.694068 -0.587735 61 50 26
0.092648 -0.741020 -0.596140 39 36 24
0.090958 -0.743828 -0.612130 45 41 33
0.082948 -0.755064 -0.601506 40 36 24
0.078200 -0.763725 -0.592167 42 37 27
0.263947 -0.452139 -0.869398 44 41 24
0.274549 -0.455656 -0.869620 51 37 28
0.252917 -0.443271 -0.870277 48 38 30
0.225724 -0.452983 -0.626278 95 60 35
0.161517 -0.575576 -0.429189 112 76 35
0.221137 -0.460429 -0.448278 109 76 36
0.222929 -0.452510 -0.452371 114 77 48
0.221738 -0.457773 -0.479278 107 75 42
0.201920 -0.635917 -0.867415 56 45 26
0.159230 -0.581276 -0.513290 100 68 40
0.146470 -0.605683 -0.543778 100 63 39
0.195105 -0.708118 -0.868190 48 42 34
0.173159 -0.696069 -0.867952 54 39 20
0.197593 -0.682873 -0.867266 55 44 26
0.194530 -0.412598 -0.549868 72 41 17
0.212342 -0.423590 -0.527972 82 52 21
0.189120 -0.410339 -0.522101 79 44 22
0.175313 -0.547355 -0.543278 99 71 36
0.096836 -0.723492 -0.476425 61 43 25
0.095550 -0.721927 -0.463715 55 46 33
0.109012 -0.683266 -0.456969 67 51 29
0.221005 -0.466168 -0.661278 91 62 34
0.217320 -0.473947 -0.693000 90 62 31
0.374461 -0.553247 -0.870939 56 47 33
0.170231 -0.566914 -0.697010 85 63 32
0.138669 -0.635373 -0.728727 50 42 33
0.130830 -0.650535 -0.720414 67 47 30
0.130546 -0.641296 -0.761615 51 41 39
0.016809 -0.797214 -0.805008 43 36 26
0.084036 -0.755743 -0.554747 42 34 23
0.090523 -0.744686 -0.514237 35 33 21
0.090062 -0.747745 -0.527440 41 34 27
0.079333 -0.763872 -0.538979 44 35 28
0.222995 -0.442500 -0.435463 108 72 42
0.216531 -0.432215 -0.447502 89 61 30
0.220446 -0.436947 -0.431278 102 69 37
0.217935 -0.433820 -0.463278 91 63 29
0.100876 -0.707233 -0.446848 78 60 40
0.099217 -0.713308 -0.431198 71 53 27
0.094450 -0.728793 -0.449588 58 41 28
0.110458 -0.698035 -0.698269 50 45 36
0.101580 -0.711100 -0.730584 47 44 32
0.108508 -0.695414 -0.726017 45 41 22
0.089626 -0.733804 -0.738921 49 44 36
0.095844 -0.730132 -0.709010 45 37 35
0.086655 -0.728071 -0.753397 47 39 37
0.097302 -0.722945 -0.722352 48 39 38
0.053290 -0.791919 -0.499839 50 42 29
0.045563 -0.798180 -0.499208 37 32 26
0.061545 -0.718958 -0.850379 45 36 30
0.064969 -0.708093 -0.846234 34 24 22
0.300677 -0.640093 -0.868350 56 43 35
0.125586 -0.649284 -0.511653 92 59 35
0.118460 -0.602122 -0.838457 44 24 25
0.058134 -0.725729 -0.828445 49 36 34
0.058904 -0.732828 -0.816127 52 37 28
0.268124 -0.767235 -0.868290 52 48 31
0.060159 -0.711259 -0.837088 46 39 30
0.068191 -0.711312 -0.816647 51 33 27
0.150211 -0.600110 -0.662288 79 57 30
0.143167 -0.617049 -0.698527 71 60 24
0.131210 -0.643003 -0.696039 68 56 28
0.155363 -0.599194 -0.717468 78 56 27
0.227828 -0.446476 -0.606129 96 62 35
0.220005 -0.425290 -0.594689 97 66 27
0.219280 -0.423188 -0.620278 95 63 32
0.225149 -0.431241 -0.592278 98 69 33
0.230190 -0.435974 -0.710071 82 59 25
0.224361 -0.458644 -0.691712 91 60 35
0.228714 -0.431265 -0.684278 96 69 36
0.226659 -0.425448 -0.689278 89 60 30
0.224471 -0.424474 -0.665278 92 57 27
0.228825 -0.436079 -0.672474 89 58 26
0.094557 -0.737173 -0.638127 39 40 24
0.069636 -0.768595 -0.621232 42 37 27
0.078158 -0.758387 -0.638153 51 41 29
0.082783 -0.755543 -0.621278 43 40 31
0.091743 -0.743354 -0.628588 44 39 31
0.181469 -0.538547 -0.515559 100 70 42
0.198452 -0.506569 -0.498715 99 71 35
0.419032 -0.611310 -0.870432 49 46 37
0.391133 -0.615557 -0.871011 54 44 29
0.408304 -0.594301 -0.871624 60 50 35
0.248308 -0.618331 -0.869137 63 52 37
0.259641 -0.638298 -0.869399 58 48 38
0.276545 -0.613840 -0.868571 60 53 32
-0.019178 -0.849324 -0.852028 44 42 33
0.094970 -0.732939 -0.510441 37 35 23
0.099141 -0.716707 -0.495183 47 41 25
0.160448 -0.538216 -0.850583 47 31 22
0.172358 -0.561457 -0.863711 45 32 27
0.190937 -0.530570 -0.863809 48 36 30
0.161202 -0.579167 -0.634979 83 59 29
0.096352 -0.711325 -0.754426 55 43 33
0.096771 -0.701134 -0.768111 50 38 25
0.106302 -0.693535 -0.749721 51 40 29
0.141642 -0.659468 -0.867357 51 37 29
0.122850 -0.663291 -0.863527 47 37 33
0.144001 -0.644803 -0.866781 49 38 30
0.116669 -0.641906 -0.854045 45 37 28
0.083639 -0.751174 -0.655291 47 39 37
0.187129 -0.759968 -0.869144 51 41 33
0.156125 -0.779262 -0.868459 52 46 41
0.207100 -0.499331 -0.755043 46 34 21
0.347017 -0.718257 -0.868105 61 52 42
0.131431 -0.753851 -0.868896 43 46 31
0.367483 -0.535371 -0.871480 47 43 27
0.085233 -0.793083 -0.870127 56 49 37
0.068407 -0.799176 -0.869371 53 49 35
-0.008788 -0.837656 -0.850233 46 40 36
-0.008416 -0.843334 -0.852364 48 38 37
0.149976 -0.598502 -0.597912 96 59 37
0.162581 -0.574082 -0.604192 96 61 40
0.056323 -0.782411 -0.396795 108 90 71
0.058966 -0.780531 -0.412429 96 80 60
0.069313 -0.771640 -0.412718 101 88 66
0.067904 -0.772968 -0.399206 113 89 70
0.046427 -0.789483 -0.405915 105 88 71
0.209235 -0.707096 -0.869328 46 37 28
0.227606 -0.720851 -0.867719 48 43 30
0.203985 -0.728971 -0.868279 56 46 31
0.256937 -0.683843 -0.867854 58 51 34
0.219481 -0.463739 -0.789485 39 35 19
0.207838 -0.488179 -0.779993 41 39 25
0.194983 -0.490665 -0.805412 45 32 23
0.207360 -0.481665 -0.796227 50 36 29
0.219455 -0.468677 -0.774729 38 35 22
0.224908 -0.450104 -0.417224 112 78 38
0.197257 -0.759687 -0.868747 45 38 24
0.210394 -0.765476 -0.869646 63 52 42
0.232992 -0.771916 -0.869727 41 37 24
0.103007 -0.702434 -0.518727 72 48 35
0.113490 -0.676135 -0.511778 68 47 33
0.186591 -0.529914 -0.592778 96 64 42
0.050167 -0.791424 -0.484666 38 30 17
0.149156 -0.584363 -0.467603 104 74 29
0.211392 -0.495791 -0.735146 42 37 18
0.218639 -0.481119 -0.747146 52 40 29
0.217410 -0.482982 -0.717689 63 43 31
0.258850 -0.501776 -0.867491 41 37 26
0.245583 -0.499115 -0.867239 47 41 32
0.262951 -0.470497 -0.867812 50 39 32
0.132256 -0.632270 -0.469277 103 74 42
0.145173 -0.605938 -0.453144 102 78 39
0.109573 -0.688374 -0.539269 57 45 31
0.226648 -0.742103 -0.868404 47 47 32
0.106654 -0.626312 -0.852297 37 39 19
0.105234 -0.639844 -0.846358 36 36 27
0.114528 -0.631898 -0.848762 35 34 27
0.114972 -0.614810 -0.851824 47 42 26
0.112092 -0.614026 -0.844893 43 37 22
0.121457 -0.618168 -0.849466 41 34 24
0.224021 -0.426664 -0.642220 99 63 37
0.227926 -0.442060 -0.611028 97 63 37
0.227366 -0.434852 -0.627528 103 65 38
0.311873 -0.540673 -0.869132 57 39 28
0.296228 -0.537916 -0.869573 43 38 29
0.274689 -0.574815 -0.868839 53 46 23
0.211552 -0.414759 -0.869993 39 37 26
0.186427 -0.409732 -0.869301 27 26 15
0.089133 -0.742404 -0.866070 52 48 42
0.117657 -0.736497 -0.869308 54 46 38
0.190649 -0.403223 -0.648697 78 49 25
0.207262 -0.414421 -0.634675 80 54 33
0.198767 -0.409897 -0.618742 78 52 23
0.197406 -0.506232 -0.529778 101 68 35
0.100200 -0.721557 -0.706596 42 38 31
0.105400 -0.706608 -0.680438 58 42 35
0.213153 -0.478789 -0.504278 99 71 36
0.105503 -0.694883 -0.862281 50 42 32
0.091268 -0.660108 -0.839164 53 37 26
0.109246 -0.672578 -0.859130 42 33 30
0.091962 -0.680831 -0.849642 51 36 27
0.094679 -0.664465 -0.844691 52 34 29
0.102656 -0.656701 -0.850883 50 33 29
0.044022 -0.762413 -0.821970 51 38 28
0.037724 -0.773797 -0.814818 54 39 28
0.174697 -0.408187 -0.465116 77 47 27
0.190104 -0.415190 -0.474778 74 43 21
0.193247 -0.416812 -0.493278 73 44 18
0.298360 -0.497095 -0.868119 46 37 26
0.324348 -0.493213 -0.868235 47 35 29
0.112125 -0.689651 -0.606717 59 47 31
0.086696 -0.669529 -0.837612 47 35 25
0.100507 -0.662252 -0.805651 32 30 20
0.219000 -0.454655 -0.802121 40 37 23
0.227763 -0.424080 -0.772102 41 33 25
0.225541 -0.438871 -0.787150 37 37 24
0.221934 -0.428475 -0.795783 30 38 24
0.058710 -0.767631 -0.686779 43 39 32
0.123026 -0.694508 -0.867232 47 39 32
0.114786 -0.703968 -0.866684 39 35 31
0.067975 -0.766408 -0.637455 46 41 31
0.056672 -0.769882 -0.638888 37 37 27
0.059780 -0.771262 -0.648853 36 26 16
0.263821 -0.717349 -0.868343 56 50 34
0.244368 -0.748582 -0.868893 47 46 28
0.304803 -0.672664 -0.870201 46 44 34
0.297994 -0.659842 -0.869965 50 39 38
0.269799 -0.655054 -0.869107 60 52 42
0.204938 -0.455018 -0.836857 45 30 25
0.207796 -0.469378 -0.819660 40 34 28
0.204364 -0.475963 -0.820808 43 34 30
0.196669 -0.618329 -0.868652 55 43 30
0.232090 -0.421785 -0.869503 37 34 20
0.238306 -0.396932 -0.870040 46 38 24
0.269084 -0.417775 -0.870370 48 33 30
0.249793 -0.421507 -0.868935 52 34 33
0.259228 -0.406387 -0.869576 58 43 37
0.165288 -0.569888 -0.523997 96 69 36
0.191286 -0.515631 -0.778575 48 36 29
0.176335 -0.517772 -0.810701 42 32 31
0.193217 -0.503588 -0.790241 43 36 31
0.199098 -0.497843 -0.786374 41 35 25
0.217882 -0.623785 -0.868426 43 38 26
0.240187 -0.596364 -0.867883 51 41 39
0.149841 -0.595815 -0.580223 97 68 38
0.131410 -0.635912 -0.571278 88 64 35
0.144120 -0.608728 -0.566903 94 68 39
0.208074 -0.492233 -0.648348 85 56 30
0.220286 -0.467278 -0.633778 88 59 32
0.097160 -0.724055 -0.421821 57 43 27
0.103586 -0.703307 -0.414005 81 63 46
0.091846 -0.738551 -0.416738 70 51 36
0.181431 -0.721649 -0.868862 45 46 24
0.135572 -0.627987 -0.587622 94 61 33
0.140270 -0.618410 -0.604653 93 64 37
0.211264 -0.484202 -0.559278 100 70 33
0.212638 -0.479843 -0.537278 103 72 30
0.333933 -0.628929 -0.868534 52 42 32
0.156651 -0.584882 -0.505963 99 69 32
0.195412 -0.487933 -0.837804 41 36 24
0.217185 -0.489478 -0.866476 46 44 27
0.219427 -0.461426 -0.865972 42 37 29
0.204365 -0.492217 -0.862175 46 37 25
0.204597 -0.475582 -0.863670 46 41 29
0.198776 -0.490894 -0.856463 44 41 33
0.390729 -0.553688 -0.872207 46 41 29
0.397085 -0.584962 -0.870868 46 45 27
0.106433 -0.715593 -0.867035 50 37 28
0.040854 -0.769727 -0.775086 32 22 18
0.037214 -0.774560 -0.754865 17 11 9
0.197862 -0.483173 -0.848938 44 29 22
0.196480 -0.437796 -0.862261 41 34 27
0.200324 -0.457970 -0.855130 35 28 25
0.204440 -0.455801 -0.863063 42 39 14
0.197448 -0.520134 -0.744095 56 35 31
0.188098 -0.535199 -0.752873 53 36 29
0.196504 -0.519869 -0.756874 43 40 26
0.220228 -0.465878 -0.542667 108 73 35
0.309706 -0.608923 -0.870472 49 47 34
0.218524 -0.470752 -0.609278 99 66 42
0.206027 -0.493846 -0.624153 92 66 35
0.209635 -0.485183 -0.579778 92 66 36
0.351654 -0.509974 -0.870138 50 37 33
0.334357 -0.516504 -0.870600 63 53 38
0.049714 -0.757289 -0.807876 49 37 28
0.037348 -0.770425 -0.786685 33 26 17
0.050864 -0.757516 -0.779624 43 35 23
0.045941 -0.768241 -0.802058 42 37 24
0.052526 -0.762330 -0.801387 54 39 28
0.052144 -0.762177 -0.788820 35 30 18
0.060166 -0.753621 -0.778660 45 40 26
0.059408 -0.754820 -0.791779 53 39 29
0.102752 -0.817027 -0.871098 45 42 39
0.052384 -0.787224 -0.441602 32 20 14
0.128298 -0.789723 -0.869328 46 47 25
0.321270 -0.659438 -0.869692 53 43 42
0.349728 -0.655115 -0.869259 50 44 34
0.350980 -0.682341 -0.869827 58 45 30
0.104364 -0.701255 -0.488249 67 49 30
0.110994 -0.607611 -0.856448 29 24 16
0.114512 -0.598497 -0.854322 22 13 12
0.146049 -0.618388 -0.730113 52 41 33
0.153167 -0.606742 -0.733849 53 40 34
0.228056 -0.438472 -0.570366 99 69 32
0.224642 -0.430063 -0.571318 90 57 29
0.225650 -0.450262 -0.564391 106 72 39
0.218927 -0.433561 -0.493479 95 65 29
0.223073 -0.437569 -0.503028 100 69 30
0.224185 -0.449121 -0.490047 109 74 41
0.208535 -0.426661 -0.464290 92 57 34
0.223179 -0.442818 -0.468781 112 78 40
0.159956 -0.649196 -0.868559 46 43 36
0.161125 -0.685188 -0.867753 54 42 30
0.188870 -0.656187 -0.867197 47 40 29
0.224573 -0.465180 -0.710145 69 50 30
0.124747 -0.593074 -0.828615 24 14 13
0.134968 -0.581686 -0.814645 24 15 13
0.405621 -0.639013 -0.868826 62 50 39
0.438259 -0.644135 -0.870665 56 40 29
0.051333 -0.788311 -0.583338 44 37 26
0.158155 -0.544238 -0.825912 44 33 31
0.163327 -0.534507 -0.824360 41 32 30
0.158740 -0.544093 -0.810781 37 30 27
0.174974 -0.525889 -0.804611 40 29 25
0.050968 -0.785105 -0.414524 71 57 40
0.108417 -0.689070 -0.570934 43 43 31
0.227911 -0.460155 -0.744049 45 34 28
0.229169 -0.455035 -0.717898 67 43 24
0.226759 -0.464282 -0.727977 55 40 23
0.124186 -0.634275 -0.787353 53 39 30
0.121524 -0.630641 -0.801738 55 47 36
0.108736 -0.640108 -0.809992 47 37 23
0.227130 -0.422647 -0.737278 76 54 31
0.232286 -0.439369 -0.741380 58 43 25
0.231461 -0.430289 -0.741063 78 53 29
0.227493 -0.424823 -0.715778 83 56 31
0.207397 -0.416785 -0.578603 78 47 25
0.218863 -0.427391 -0.548108 85 51 35
0.188073 -0.408383 -0.580334 80 48 26
0.180957 -0.403189 -0.583087 84 51 31
0.187406 -0.407583 -0.564422 74 46 23
0.100207 -0.719853 -0.595525 42 39 30
0.103985 -0.716492 -0.605301 56 43 27
0.133316 -0.632274 -0.666108 72 56 22
0.267375 -0.604674 -0.868757 53 48 30
0.157134 -0.742947 -0.868879 51 41 33
0.171968 -0.748829 -0.869180 54 45 30
0.161386 -0.720144 -0.867725 50 34 26
0.155556 -0.590682 -0.695043 85 55 29
0.067991 -0.776637 -0.468975 44 33 25
0.158880 -0.582194 -0.665587 85 57 29
0.078441 -0.764229 -0.480568 54 45 27
0.053770 -0.787377 -0.461428 36 39 24
0.058672 -0.786942 -0.481493 42 35 22
0.164711 -0.571475 -0.685032 78 60 29
0.165122 -0.580838 -0.706138 79 55 30
0.198024 -0.401394 -0.769278 73 48 26
0.173393 -0.387233 -0.773572 75 52 30
0.153730 -0.595953 -0.862059 48 41 36
0.130931 -0.607341 -0.853295 46 41 33
0.143312 -0.589746 -0.852685 53 36 29
0.134875 -0.622083 -0.858841 50 41 34
0.141976 -0.605074 -0.857382 42 33 28
0.147038 -0.620328 -0.863722 46 39 25
0.126607 -0.602641 -0.846884 56 42 29
0.097918 -0.725132 -0.681116 50 36 38
0.110580 -0.695902 -0.668488 40 37 34
0.105553 -0.709355 -0.646780 43 35 29
0.099730 -0.723998 -0.651172 46 35 31
0.054499 -0.757543 -0.768978 40 35 28
0.055025 -0.751656 -0.752625 22 13 12
0.065475 -0.749293 -0.752995 43 38 31
0.047175 -0.763346 -0.759743 36 25 20
0.049475 -0.763540 -0.752755 45 35 29
0.273391 -0.536460 -0.868588 50 45 30
0.259723 -0.526062 -0.868152 47 44 31
0.270779 -0.498163 -0.867288 47 41 31
0.280503 -0.515825 -0.867267 53 43 35
0.057996 -0.760634 -0.709456 46 33 30
0.166304 -0.516851 -0.850054 36 27 23
0.169832 -0.529493 -0.853156 54 39 30
0.159184 -0.523027 -0.848959 27 23 20
0.170365 -0.510718 -0.842656 18 13 11
0.152549 -0.535202 -0.851746 29 21 21
0.154498 -0.530985 -0.860596 51 34 24
0.160599 -0.522784 -0.856441 18 12 12
0.163748 -0.570553 -0.581653 98 66 37
0.348893 -0.565565 -0.871443 52 46 30
0.366490 -0.578811 -0.870269 48 38 35
0.336588 -0.591825 -0.869441 63 46 44
0.066764 -0.780387 -0.513479 44 34 21
0.061617 -0.784080 -0.497994 55 44 44
0.055213 -0.787004 -0.516365 41 35 24
0.405950 -0.665046 -0.868820 45 38 22
0.185379 -0.521727 -0.783848 38 33 24
0.181184 -0.538983 -0.776039 47 34 22
0.173873 -0.530585 -0.795800 37 32 25
0.183536 -0.541594 -0.704422 75 54 30
0.175044 -0.558635 -0.701787 70 51 20
0.183632 -0.536425 -0.691562 84 62 30
0.204876 -0.495800 -0.688661 89 64 34
0.212772 -0.482306 -0.663020 88 63 31
0.175159 -0.555066 -0.760789 37 33 21
0.139977 -0.603001 -0.483498 106 73 43
0.136492 -0.617528 -0.476994 107 80 44
0.153915 -0.575809 -0.474753 101 67 40
0.171412 -0.632652 -0.867698 48 43 32
0.099607 -0.727735 -0.613720 41 38 25
0.102016 -0.723217 -0.626771 42 41 25
0.357239 -0.699295 -0.868987 46 43 32
0.317845 -0.684224 -0.869256 58 43 24
0.072015 -0.751947 -0.861866 56 45 35
0.056640 -0.769475 -0.859117 53 46 39
0.064890 -0.778777 -0.864794 57 42 31
0.215210 -0.416892 -0.653150 83 55 29
0.199604 -0.407650 -0.667532 70 51 24
0.207131 -0.411957 -0.657679 77 47 24
0.089203 -0.744792 -0.436178 44 39 25
0.084715 -0.753318 -0.439469 43 37 20
0.075670 -0.767371 -0.451563 44 34 24
0.085797 -0.752639 -0.423634 38 35 24
0.220858 -0.462556 -0.563602 100 65 35
0.200985 -0.550293 -0.867383 46 43 34
0.213711 -0.523677 -0.868458 51 41 32
0.203641 -0.513844 -0.865737 46 39 25
0.097343 -0.766829 -0.868658 47 41 33
0.107220 -0.743858 -0.868813 52 43 36
0.084742 -0.769611 -0.868188 59 45 33
0.122426 -0.617378 -0.150777 158 133 107
0.191798 -0.417366 -0.295272 114 77 36
0.198667 -0.401941 -0.267488 37 23 14
0.211332 -0.408525 -0.269809 66 42 28
0.187469 -0.415361 -0.282463 35 23 14
0.198167 -0.411126 -0.270608 35 25 15
0.199350 -0.416427 -0.284457 107 70 36
0.171357 -0.416209 -0.310711 32 20 13
0.053100 -0.772301 -0.294251 116 108 85
0.190428 -0.486993 -0.153688 78 50 27
0.195330 -0.489110 -0.142404 133 98 69
0.196555 -0.485508 -0.137060 135 101 65
0.173606 -0.438515 -0.201159 22 15 9
0.048315 -0.777595 -0.152542 147 132 100
0.123168 -0.595206 -0.257786 124 94 56
0.087469 -0.746069 -0.361821 104 92 72
0.090201 -0.736535 -0.388020 98 83 62
0.068530 -0.772028 -0.359530 109 98 80
0.099048 -0.685886 -0.302984 138 97 58
-0.054722 -0.646086 -0.135190 178 137 99
-0.059776 -0.693650 -0.136635 177 138 93
0.095659 -0.647245 -0.262062 125 87 48
0.182564 -0.537159 -0.401545 115 81 43
0.033332 -0.770977 -0.208849 135 116 86
0.039510 -0.766146 -0.179478 141 123 98
-0.116089 -0.751858 -0.141405 164 134 95
0.209724 -0.424367 -0.185220 125 89 54
0.206283 -0.432230 -0.185976 51 31 15
0.203842 -0.429443 -0.181279 49 30 19
0.030080 -0.648964 -0.133979 175 143 98
0.027844 -0.619727 -0.133693 173 140 97
0.049319 -0.792057 -0.385680 101 91 71
0.048136 -0.788585 -0.395319 102 89 69
0.045821 -0.791564 -0.370363 112 95 73
0.203409 -0.426411 -0.385166 82 49 26
0.195331 -0.421958 -0.377153 81 51 28
0.147177 -0.550779 -0.177860 61 38 22
0.149780 -0.544996 -0.196026 127 95 55
0.160607 -0.523324 -0.181975 94 64 32
0.167923 -0.509765 -0.196231 95 65 35
0.160530 -0.522403 -0.191324 95 65 35
0.167823 -0.523484 -0.162143 67 41 22
-0.186378 -0.699591 -0.138833 168 132 94
-0.175982 -0.675352 -0.133884 171 135 93
0.135135 -0.588380 -0.221425 134 100 63
-0.057748 -0.813222 -0.152712 166 141 97
-0.055556 -0.828140 -0.160807 166 139 102
0.098297 -0.645943 -0.135415 161 126 92
0.179658 -0.416712 -0.344543 81 54 29
0.117015 -0.619725 -0.136322 164 129 84
0.239294 -0.364856 -0.252446 44 29 19
0.120080 -0.622493 -0.309617 125 92 49
0.126468 -0.634584 -0.323528 129 96 68
0.114509 -0.638395 -0.302418 139 103 57
0.192440 -0.462374 -0.178384 76 48 26
0.216004 -0.449156 -0.143373 130 96 65
0.221256 -0.443671 -0.350778 105 71 37
0.222591 -0.456205 -0.320052 116 84 38
0.222760 -0.449743 -0.342133 113 81 34
0.208216 -0.431398 -0.347403 85 57 31
0.215225 -0.435650 -0.358317 88 61 28
0.060688 -0.662039 -0.133381 177 142 95
0.086057 -0.680346 -0.166551 139 110 77
0.078462 -0.696558 -0.162192 145 117 81
0.079155 -0.695629 -0.149336 146 121 81
0.098015 -0.663950 -0.145588 153 126 85
0.100242 -0.635253 -0.195787 133 104 70
0.103181 -0.642930 -0.172796 143 113 84
0.093411 -0.658345 -0.185843 142 109 73
0.264537 -0.336892 -0.199310 135 101 53
0.238980 -0.378743 -0.195353 133 98 65
0.237267 -0.370281 -0.181373 89 58 34
0.242111 -0.360842 -0.181853 129 86 49
0.239955 -0.373126 -0.173277 51 31 15
-0.181749 -0.761537 -0.158916 123 101 70
-0.177965 -0.754204 -0.153008 145 117 80
-0.168475 -0.753753 -0.152172 147 120 81
0.108044 -0.457745 -0.126321 174 156 133
-0.127338 -0.787202 -0.156177 162 134 95
-0.115384 -0.776862 -0.150154 166 136 93
-0.132836 -0.789414 -0.162776 151 121 87
0.060176 -0.711507 -0.137116 161 132 93
0.067467 -0.710403 -0.142779 158 129 92
0.033250 -0.766007 -0.137688 163 139 101
0.037306 -0.783291 -0.140147 154 130 97
0.030679 -0.750698 -0.136257 170 142 97
0.016433 -0.780745 -0.130783 162 139 97
0.014563 -0.796123 -0.132840 161 139 97
0.022325 -0.766492 -0.135008 160 137 102
0.149756 -0.542655 -0.187635 119 90 54
0.122907 -0.495749 -0.127538 222 213 208
0.149012 -0.470627 -0.124425 217 210 208
0.049355 -0.762479 -0.156140 148 128 102
0.054242 -0.742611 -0.158659 139 118 89
0.056213 -0.738988 -0.148244 158 130 97
0.044155 -0.752020 -0.139801 167 133 96
0.051126 -0.736875 -0.139716 159 132 93
0.049738 -0.742625 -0.175804 138 115 85
-0.097815 -0.802716 -0.157540 166 133 94
-0.267966 -0.710001 -0.160735 169 133 96
-0.249237 -0.706116 -0.152324 167 133 94
-0.112215 -0.647526 -0.136258 165 137 94
-0.098536 -0.670462 -0.136489 172 140 96
0.049240 -0.725895 -0.262150 123 93 65
0.064411 -0.709105 -0.236715 122 93 68
0.167359 -0.466042 -0.124305 217 212 207
0.148427 -0.494839 -0.127585 216 210 202
0.168601 -0.485045 -0.126325 211 202 187
0.174039 -0.501152 -0.128484 185 164 133
0.125927 -0.589452 -0.282744 118 88 42
-0.131736 -0.713232 -0.133861 167 136 91
-0.153395 -0.659474 -0.137003 173 136 98
-0.161774 -0.683584 -0.133920 175 140 89
0.039400 -0.766088 -0.230067 135 110 88
0.040156 -0.754329 -0.210646 132 109 83
0.038632 -0.757867 -0.203024 136 115 86
0.153498 -0.552400 -0.222805 134 99 66
0.149045 -0.561299 -0.217635 135 100 63
0.145903 -0.559111 -0.204666 131 95 62
0.001760 -0.734466 -0.135438 174 140 96
-0.130577 -0.668670 -0.136671 171 139 97
-0.141632 -0.639687 -0.136698 174 137 96
0.217015 -0.437063 -0.381836 101 65 32
0.223597 -0.452170 -0.389278 120 78 39
0.222469 -0.443987 -0.384157 99 71 40
0.110961 -0.633581 -0.161556 152 126 98
0.121377 -0.609031 -0.159273 139 109 86
0.111301 -0.642380 -0.147381 151 123 93
0.125118 -0.612511 -0.142717 156 128 99
0.114416 -0.632805 -0.141107 158 125 87
0.169170 -0.470093 -0.197140 48 29 19
0.176654 -0.458132 -0.196869 30 19 13
0.178534 -0.471381 -0.186280 58 38 25
0.021822 -0.814236 -0.190506 105 98 79
0.020628 -0.818421 -0.168720 100 82 66
0.008241 -0.832512 -0.174661 143 130 108
0.056098 -0.786305 -0.338788 105 86 68
0.046898 -0.795514 -0.342655 107 95 76
0.180249 -0.411291 -0.381465 81 49 21
-0.056208 -0.623068 -0.134805 173 140 97
0.195821 -0.458539 -0.126891 162 128 81
0.192488 -0.482816 -0.289747 136 91 49
0.181847 -0.482053 -0.270456 126 86 45
0.202448 -0.442073 -0.272151 128 84 47
0.204161 -0.455476 -0.287574 138 91 50
0.205466 -0.441369 -0.282278 133 89 45
0.189920 -0.472036 -0.279162 134 87 47
0.068158 -0.704787 -0.193072 129 99 65
0.047405 -0.794297 -0.318748 113 103 88
0.039560 -0.799991 -0.312737 124 107 86
0.040676 -0.801811 -0.326749 92 80 64
0.042816 -0.789537 -0.294793 118 108 86
0.055904 -0.485000 -0.129622 223 215 209
0.081282 -0.503138 -0.130142 222 214 211
0.121131 -0.645592 -0.319967 134 97 63
0.125756 -0.647939 -0.335210 130 102 65
0.140224 -0.583434 -0.298361 111 73 43
0.161530 -0.561116 -0.300669 138 97 50
0.064584 -0.694781 -0.135298 170 138 97
0.218350 -0.389597 -0.249712 112 73 39
0.228110 -0.385267 -0.256044 113 71 34
0.233557 -0.372692 -0.252819 51 34 22
0.209084 -0.393813 -0.257734 40 25 16
0.232263 -0.392971 -0.243516 132 90 55
0.220100 -0.396561 -0.261286 88 57 31
0.226212 -0.376641 -0.245325 37 22 15
0.215371 -0.387431 -0.251279 43 27 16
0.058963 -0.746408 -0.295794 127 102 68
0.056123 -0.784838 -0.355371 108 95 83
0.064417 -0.778962 -0.338613 115 102 89
0.073382 -0.767815 -0.336172 110 96 83
0.199862 -0.432313 -0.187750 47 30 19
0.206966 -0.422416 -0.184425 51 32 20
0.216643 -0.413712 -0.179023 55 34 17
0.207901 -0.403615 -0.195411 38 23 16
0.212839 -0.424656 -0.175108 50 31 14
0.213521 -0.415526 -0.181464 51 32 20
0.218462 -0.409937 -0.192522 124 84 47
0.195298 -0.407952 -0.199767 32 20 14
0.215514 -0.404701 -0.185183 48 29 16
0.148102 -0.547803 -0.129343 213 212 210
0.159074 -0.526701 -0.129204 210 209 206
0.157727 -0.509868 -0.127875 216 211 206
0.130699 -0.531347 -0.128500 216 208 205
0.198352 -0.424182 -0.317734 84 51 29
0.201036 -0.424817 -0.303136 92 55 25
0.188605 -0.420370 -0.314540 88 57 31
0.059371 -0.782044 -0.379729 108 89 66
0.079849 -0.758053 -0.364800 113 99 81
0.053582 -0.787880 -0.371068 112 96 80
0.069114 -0.771160 -0.383030 106 93 76
0.077746 -0.760171 -0.383694 106 91 72
0.118255 -0.474441 -0.126368 216 207 192
0.127862 -0.446635 -0.117850 115 101 85
-0.114130 -0.690516 -0.135724 169 138 91
0.147135 -0.548618 -0.271192 105 74 40
0.145577 -0.552157 -0.261224 103 77 39
0.141437 -0.565228 -0.283826 108 77 46
0.043413 -0.738726 -0.267385 124 92 67
0.142873 -0.563341 -0.245965 125 94 49
0.099140 -0.647380 -0.209895 131 100 56
0.249493 -0.389162 -0.137675 133 96 58
0.262922 -0.362590 -0.140806 135 94 65
0.236519 -0.398998 -0.154178 130 96 59
0.249225 -0.367268 -0.162014 60 35 16
0.083671 -0.677442 -0.187730 87 60 33
-0.004529 -0.708966 -0.135552 172 141 95
0.049206 -0.738351 -0.191575 136 108 77
-0.046543 -0.578155 -0.133555 180 141 101
0.228535 -0.426406 -0.141133 134 96 59
0.100343 -0.710356 -0.385549 117 95 74
-0.016639 -0.818186 -0.145584 165 141 102
-0.024515 -0.808308 -0.142928 166 140 98
-0.047050 -0.810688 -0.148244 166 140 98
