ply
format ascii 1.0
element vertex 1226
property float x
property float y
property float z
property uchar red
property uchar green
property uchar blue
end_header
-0.284417 0.213048 -0.112547 255 0 255
-0.207507 0.176002 -0.068547 255 0 255
-0.273980 0.193743 -0.012547 255 0 255
-0.239570 0.159594 -0.078547 255 0 255
-0.253645 0.159734 -0.084547 255 0 255
-0.218799 0.173366 -0.118547 255 0 255
-0.286017 0.197127 -0.100547 255 0 255
-0.243662 0.159012 -0.040547 255 0 255
-0.220248 0.240844 -0.012547 255 0 255
-0.251702 0.159117 -0.028547 255 0 255
-0.281145 0.218715 -0.049544 255 0 255
-0.221975 0.172686 -0.068547 255 0 255
-0.283485 0.184761 -0.076547 255 0 255
-0.224021 0.190064 -0.012353 255 0 255
-0.246961 0.200729 -0.011392 255 0 255
-0.254448 0.170348 -0.068547 255 0 255
-0.244509 0.169245 -0.044547 255 0 255
-0.252068 0.191246 -0.017507 255 0 255
-0.234583 0.168033 -0.074547 255 0 255
-0.234258 0.241554 -0.031050 255 0 255
-0.278932 0.220475 -0.009918 255 0 255
-0.259121 0.164672 -0.016547 255 0 255
-0.210966 0.198641 -0.011733 255 0 255
-0.282542 0.200757 -0.044547 255 0 255
-0.229128 0.180581 -0.017529 255 0 255
-0.257928 0.228146 -0.012043 255 0 255
-0.215569 0.211244 -0.017514 255 0 255
-0.284209 0.208876 -0.040368 255 0 255
-0.233805 0.245527 -0.021893 255 0 255
-0.236102 0.225371 -0.014547 255 0 255
-0.278018 0.193156 -0.060547 255 0 255
-0.263136 0.182443 -0.012720 255 0 255
-0.275585 0.232172 -0.015542 255 0 255
-0.217431 0.177236 -0.011332 255 0 255
-0.260379 0.171299 -0.130547 255 0 255
-0.280239 0.226663 -0.025499 255 0 255
-0.232473 0.168884 -0.035554 255 0 255
-0.238661 0.167576 -0.095551 255 0 255
-0.281824 0.212753 -0.025527 255 0 255
-0.276366 0.189989 -0.087570 255 0 255
-0.226058 0.172179 -0.023532 255 0 255
-0.222990 0.163778 -0.091532 255 0 255
-0.221027 0.234007 -0.024075 255 0 255
-0.281828 0.204702 -0.050547 255 0 255
-0.281255 0.182412 -0.112547 255 0 255
-0.276190 0.173865 -0.121013 255 0 255
-0.277901 0.194190 -0.077550 255 0 255
-0.204063 0.188559 -0.014547 255 0 255
-0.206169 0.177965 -0.082547 255 0 255
-0.201886 0.207672 -0.026698 255 0 255
-0.212405 0.170624 -0.058547 255 0 255
-0.212325 0.186719 -0.012389 255 0 255
-0.255985 0.174528 -0.018547 255 0 255
-0.270777 0.168376 -0.050547 255 0 255
-0.225907 0.226512 -0.012290 255 0 255
-0.220625 0.219871 -0.012295 255 0 255
-0.270796 0.168211 -0.058547 255 0 255
-0.219351 0.205635 -0.016547 255 0 255
-0.257765 0.247249 -0.028547 255 0 255
-0.264829 0.176597 -0.058547 255 0 255
-0.213812 0.168771 -0.024547 255 0 255
-0.242525 0.168997 -0.122547 255 0 255
-0.228393 0.169362 -0.106547 255 0 255
-0.214118 0.168806 -0.050547 255 0 255
-0.253677 0.247792 -0.011551 255 0 255
-0.232473 0.168884 -0.119553 255 0 255
-0.268015 0.174947 -0.129083 255 0 255
-0.256318 0.171601 -0.097559 255 0 255
-0.221144 0.171620 -0.094547 255 0 255
-0.232045 0.243314 -0.015404 255 0 255
-0.211243 0.178544 -0.107523 255 0 255
-0.281942 0.211723 -0.124547 255 0 255
-0.284790 0.192962 -0.116547 255 0 255
-0.241754 0.246434 -0.011654 255 0 255
-0.278022 0.193122 -0.122547 255 0 255
-0.280658 0.214634 -0.036547 255 0 255
-0.209369 0.177321 -0.016547 255 0 255
-0.232718 0.202071 -0.016547 255 0 255
-0.280007 0.202481 -0.080547 255 0 255
-0.228160 0.171401 -0.086547 255 0 255
-0.268632 0.179043 -0.084547 255 0 255
-0.263933 0.175446 -0.024547 255 0 255
-0.238416 0.159497 -0.106547 255 0 255
-0.274722 0.186745 -0.078547 255 0 255
-0.237580 0.159401 -0.088318 255 0 255
-0.270530 0.223544 -0.017529 255 0 255
-0.254448 0.170348 -0.110547 255 0 255
-0.278014 0.193189 -0.110547 255 0 255
-0.202056 0.188515 -0.064547 255 0 255
-0.222202 0.170692 -0.082547 255 0 255
-0.245024 0.182392 -0.011918 255 0 255
-0.261498 0.194333 -0.012547 255 0 255
-0.213079 0.233102 -0.009727 255 0 255
-0.253099 0.217532 -0.012293 255 0 255
-0.230590 0.167742 -0.128547 255 0 255
-0.283599 0.188800 -0.034547 255 0 255
-0.250606 0.158873 -0.114547 255 0 255
-0.235592 0.159175 -0.026814 255 0 255
-0.207268 0.178090 -0.115661 255 0 255
-0.283658 0.188807 -0.102547 255 0 255
-0.284088 0.192882 -0.068626 255 0 255
-0.255070 0.182563 -0.016547 255 0 255
-0.244623 0.168256 -0.037568 255 0 255
-0.239113 0.163603 -0.127067 255 0 255
-0.245595 0.168366 -0.066547 255 0 255
-0.268903 0.167161 -0.118547 255 0 255
-0.282800 0.186521 -0.046547 255 0 255
-0.274432 0.206963 -0.016547 255 0 255
-0.245030 0.235340 -0.012547 255 0 255
-0.212663 0.222989 -0.010547 255 0 255
-0.258196 0.172790 -0.046547 255 0 255
-0.232473 0.168884 -0.063554 255 0 255
-0.209908 0.180404 -0.024547 255 0 255
-0.268819 0.203220 -0.011536 255 0 255
-0.255337 0.171489 -0.126547 255 0 255
-0.233475 0.248424 -0.028547 255 0 255
-0.281290 0.184511 -0.062547 255 0 255
-0.253699 0.159260 -0.070547 255 0 255
-0.276169 0.174047 -0.048547 255 0 255
-0.249720 0.158844 -0.078547 255 0 255
-0.223095 0.163790 -0.050547 255 0 255
-0.245747 0.176057 -0.012547 255 0 255
-0.283182 0.200830 -0.010185 255 0 255
-0.281638 0.194616 -0.016547 255 0 255
-0.279780 0.177692 -0.040547 255 0 255
-0.271311 0.181361 -0.010428 255 0 255
-0.249690 0.159107 -0.056547 255 0 255
-0.284500 0.192928 -0.028547 255 0 255
-0.279273 0.180255 -0.082547 255 0 255
-0.243658 0.159053 -0.066547 255 0 255
-0.272645 0.169646 -0.080547 255 0 255
-0.268831 0.167790 -0.072547 255 0 255
-0.265089 0.165299 -0.064547 255 0 255
-0.285161 0.197030 -0.058547 255 0 255
-0.215620 0.193132 -0.012458 255 0 255
-0.247736 0.158588 -0.022547 255 0 255
-0.233516 0.159734 -0.098547 255 0 255
-0.276237 0.173453 -0.100547 255 0 255
-0.238836 0.183700 -0.012393 255 0 255
-0.255596 0.160274 -0.096547 255 0 255
-0.204594 0.179799 -0.098547 255 0 255
-0.251740 0.229454 -0.011728 255 0 255
-0.276592 0.188002 -0.010641 255 0 255
-0.267688 0.213156 -0.011915 255 0 255
-0.249661 0.159366 -0.038547 255 0 255
-0.285439 0.201087 -0.032547 255 0 255
-0.274747 0.195844 -0.130547 255 0 255
-0.234863 0.183247 -0.017444 255 0 255
-0.226461 0.186316 -0.017521 255 0 255
-0.241679 0.194089 -0.017399 255 0 255
-0.273422 0.215822 -0.017492 255 0 255
-0.247715 0.247113 -0.023583 255 0 255
-0.238551 0.168542 -0.026547 255 0 255
-0.250472 0.169911 -0.026547 255 0 255
-0.250482 0.205156 -0.017537 255 0 255
-0.278054 0.202259 -0.020547 255 0 255
-0.253149 0.199421 -0.015349 255 0 255
-0.203952 0.181738 -0.104547 255 0 255
-0.213356 0.213004 -0.011892 255 0 255
-0.280177 0.180359 -0.028547 255 0 255
-0.254928 0.245922 -0.034547 255 0 255
-0.277582 0.184089 -0.126547 255 0 255
-0.267038 0.165855 -0.100547 255 0 255
-0.284484 0.215069 -0.012547 255 0 255
-0.206486 0.178001 -0.050547 255 0 255
-0.201677 0.209503 -0.012547 255 0 255
-0.274727 0.186705 -0.038547 255 0 255
-0.221263 0.167607 -0.014547 255 0 255
-0.227593 0.176381 -0.012978 255 0 255
-0.274272 0.190703 -0.018547 255 0 255
-0.205005 0.197962 -0.009001 255 0 255
-0.238782 0.166512 -0.054547 255 0 255
-0.266839 0.176826 -0.044547 255 0 255
-0.216472 0.167989 -0.102547 255 0 255
-0.235509 0.159910 -0.050547 255 0 255
-0.218020 0.172063 -0.112547 255 0 255
-0.252345 0.171148 -0.010964 255 0 255
-0.246299 0.241878 -0.016547 255 0 255
-0.208918 0.181288 -0.034547 255 0 255
-0.281822 0.204701 -0.124547 255 0 255
-0.241614 0.159323 -0.120547 255 0 255
-0.209885 0.190466 -0.017430 255 0 255
-0.270355 0.181252 -0.056547 255 0 255
-0.242207 0.242459 -0.022153 255 0 255
-0.243515 0.248647 -0.029499 255 0 255
-0.212501 0.202842 -0.017517 255 0 255
-0.278716 0.196295 -0.046547 255 0 255
-0.279782 0.195342 -0.090547 255 0 255
-0.252463 0.170113 -0.056547 255 0 255
-0.210014 0.180416 -0.062547 255 0 255
-0.242635 0.168029 -0.107583 255 0 255
-0.209882 0.172826 -0.110547 255 0 255
-0.224196 0.170859 -0.124547 255 0 255
-0.203497 0.185712 -0.022547 255 0 255
-0.266103 0.227066 -0.012831 255 0 255
-0.264811 0.176594 -0.036547 255 0 255
-0.268608 0.179041 -0.108547 255 0 255
-0.272156 0.183470 -0.116547 255 0 255
-0.254809 0.237856 -0.022473 255 0 255
-0.281084 0.201577 -0.072547 255 0 255
-0.257803 0.193913 -0.017417 255 0 255
-0.225126 0.162695 -0.056547 255 0 255
-0.204376 0.185812 -0.041494 255 0 255
-0.242433 0.240472 -0.010444 255 0 255
-0.243666 0.194315 -0.011619 255 0 255
-0.217534 0.167182 -0.078547 255 0 255
-0.239639 0.158985 -0.034547 255 0 255
-0.256847 0.219972 -0.017504 255 0 255
-0.216935 0.173153 -0.084547 255 0 255
-0.247010 0.222878 -0.012547 255 0 255
-0.215817 0.173726 -0.092547 255 0 255
-0.233403 0.231392 -0.012203 255 0 255
-0.206941 0.216299 -0.017378 255 0 255
-0.249181 0.163574 -0.010547 255 0 255
-0.285681 0.205140 -0.062547 255 0 255
-0.258330 0.242283 -0.017545 255 0 255
-0.232596 0.167805 -0.042547 255 0 255
-0.226968 0.162218 -0.108547 255 0 255
-0.261726 0.212476 -0.017498 255 0 255
-0.248723 0.167602 -0.048547 255 0 255
-0.253362 0.162219 -0.016547 255 0 255
-0.225103 0.198239 -0.013455 255 0 255
-0.228875 0.160422 -0.078547 255 0 255
-0.244746 0.167175 -0.092547 255 0 255
-0.240774 0.202037 -0.017464 255 0 255
-0.278194 0.178120 -0.088547 255 0 255
-0.267684 0.177853 -0.096547 255 0 255
-0.280275 0.200499 -0.100547 255 0 255
-0.227279 0.161469 -0.036547 255 0 255
-0.232196 0.188982 -0.017456 255 0 255
-0.273803 0.223917 -0.008547 255 0 255
-0.255554 0.160648 -0.042547 255 0 255
-0.283479 0.190799 -0.074547 255 0 255
-0.239653 0.158861 -0.100547 255 0 255
-0.250477 0.169867 -0.090547 255 0 255
-0.269214 0.182098 -0.026547 255 0 255
-0.273750 0.177613 -0.125257 255 0 255
-0.200351 0.203470 -0.016847 255 0 255
-0.282393 0.207760 -0.110547 255 0 255
-0.255542 0.160748 -0.064547 255 0 255
-0.277154 0.192092 -0.066547 255 0 255
-0.243645 0.159171 -0.046547 255 0 255
-0.247618 0.159629 -0.120547 255 0 255
-0.275421 0.173777 -0.068547 255 0 255
-0.223467 0.230259 -0.017413 255 0 255
-0.236563 0.168329 -0.108547 255 0 255
-0.246496 0.169475 -0.078547 255 0 255
-0.254456 0.170282 -0.116547 255 0 255
-0.229756 0.192730 -0.012186 255 0 255
-0.259689 0.230361 -0.017502 255 0 255
-0.280497 0.198511 -0.112547 255 0 255
-0.280022 0.202483 -0.064547 255 0 255
-0.257347 0.171718 -0.084547 255 0 255
-0.280916 0.196547 -0.040547 255 0 255
-0.268468 0.170973 -0.015435 255 0 255
-0.269443 0.180085 -0.034547 255 0 255
-0.217773 0.174240 -0.060547 255 0 255
-0.264720 0.203866 -0.016547 255 0 255
-0.214422 0.176892 -0.120547 255 0 255
-0.204049 0.224022 -0.015545 255 0 255
-0.283409 0.198843 -0.125337 255 0 255
-0.263297 0.163363 -0.074547 255 0 255
-0.247757 0.208871 -0.012547 255 0 255
-0.278303 0.208326 -0.009913 255 0 255
-0.212004 0.171861 -0.100547 255 0 255
-0.202063 0.215743 -0.024547 255 0 255
-0.212058 0.171396 -0.030547 255 0 255
-0.272959 0.184557 -0.048547 255 0 255
-0.281510 0.206678 -0.096547 255 0 255
0.122391 -0.249980 -0.106408 0 255 255
0.229602 -0.333712 -0.074547 0 255 255
0.208794 -0.233656 -0.048258 0 255 255
0.140572 -0.320091 -0.046547 0 255 255
0.219082 -0.267035 -0.119518 0 255 255
0.164599 -0.321215 -0.119495 0 255 255
0.140779 -0.229932 -0.044380 0 255 255
0.194054 -0.292364 -0.049912 0 255 255
0.207197 -0.212349 -0.114547 0 255 255
0.117511 -0.275150 -0.060547 0 255 255
0.120781 -0.299456 -0.110547 0 255 255
0.213649 -0.314726 -0.115411 0 255 255
0.174468 -0.322933 -0.076547 0 255 255
0.216956 -0.268026 -0.076547 0 255 255
0.160775 -0.266430 -0.055418 0 255 255
0.175400 -0.217774 -0.054547 0 255 255
0.142450 -0.303597 -0.080547 0 255 255
0.208496 -0.302062 -0.082547 0 255 255
0.145531 -0.223560 -0.108547 0 255 255
0.128155 -0.244598 -0.072547 0 255 255
0.208769 -0.322222 -0.051710 0 255 255
0.163115 -0.298905 -0.055534 0 255 255
0.191715 -0.259891 -0.055459 0 255 255
0.220163 -0.275210 -0.045847 0 255 255
0.174081 -0.326322 -0.045546 0 255 255
0.126389 -0.276603 -0.090547 0 255 255
0.187695 -0.312844 -0.100547 0 255 255
0.140719 -0.318800 -0.104547 0 255 255
0.120666 -0.300107 -0.046547 0 255 255
0.122165 -0.251966 -0.045802 0 255 255
0.117687 -0.273599 -0.119510 0 255 255
0.232146 -0.328911 -0.100547 0 255 255
0.217958 -0.283010 -0.098547 0 255 255
0.140854 -0.282278 -0.050203 0 255 255
0.171441 -0.243491 -0.049605 0 255 255
0.216458 -0.294917 -0.060547 0 255 255
0.216240 -0.256646 -0.097816 0 255 255
0.152449 -0.321844 -0.067115 0 255 255
0.192128 -0.309269 -0.066547 0 255 255
0.164288 -0.315141 -0.096547 0 255 255
0.123219 -0.295719 -0.070547 0 255 255
0.216467 -0.254659 -0.055473 0 255 255
0.144476 -0.250483 -0.055482 0 255 255
0.139101 -0.235780 -0.090547 0 255 255
0.218126 -0.293094 -0.117498 0 255 255
0.175088 -0.282152 -0.049774 0 255 255
0.204410 -0.299583 -0.102547 0 255 255
0.188697 -0.233379 -0.055470 0 255 255
0.138245 -0.305175 -0.060547 0 255 255
0.155096 -0.219486 -0.054547 0 255 255
0.188897 -0.319958 -0.119516 0 255 255
0.125605 -0.298657 -0.090547 0 255 255
0.120713 -0.257840 -0.086547 0 255 255
0.180320 -0.306904 -0.049996 0 255 255
0.203926 -0.276386 -0.056547 0 255 255
0.137115 -0.306006 -0.118547 0 255 255
0.208819 -0.304111 -0.045697 0 255 255
0.130049 -0.235770 -0.116547 0 255 255
0.132729 -0.265248 -0.055417 0 255 255
0.221144 -0.319606 -0.065539 0 255 255
0.158979 -0.316549 -0.050547 0 255 255
0.148654 -0.319816 -0.086547 0 255 255
0.116384 -0.267368 -0.102547 0 255 255
0.191185 -0.317547 -0.082547 0 255 255
0.176176 -0.325599 -0.106547 0 255 255
0.191715 -0.320279 -0.046547 0 255 255
0.215612 -0.286769 -0.076547 0 255 255
0.214642 -0.326917 -0.102547 0 255 255
0.129711 -0.238736 -0.055916 0 255 255
0.120636 -0.259844 -0.068547 0 255 255
0.155997 -0.237705 -0.055456 0 255 255
0.116555 -0.283534 -0.045332 0 255 255
0.175592 -0.260067 -0.049493 0 255 255
0.125678 -0.282562 -0.106547 0 255 255
0.182589 -0.322316 -0.060547 0 255 255
0.139573 -0.302261 -0.098547 0 255 255
0.158738 -0.284315 -0.049896 0 255 255
0.199430 -0.307067 -0.116547 0 255 255
0.199262 -0.246661 -0.049521 0 255 255
0.147218 -0.297093 -0.049782 0 255 255
0.221657 -0.332769 -0.088547 0 255 255
0.148928 -0.317418 -0.119429 0 255 255
0.116379 -0.267411 -0.045428 0 255 255
0.126167 -0.278590 -0.074547 0 255 255
0.192316 -0.219284 -0.048547 0 255 255
0.127005 -0.288752 -0.056547 0 255 255
0.161414 -0.313835 -0.078547 0 255 255
0.156081 -0.325300 -0.106547 0 255 255
0.218745 -0.275049 -0.062547 0 255 255
0.208247 -0.309134 -0.060547 0 255 255
0.187917 -0.275562 -0.055417 0 255 255
0.177539 -0.313640 -0.088547 0 255 255
0.167147 -0.316514 -0.064547 0 255 255
0.121486 -0.257928 -0.119475 0 255 255
0.201925 -0.311617 -0.092547 0 255 255
0.126720 -0.244434 -0.092547 0 255 255
0.146866 -0.264846 -0.049627 0 255 255
0.158387 -0.252068 -0.049877 0 255 255
0.216365 -0.290881 -0.046074 0 255 255
0.223690 -0.314931 -0.102547 0 255 255
0.167065 -0.228902 -0.049207 0 255 255
0.205399 -0.263463 -0.049450 0 255 255
0.216766 -0.269696 -0.104547 0 255 255
0.122064 -0.288188 -0.119532 0 255 255
0.213710 -0.270449 -0.090547 0 255 255
0.129509 -0.311179 -0.046741 0 255 255
0.194456 -0.306501 -0.049891 0 255 255
0.185125 -0.247062 -0.049497 0 255 255
0.129594 -0.310431 -0.106547 0 255 255
0.221596 -0.333304 -0.062547 0 255 255
0.132012 -0.236212 -0.102547 0 255 255
0.218552 -0.254022 -0.114547 0 255 255
0.141037 -0.316012 -0.072547 0 255 255
0.120077 -0.287962 -0.083582 0 255 255
0.135471 -0.311858 -0.089217 0 255 255
0.177704 -0.294527 -0.055484 0 255 255
0.150596 -0.311569 -0.098547 0 255 255
0.214703 -0.294717 -0.092547 0 255 255
0.127397 -0.276718 -0.049619 0 255 255
0.129191 -0.305104 -0.078547 0 255 255
0.221563 -0.279396 -0.112547 0 255 255
0.203567 -0.314874 -0.106547 0 255 255
0.181409 -0.226676 -0.046547 0 255 255
0.122391 -0.249980 -0.059924 0 255 255
0.196550 -0.305794 -0.078547 0 255 255
0.118170 -0.287027 -0.096547 0 255 255
0.214362 -0.255469 -0.074547 0 255 255
0.132762 -0.291420 -0.082547 0 255 255
0.148914 -0.309364 -0.054547 0 255 255
0.217699 -0.242722 -0.050547 0 255 255
0.166339 -0.323605 -0.086547 0 255 255
0.131429 -0.294325 -0.104547 0 255 255
0.223271 -0.265499 -0.054547 0 255 255
0.136352 -0.233453 -0.065515 0 255 255
0.119295 -0.267743 -0.078547 0 255 255
0.228967 -0.321617 -0.090547 0 255 255
0.209271 -0.300137 -0.069676 0 255 255
0.124576 -0.301479 -0.058547 0 255 255
0.151695 -0.275461 -0.055509 0 255 255
0.125348 -0.259358 -0.098547 0 255 255
0.134842 -0.299709 -0.049795 0 255 255
0.182653 -0.313208 -0.074547 0 255 255
0.211033 -0.302351 -0.113080 0 255 255
0.177086 -0.317616 -0.116547 0 255 255
0.206430 -0.289749 -0.055400 0 255 255
0.114021 -0.283246 -0.110547 0 255 255
0.217775 -0.260848 -0.044605 0 255 255
0.146966 -0.228625 -0.055491 0 255 255
0.118949 -0.261665 -0.056547 0 255 255
0.196872 -0.232297 -0.045953 0 255 255
0.167152 -0.316477 -0.108547 0 255 255
0.172245 -0.271764 -0.055501 0 255 255
0.142780 -0.318372 -0.060547 0 255 255
0.176548 -0.234008 -0.055435 0 255 255
0.168133 -0.325532 -0.056547 0 255 255
0.195311 -0.316664 -0.057480 0 255 255
0.134088 -0.253325 -0.050096 0 255 255
0.171397 -0.314549 -0.052547 0 255 255
0.151708 -0.310689 -0.072547 0 255 255
0.192871 -0.320411 -0.108030 0 255 255
0.129340 -0.250771 -0.082547 0 255 255
0.145745 -0.310023 -0.110547 0 255 255
0.135068 -0.297721 -0.071549 0 255 255
0.124831 -0.246232 -0.117474 0 255 255
0.133912 -0.237201 -0.080132 0 255 255
0.143621 -0.240321 -0.049721 0 255 255
0.214872 -0.294737 -0.104547 0 255 255
0.182597 -0.322256 -0.094547 0 255 255
0.212164 -0.284364 -0.064547 0 255 255
0.216704 -0.280855 -0.086547 0 255 255
0.175323 -0.315428 -0.100547 0 255 255
0.161938 -0.326898 -0.046547 0 255 255
0.168322 -0.253200 -0.055488 0 255 255
0.219647 -0.283203 -0.054547 0 255 255
0.156336 -0.323070 -0.094547 0 255 255
0.119419 -0.285874 -0.064547 0 255 255
0.191259 -0.308150 -0.090547 0 255 255
0.215335 -0.264595 -0.065827 0 255 255
0.219685 -0.323466 -0.054547 0 255 255
0.130060 -0.297151 -0.118547 0 255 255
0.196545 -0.270506 -0.049665 0 255 255
0.118309 -0.268142 -0.090547 0 255 255
0.164366 -0.217248 -0.048547 0 255 255
0.129245 -0.286993 -0.094547 0 255 255
0.197551 -0.226336 -0.055509 0 255 255
0.123988 -0.271302 -0.110547 0 255 255
0.201614 -0.314346 -0.046547 0 255 255
0.150288 -0.323146 -0.052547 0 255 255
0.153365 -0.227341 -0.046547 0 255 255
0.129484 -0.240723 -0.045073 0 255 255
0.202548 -0.297358 -0.090547 0 255 255
0.222679 -0.323807 -0.109410 0 255 255
0.134995 -0.316040 -0.114547 0 255 255
0.131770 -0.309003 -0.068547 0 255 255
0.181019 -0.318434 -0.048547 0 255 255
0.232818 -0.331002 -0.086547 0 255 255
0.196443 -0.306727 -0.105555 0 255 255
0.224577 -0.326037 -0.080547 0 255 255
0.168186 -0.325065 -0.098547 0 255 255
0.165887 -0.327579 -0.110547 0 255 255
0.162409 -0.322765 -0.072547 0 255 255
0.124102 -0.270304 -0.067596 0 255 255
0.199160 -0.282882 -0.049379 0 255 255
0.147957 -0.308265 -0.088547 0 255 255
0.155226 -0.315138 -0.110547 0 255 255
0.184571 -0.287258 -0.049565 0 255 255
0.207662 -0.243591 -0.055525 0 255 255
0.201323 -0.299232 -0.055536 0 255 255
0.187187 -0.299634 -0.055377 0 255 255
0.168221 -0.289422 -0.055453 0 255 255
0.212895 -0.268343 -0.055436 0 255 255
0.202330 -0.255061 -0.055494 0 255 255
0.202655 -0.309448 -0.070547 0 255 255
0.115310 -0.263264 -0.112547 0 255 255
0.157437 -0.313404 -0.088547 0 255 255
0.129234 -0.286992 -0.068547 0 255 255
0.141005 -0.272230 -0.054547 0 255 255
0.125612 -0.302682 -0.100547 0 255 255
0.211182 -0.250032 -0.046547 0 255 255
0.139722 -0.292213 -0.055407 0 255 255
0.163845 -0.274832 -0.049820 0 255 255
0.136934 -0.299017 -0.088547 0 255 255
0.215781 -0.313682 -0.054547 0 255 255
0.150337 -0.287383 -0.055434 0 255 255
0.184848 -0.267160 -0.049925 0 255 255
0.139718 -0.309907 -0.048547 0 255 255
0.156474 -0.304186 -0.049504 0 255 255
0.118849 -0.277757 -0.082547 0 255 255
0.213422 -0.316714 -0.103596 0 255 255
0.116399 -0.277479 -0.100547 0 255 255
0.136783 -0.229670 -0.054547 0 255 255
0.170837 -0.301797 -0.049459 0 255 255
0.185854 -0.222991 -0.055546 0 255 255
0.157206 -0.315433 -0.060547 0 255 255
0.198180 -0.238486 -0.055542 0 255 255
0.182232 -0.254784 -0.055517 0 255 255
0.142220 -0.305623 -0.070547 0 255 255
0.137584 -0.302034 -0.108547 0 255 255
0.166159 -0.236850 -0.055496 0 255 255
0.213853 -0.277594 -0.072547 0 255 255
0.134597 -0.313771 -0.056547 0 255 255
0.127196 -0.306889 -0.116547 0 255 255
0.189038 -0.318719 -0.068547 0 255 255
0.142815 -0.318061 -0.094547 0 255 255
0.184231 -0.325582 -0.112547 0 255 255
0.174412 -0.323418 -0.066547 0 255 255
0.125035 -0.270410 -0.098547 0 255 255
0.154489 -0.321608 -0.078547 0 255 255
0.221638 -0.332937 -0.098547 0 255 255
0.151746 -0.257350 -0.055467 0 255 255
0.121323 -0.253884 -0.076547 0 255 255
0.209323 -0.282026 -0.049765 0 255 255
0.117637 -0.291710 -0.050988 0 255 255
0.228242 -0.326454 -0.066547 0 255 255
0.220012 -0.329542 -0.071536 0 255 255
0.198265 -0.317000 -0.118547 0 255 255
0.124013 -0.296462 -0.080547 0 255 255
0.129258 -0.242710 -0.109416 0 255 255
0.183269 -0.316352 -0.108547 0 255 255
0.182200 -0.321208 -0.084547 0 255 255
0.113904 -0.273168 -0.110547 0 255 255
0.191129 -0.318040 -0.092547 0 255 255
0.146261 -0.323153 -0.111241 0 255 255
0.132302 -0.295394 -0.062547 0 255 255
0.163970 -0.309066 -0.055457 0 255 255
0.185602 -0.313544 -0.055454 0 255 255
0.212743 -0.322676 -0.062119 0 255 255
0.211781 -0.290358 -0.084547 0 255 255
0.119813 -0.291958 -0.104547 0 255 255
0.114717 -0.275274 -0.050547 0 255 255
0.217865 -0.260053 -0.106547 0 255 255
0.141078 -0.315644 -0.082547 0 255 255
0.215418 -0.299198 -0.050547 0 255 255
0.207993 -0.304018 -0.094547 0 255 255
0.220691 -0.323581 -0.096080 0 255 255
0.159116 -0.227995 -0.055480 0 255 255
0.171348 -0.314978 -0.080547 0 255 255
0.135322 -0.313159 -0.098547 0 255 255
0.124439 -0.258265 -0.110547 0 255 255
0.127573 -0.292841 -0.048137 0 255 255
0.192847 -0.249956 -0.055495 0 255 255
0.122290 -0.243929 -0.050547 0 255 255
0.124554 -0.266330 -0.049782 0 255 255
0.141357 -0.260192 -0.055526 0 255 255
0.161506 -0.242359 -0.049558 0 255 255
0.160254 -0.324014 -0.062547 0 255 255
0.132905 -0.281371 -0.055448 0 255 255
0.127911 -0.289871 -0.112547 0 255 255
0.120002 -0.285940 -0.074547 0 255 255
0.198314 -0.307979 -0.058547 0 255 255
0.165429 -0.260922 -0.049625 0 255 255
0.192823 -0.312353 -0.112547 0 255 255
0.172664 -0.221488 -0.046547 0 255 255
0.210353 -0.308312 -0.106075 0 255 255
0.194674 -0.314577 -0.074547 0 255 255
0.215439 -0.263674 -0.084547 0 255 255
0.212034 -0.322594 -0.110547 0 255 255
0.181514 -0.314097 -0.064547 0 255 255
0.146891 -0.220564 -0.050547 0 255 255
0.218563 -0.287105 -0.108547 0 255 255
0.127638 -0.282785 -0.082547 0 255 255
0.148812 -0.321430 -0.100547 0 255 255
0.198762 -0.304047 -0.096547 0 255 255
0.172589 -0.326152 -0.116547 0 255 255
0.149607 -0.311456 -0.063539 0 255 255
0.149154 -0.315430 -0.047792 0 255 255
0.214803 -0.278625 -0.106547 0 255 255
0.126170 -0.278591 -0.064547 0 255 255
0.127674 -0.256620 -0.055537 0 255 255
0.174414 -0.323402 -0.090547 0 255 255
0.223237 -0.336574 -0.080547 0 255 255
0.130022 -0.244811 -0.062547 0 255 255
0.123077 -0.279301 -0.114547 0 255 255
0.182056 -0.238661 -0.050051 0 255 255
0.196181 -0.316762 -0.100547 0 255 255
0.137207 -0.243616 -0.055426 0 255 255
0.126875 -0.252504 -0.068547 0 255 255
0.157606 -0.294251 -0.050232 0 255 255
0.151117 -0.245201 -0.049528 0 255 255
0.179968 -0.274656 -0.049805 0 255 255
0.190985 -0.283964 -0.055488 0 255 255
0.156346 -0.322972 -0.116547 0 255 255
0.222532 -0.254426 -0.048547 0 255 255
0.210272 -0.291358 -0.070547 0 255 255
0.117281 -0.283617 -0.054547 0 255 255
0.182376 -0.218182 -0.048547 0 255 255
0.203556 -0.226633 -0.048547 0 255 255
0.191992 -0.239793 -0.049474 0 255 255
0.198629 -0.313015 -0.084547 0 255 255
0.212112 -0.286371 -0.092547 0 255 255
0.118131 -0.257546 -0.104547 0 255 255
0.205902 -0.241378 -0.045399 0 255 255
0.167744 -0.222940 -0.055540 0 255 255
0.125062 -0.270414 -0.084547 0 255 255
0.173337 -0.315191 -0.070547 0 255 255
0.115878 -0.259302 -0.048547 0 255 255
0.130364 -0.307250 -0.094547 0 255 255
0.217264 -0.265329 -0.096547 0 255 255
0.129967 -0.244804 -0.100547 0 255 255
0.123050 -0.252068 -0.094547 0 255 255
0.177176 -0.246157 -0.055462 0 255 255
0.148752 -0.301293 -0.057540 0 255 255
0.184835 -0.311444 -0.084547 0 255 255
0.220062 -0.311431 -0.109520 0 255 255
0.167378 -0.314488 -0.088547 0 255 255
0.133308 -0.295508 -0.095510 0 255 255
0.199210 -0.264771 -0.055487 0 255 255
0.118872 -0.280874 -0.090547 0 255 255
0.116743 -0.291608 -0.112547 0 255 255
0.125131 -0.261264 -0.078547 0 255 255
0.118389 -0.275692 -0.072547 0 255 255
0.186617 -0.322306 -0.102547 0 255 255
0.124482 -0.284638 -0.048547 0 255 255
0.214326 -0.273445 -0.082547 0 255 255
0.205047 -0.231216 -0.055535 0 255 255
0.181276 -0.280844 -0.055471 0 255 255
0.154362 -0.269725 -0.049863 0 255 255
0.121385 -0.294149 -0.061365 0 255 255
0.218250 -0.274344 -0.096547 0 255 255
0.198756 -0.304101 -0.086547 0 255 255
0.134213 -0.287560 -0.049822 0 255 255
0.213197 -0.296559 -0.076547 0 255 255
0.207285 -0.299911 -0.061472 0 255 255
0.140848 -0.229325 -0.104547 0 255 255
0.165152 -0.281020 -0.055396 0 255 255
0.178282 -0.324788 -0.053326 0 255 255
0.207738 -0.295936 -0.049510 0 255 255
0.202970 -0.302446 -0.110547 0 255 255
0.203084 -0.301445 -0.075711 0 255 255
0.126436 -0.302818 -0.066547 0 255 255
0.197903 -0.258583 -0.049399 0 255 255
0.135543 -0.311222 -0.076547 0 255 255
0.205247 -0.317795 -0.057798 0 255 255
0.125755 -0.264454 -0.090547 0 255 255
0.121302 -0.294876 -0.096547 0 255 255
0.135221 -0.233325 -0.110547 0 255 255
0.175090 -0.317469 -0.060547 0 255 255
0.209825 -0.259941 -0.055490 0 255 255
0.149029 -0.281196 -0.049821 0 255 255
0.179113 -0.264494 -0.055505 0 255 255
0.158201 -0.324365 -0.054547 0 255 255
0.208241 -0.273851 -0.049630 0 255 255
0.149710 -0.310548 -0.080547 0 255 255
0.174510 -0.251892 -0.049604 0 255 255
0.213976 -0.276518 -0.055502 0 255 255
0.157209 -0.315404 -0.102547 0 255 255
0.159195 -0.315647 -0.068547 0 255 255
0.125930 -0.280577 -0.098547 0 255 255
0.217498 -0.280945 -0.119545 0 255 255
0.132727 -0.239080 -0.094547 0 255 255
0.189149 -0.229404 -0.046385 0 255 255
0.208020 -0.311133 -0.050547 0 255 255
0.138691 -0.265928 -0.049834 0 255 255
0.157079 -0.245880 -0.055489 0 255 255
0.205830 -0.312681 -0.116547 0 255 255
0.129626 -0.246779 -0.054547 0 255 255
0.143646 -0.310776 -0.119543 0 255 255
0.143983 -0.307817 -0.102547 0 255 255
0.123875 -0.272291 -0.055474 0 255 255
0.174358 -0.306224 -0.055482 0 255 255
0.130412 -0.307256 -0.060547 0 255 255
0.221184 -0.271300 -0.112547 0 255 255
0.175466 -0.225832 -0.055404 0 255 255
0.137312 -0.313358 -0.064547 0 255 255
0.121812 -0.300238 -0.118547 0 255 255
0.150142 -0.235025 -0.050547 0 255 255
0.135920 -0.237247 -0.048547 0 255 255
0.130084 -0.306133 -0.086547 0 255 255
0.214681 -0.314844 -0.062547 0 255 255
0.182709 -0.321267 -0.072875 0 255 255
0.188788 -0.320911 -0.054547 0 255 255
0.158337 -0.322515 -0.086547 0 255 255
0.212422 -0.237159 -0.054547 0 255 255
0.216921 -0.282892 -0.046547 0 255 255
0.157481 -0.260017 -0.049307 0 255 255
0.185754 -0.259212 -0.049740 0 255 255
0.188093 -0.291685 -0.055508 0 255 255
0.171164 -0.263589 -0.055485 0 255 255
0.195865 -0.276468 -0.055522 0 255 255
0.204385 -0.309645 -0.100547 0 255 255
0.175096 -0.317422 -0.108547 0 255 255
0.190810 -0.267839 -0.055487 0 255 255
0.131824 -0.273196 -0.055456 0 255 255
0.131438 -0.241248 -0.086547 0 255 255
0.171743 -0.293848 -0.049874 0 255 255
0.123658 -0.264215 -0.062547 0 255 255
0.145784 -0.256671 -0.049990 0 255 255
0.198481 -0.288843 -0.055446 0 255 255
0.209790 -0.304223 -0.054547 0 255 255
0.164930 -0.318309 -0.056547 0 255 255
0.160424 -0.234184 -0.049954 0 255 255
0.123745 -0.264224 -0.104547 0 255 255
0.166812 -0.319455 -0.048414 0 255 255
0.117378 -0.255447 -0.112547 0 255 255
0.183614 -0.313317 -0.093519 0 255 255
0.181226 -0.298955 -0.050062 0 255 255
0.218353 -0.291107 -0.053631 0 255 255
0.161556 -0.224247 -0.046211 0 255 255
0.121423 -0.265973 -0.116547 0 255 255
0.216511 -0.268755 -0.048547 0 255 255
0.229722 -0.332661 -0.093421 0 255 255
0.176326 -0.324285 -0.098547 0 255 255
0.146714 -0.319178 -0.076679 0 255 255
0.224769 -0.323128 -0.072547 0 255 255
0.209835 -0.295192 -0.110547 0 255 255
0.118287 -0.261589 -0.096547 0 255 255
0.123920 -0.280348 -0.056547 0 255 255
0.215921 -0.330107 -0.058547 0 255 255
0.198491 -0.312999 -0.064547 0 255 255
0.127035 -0.306871 -0.052547 0 255 255
0.146137 -0.288918 -0.049291 0 255 255
0.142017 -0.318643 -0.116547 0 255 255
0.211934 -0.298427 -0.098547 0 255 255
0.118801 -0.253596 -0.052547 0 255 255
0.225874 -0.322158 -0.102547 0 255 255
0.154019 -0.325738 -0.046547 0 255 255
0.223504 -0.325914 -0.060547 0 255 255
0.187565 -0.243314 -0.055524 0 255 255
0.189066 -0.309913 -0.078547 0 255 255
0.167142 -0.316556 -0.074547 0 255 255
0.223335 -0.318046 -0.058547 0 255 255
0.217548 -0.262835 -0.113511 0 255 255
0.129190 -0.286987 -0.076547 0 255 255
0.182223 -0.325535 -0.046547 0 255 255
0.174685 -0.268015 -0.049514 0 255 255
0.136016 -0.297829 -0.080547 0 255 255
0.142451 -0.303601 -0.090547 0 255 255
0.200745 -0.304303 -0.064547 0 255 255
0.161022 -0.324834 -0.100547 0 255 255
0.165254 -0.244798 -0.055476 0 255 255
0.144362 -0.304484 -0.050547 0 255 255
0.172347 -0.235542 -0.049539 0 255 255
0.203459 -0.307527 -0.080547 0 255 255
0.117031 -0.269498 -0.054547 0 255 255
0.140803 -0.300388 -0.055540 0 255 255
0.161682 -0.258482 -0.055477 0 255 255
0.205863 -0.294719 -0.096547 0 255 255
0.135039 -0.315648 -0.048547 0 255 255
0.166563 -0.323452 -0.078547 0 255 255
0.212534 -0.280380 -0.080547 0 255 255
0.225428 -0.335009 -0.068547 0 255 255
0.140729 -0.248043 -0.049697 0 255 255
0.142087 -0.236120 -0.055488 0 255 255
0.129089 -0.252756 -0.090547 0 255 255
0.191665 -0.278002 -0.049695 0 255 255
0.193288 -0.308380 -0.098547 0 255 255
0.135345 -0.277624 -0.049637 0 255 255
0.147369 -0.242760 -0.055405 0 255 255
0.116782 -0.281548 -0.117302 0 255 255
0.120825 -0.290060 -0.090547 0 255 255
0.213172 -0.248245 -0.053261 0 255 255
0.202631 -0.305419 -0.049186 0 255 255
0.189803 -0.312010 -0.049515 0 255 255
0.166257 -0.324327 -0.066547 0 255 255
0.155443 -0.277900 -0.049481 0 255 255
0.190407 -0.253704 -0.049444 0 255 255
0.147947 -0.273021 -0.049761 0 255 255
0.193250 -0.264092 -0.049495 0 255 255
0.131761 -0.299358 -0.056547 0 255 255
0.212844 -0.286454 -0.055422 0 255 255
0.159644 -0.276367 -0.055482 0 255 255
0.166787 -0.248999 -0.049676 0 255 255
0.176623 -0.286352 -0.055492 0 255 255
0.162236 -0.218287 -0.055545 0 255 255
0.171351 -0.314955 -0.094547 0 255 255
0.145281 -0.278756 -0.055495 0 255 255
0.141503 -0.225989 -0.050547 0 255 255
0.178304 -0.314726 -0.054547 0 255 255
0.124653 -0.256276 -0.062547 0 255 255
0.217494 -0.270880 -0.068547 0 255 255
0.130342 -0.233197 -0.050547 0 255 255
0.125216 -0.268418 -0.074547 0 255 255
0.150614 -0.267286 -0.055464 0 255 255
0.204770 -0.251314 -0.049462 0 255 255
0.166687 -0.285220 -0.049806 0 255 255
0.221152 -0.275323 -0.106547 0 255 255
0.126918 -0.252508 -0.100547 0 255 255
0.160273 -0.288515 -0.055476 0 255 255
0.131195 -0.261048 -0.049844 0 255 255
0.124183 -0.258236 -0.048547 0 255 255
0.182408 -0.270909 -0.055484 0 255 255
0.156021 -0.308161 -0.055400 0 255 255
0.131970 -0.245032 -0.078547 0 255 255
0.200248 -0.237996 -0.048547 0 255 255
0.128136 -0.287899 -0.102547 0 255 255
0.220902 -0.275294 -0.054547 0 255 255
0.154990 -0.281875 -0.055398 0 255 255
0.226118 -0.328954 -0.104547 0 255 255
0.135130 -0.314854 -0.106547 0 255 255
0.190256 -0.308035 -0.055387 0 255 255
0.223728 -0.325940 -0.088547 0 255 255
0.204720 -0.269424 -0.055532 0 255 255
0.178424 -0.314739 -0.080547 0 255 255
0.203135 -0.283334 -0.055455 0 255 255
0.219261 -0.318467 -0.112547 0 255 255
0.216592 -0.288892 -0.068547 0 255 255
0.130239 -0.287106 -0.087537 0 255 255
0.153238 -0.314925 -0.054547 0 255 255
0.210178 -0.292189 -0.063559 0 255 255
0.160964 -0.317787 -0.114547 0 255 255
0.227316 -0.336413 -0.086547 0 255 255
0.211324 -0.299794 -0.088547 0 255 255
0.218298 -0.273912 -0.118547 0 255 255
0.223423 -0.269542 -0.048547 0 255 255
0.117634 -0.271580 -0.096547 0 255 255
0.141885 -0.308563 -0.055585 0 255 255
0.121561 -0.296183 -0.054547 0 255 255
0.187640 -0.295660 -0.049715 0 255 255
0.133583 -0.301578 -0.114547 0 255 255
0.196555 -0.305749 -0.070547 0 255 255
0.119046 -0.261676 -0.075016 0 255 255
0.155166 -0.297998 -0.055491 0 255 255
0.126214 -0.304764 -0.046032 0 255 255
0.156048 -0.219594 -0.047719 0 255 255
0.174308 -0.324335 -0.059365 0 255 255
0.202455 -0.289296 -0.049796 0 255 255
0.217498 -0.280945 -0.067238 0 255 255
0.232162 -0.328913 -0.078754 0 255 255
0.213634 -0.279516 -0.092547 0 255 255
0.117628 -0.269566 -0.064547 0 255 255
0.150474 -0.321515 -0.060547 0 255 255
0.124853 -0.304609 -0.108547 0 255 255
0.194909 -0.302527 -0.055470 0 255 255
0.171290 -0.297823 -0.055448 0 255 255
0.118728 -0.264469 -0.084547 0 255 255
0.125796 -0.300691 -0.074547 0 255 255
0.146192 -0.319119 -0.066547 0 255 255
0.210279 -0.255968 -0.049941 0 255 255
0.165328 -0.297143 -0.049307 0 255 255
0.164423 -0.305092 -0.049915 0 255 255
0.197349 -0.298779 -0.049998 0 255 255
0.186443 -0.315653 -0.114547 0 255 255
0.137559 -0.302032 -0.066547 0 255 255
0.124152 -0.252193 -0.113602 0 255 255
0.212042 -0.293491 -0.054547 0 255 255
0.186734 -0.303609 -0.049884 0 255 255
0.217258 -0.327216 -0.064547 0 255 255
0.211373 -0.308428 -0.116547 0 255 255
0.180773 -0.302929 -0.055533 0 255 255
0.217246 -0.286955 -0.060547 0 255 255
0.227317 -0.326349 -0.096547 0 255 255
0.124587 -0.274385 -0.104547 0 255 255
0.138448 -0.232728 -0.084547 0 255 255
0.211830 -0.300428 -0.106547 0 255 255
0.126751 -0.247048 -0.046547 0 255 255
0.132277 -0.269223 -0.049981 0 255 255
0.119121 -0.278687 -0.066547 0 255 255
0.207964 -0.293949 -0.103546 0 255 255
0.131865 -0.237498 -0.062547 0 255 255
0.213677 -0.262393 -0.050547 0 255 255
0.117038 -0.283589 -0.104547 0 255 255
0.178157 -0.290554 -0.050082 0 255 255
0.214257 -0.291722 -0.098547 0 255 255
0.202362 -0.299350 -0.082547 0 255 255
0.138062 -0.253778 -0.055475 0 255 255
0.124021 -0.250165 -0.086547 0 255 255
0.121133 -0.278692 -0.048547 0 255 255
0.201346 -0.316696 -0.112547 0 255 255
0.185757 -0.319601 -0.078547 0 255 255
0.189914 -0.311028 -0.106547 0 255 255
0.170894 -0.318963 -0.114547 0 255 255
0.143977 -0.307871 -0.062547 0 255 255
0.182709 -0.321267 -0.117359 0 255 255
0.140007 -0.307378 -0.112547 0 255 255
0.127439 -0.284775 -0.062547 0 255 255
0.212090 -0.240070 -0.048244 0 255 255
0.187696 -0.312841 -0.062547 0 255 255
0.171793 -0.275738 -0.050229 0 255 255
0.181513 -0.314100 -0.102547 0 255 255
0.121395 -0.272008 -0.048547 0 255 255
0.229631 -0.324600 -0.084547 0 255 255
0.129333 -0.250771 -0.074547 0 255 255
0.130408 -0.293165 -0.072547 0 255 255
0.144534 -0.320648 -0.054547 0 255 255
0.195699 -0.224929 -0.048547 0 255 255
0.123071 -0.244018 -0.111194 0 255 255
0.206606 -0.305872 -0.088400 0 255 255
0.169360 -0.323772 -0.072547 0 255 255
0.147697 -0.323316 -0.046547 0 255 255
0.133233 -0.243163 -0.049835 0 255 255
0.193317 -0.320462 -0.114547 0 255 255
0.216220 -0.296903 -0.112547 0 255 255
0.146898 -0.229223 -0.046547 0 255 255
0.165504 -0.313267 -0.050045 0 255 255
0.178761 -0.232247 -0.049554 0 255 255
0.138590 -0.302149 -0.075514 0 255 255
0.216467 -0.254659 -0.046075 0 255 255
0.206606 -0.305872 -0.066850 0 255 255
0.221248 -0.287411 -0.048547 0 255 255
0.197203 -0.316879 -0.050547 0 255 255
0.185452 -0.279532 -0.050547 0 255 255
0.124502 -0.244182 -0.104547 0 255 255
0.191688 -0.318263 -0.062547 0 255 255
0.220695 -0.261180 -0.050547 0 255 255
0.125740 -0.273581 -0.078547 0 255 255
0.152016 -0.325656 -0.112547 0 255 255
0.207200 -0.318325 -0.110547 0 255 255
0.132176 -0.305444 -0.048842 0 255 255
0.214479 -0.254433 -0.103537 0 255 255
0.219631 -0.285214 -0.114547 0 255 255
0.175869 -0.239969 -0.053264 0 255 255
0.173327 -0.279939 -0.055493 0 255 255
0.126618 -0.256500 -0.084547 0 255 255
0.118376 -0.259587 -0.062547 0 255 255
0.170038 -0.326479 -0.050547 0 255 255
0.125585 -0.257284 -0.072547 0 255 255
0.150565 -0.320720 -0.092547 0 255 255
0.164277 -0.324043 -0.092547 0 255 255
0.211435 -0.316487 -0.050241 0 255 255
0.170100 -0.325932 -0.104547 0 255 255
0.121612 -0.292162 -0.046036 0 255 255
0.174131 -0.308212 -0.049368 0 255 255
0.119808 -0.287931 -0.058547 0 255 255
0.159858 -0.327493 -0.112547 0 255 255
0.119524 -0.255692 -0.098547 0 255 255
0.201826 -0.277146 -0.049879 0 255 255
0.175818 -0.258080 -0.055514 0 255 255
0.129971 -0.236453 -0.108547 0 255 255
0.139597 -0.257978 -0.049533 0 255 255
0.151871 -0.291585 -0.049808 0 255 255
0.192746 -0.286177 -0.049494 0 255 255
0.178039 -0.326929 -0.112547 0 255 255
0.172470 -0.322797 -0.084547 0 255 255
0.168498 -0.269323 -0.049885 0 255 255
0.126618 -0.301222 -0.084547 0 255 255
0.196595 -0.252396 -0.049868 0 255 255
0.157438 -0.313393 -0.096547 0 255 255
0.160419 -0.322565 -0.080547 0 255 255
0.190357 -0.271814 -0.049397 0 255 255
0.134215 -0.309702 -0.082547 0 255 255
0.179390 -0.244396 -0.049753 0 255 255
0.216986 -0.286925 -0.088547 0 255 255
0.131202 -0.296326 -0.110547 0 255 255
0.209608 -0.297193 -0.116547 0 255 255
0.173253 -0.227594 -0.049382 0 255 255
0.122660 -0.294295 -0.116547 0 255 255
0.214295 -0.284606 -0.104547 0 255 255
0.168096 -0.255187 -0.049449 0 255 255
0.182459 -0.252797 -0.049339 0 255 255
0.164020 -0.290955 -0.049966 0 255 255
0.210404 -0.290201 -0.049367 0 255 255
0.145457 -0.294880 -0.055515 0 255 255
0.182358 -0.289019 -0.055381 0 255 255
0.148451 -0.250936 -0.049875 0 255 255
0.201475 -0.244899 -0.055382 0 255 255
0.193601 -0.296339 -0.055380 0 255 255
0.138414 -0.286025 -0.055498 0 255 255
0.155445 -0.313217 -0.080547 0 255 255
0.168623 -0.303558 -0.055359 0 255 255
0.218728 -0.270149 -0.058547 0 255 255
0.164851 -0.230662 -0.055397 0 255 255
0.135899 -0.237428 -0.055483 0 255 255
0.152702 -0.231290 -0.055485 0 255 255
0.183188 -0.228726 -0.055504 0 255 255
0.162587 -0.250534 -0.055541 0 255 255
0.169132 -0.316755 -0.102547 0 255 255
0.121666 -0.263988 -0.110547 0 255 255
0.145969 -0.308047 -0.094547 0 255 255
0.191564 -0.314224 -0.119541 0 255 255
0.184899 -0.249049 -0.055499 0 255 255
0.154412 -0.251615 -0.055472 0 255 255
0.132522 -0.293406 -0.088547 0 255 255
0.191363 -0.227644 -0.055486 0 255 255
0.185300 -0.263186 -0.055463 0 255 255
0.170989 -0.247465 -0.055485 0 255 255
0.152581 -0.311795 -0.092547 0 255 255
0.202732 -0.269198 -0.049533 0 255 255
0.168423 -0.216979 -0.053546 0 255 255
0.209773 -0.288117 -0.078547 0 255 255
0.128880 -0.299030 -0.047876 0 255 255
0.174761 -0.320360 -0.047456 0 255 255
0.207511 -0.297924 -0.055519 0 255 255
0.210934 -0.296300 -0.082547 0 255 255
0.187682 -0.312954 -0.070547 0 255 255
0.212304 -0.326527 -0.054547 0 255 255
0.215719 -0.261217 -0.072547 0 255 255
0.166058 -0.273072 -0.055377 0 255 255
0.219966 -0.329947 -0.104547 0 255 255
0.196993 -0.314842 -0.090547 0 255 255
0.219227 -0.318774 -0.100547 0 255 255
0.208517 -0.253754 -0.055466 0 255 255
0.187841 -0.223217 -0.046812 0 255 255
0.229376 -0.335701 -0.080547 0 255 255
0.182315 -0.324727 -0.106547 0 255 255
0.202178 -0.309394 -0.111504 0 255 255
0.133534 -0.293521 -0.055471 0 255 255
0.125007 -0.262356 -0.055490 0 255 255
0.122861 -0.294318 -0.086547 0 255 255
0.129800 -0.308631 -0.100547 0 255 255
0.121569 -0.298196 -0.104547 0 255 255
0.149486 -0.312525 -0.104547 0 255 255
0.212699 -0.300528 -0.058547 0 255 255
0.125575 -0.257371 -0.104547 0 255 255
0.161077 -0.316788 -0.107526 0 255 255
0.183635 -0.321371 -0.066547 0 255 255
0.162287 -0.314914 -0.084547 0 255 255
0.192353 -0.307296 -0.084547 0 255 255
0.142042 -0.316633 -0.088547 0 255 255
-0.183587 0.120935 -0.008547 255 125 0
-0.202818 0.111156 -0.131521 255 125 0
-0.229462 0.159978 -0.074547 255 125 0
-0.154737 0.135872 -0.078547 255 125 0
-0.204949 0.092446 -0.066547 255 125 0
-0.162812 0.161938 -0.028547 255 125 0
-0.154447 0.111684 -0.120671 255 125 0
-0.221709 0.131425 -0.036547 255 125 0
-0.161712 0.100925 -0.046547 255 125 0
-0.223984 0.121619 -0.094547 255 125 0
-0.203459 0.158529 -0.006547 255 125 0
-0.183470 0.088822 -0.102547 255 125 0
-0.206830 0.093604 -0.026547 255 125 0
-0.152636 0.127581 -0.023556 255 125 0
-0.217946 0.120932 -0.002547 255 125 0
-0.160416 0.102299 -0.080547 255 125 0
-0.174916 0.091038 -0.018547 255 125 0
-0.219972 0.137266 -0.121534 255 125 0
-0.174217 0.150170 -0.002273 255 125 0
-0.217929 0.119866 -0.064547 255 125 0
-0.212417 0.097568 -0.106547 255 125 0
-0.158601 0.136313 -0.050547 255 125 0
-0.157805 0.135205 -0.106547 255 125 0
-0.187223 0.089014 -0.044547 255 125 0
-0.177941 0.099817 -0.126547 255 125 0
-0.196453 0.096341 -0.002504 255 125 0
-0.163016 0.107141 -0.002547 255 125 0
-0.179095 0.089691 -0.068547 255 125 0
-0.216633 0.102666 -0.046547 255 125 0
-0.217503 0.141273 -0.014547 255 125 0
-0.160358 0.130474 -0.001220 255 125 0
-0.152907 0.117547 -0.064547 255 125 0
-0.209353 0.106797 -0.084547 255 125 0
-0.222604 0.114164 -0.118547 255 125 0
-0.167165 0.106062 -0.102547 255 125 0
-0.220799 0.112343 -0.024547 255 125 0
-0.200101 0.135002 -0.001743 255 125 0
-0.217532 0.141014 -0.071512 255 125 0
-0.157186 0.105958 -0.024547 255 125 0
-0.152365 0.119498 -0.092547 255 125 0
-0.219432 0.142005 -0.100547 255 125 0
-0.196925 0.092198 -0.120547 255 125 0
-0.193183 0.160382 -0.024972 255 125 0
-0.197277 0.089119 -0.086547 255 125 0
-0.161662 0.144713 -0.018547 255 125 0
-0.153035 0.117562 -0.040547 255 125 0
-0.204920 0.110365 -0.012547 255 125 0
-0.179054 0.098384 -0.086547 255 125 0
-0.175792 0.101012 -0.034547 255 125 0
-0.216970 0.145939 -0.046547 255 125 0
-0.169381 0.104279 -0.062547 255 125 0
-0.168627 0.119339 -0.128547 255 125 0
-0.189928 0.100615 -0.018547 255 125 0
-0.198995 0.100656 -0.050547 255 125 0
-0.189531 0.147888 -0.010547 255 125 0
-0.154170 0.131782 -0.123344 255 125 0
-0.179746 0.101639 -0.004547 255 125 0
-0.173919 0.135116 -0.010547 255 125 0
-0.223997 0.119601 -0.048547 255 125 0
-0.170722 0.092511 -0.112547 255 125 0
-0.217740 0.103854 -0.070547 255 125 0
-0.196117 0.099296 -0.100547 255 125 0
-0.222342 0.134135 -0.056547 255 125 0
-0.157353 0.139177 -0.034547 255 125 0
-0.162568 0.118648 -0.014547 255 125 0
-0.218134 0.126992 -0.108547 255 125 0
-0.160706 0.118436 -0.078547 255 125 0
-0.223654 0.127621 -0.020547 255 125 0
-0.187319 0.088178 -0.028547 255 125 0
-0.222348 0.127472 -0.078547 255 125 0
-0.172872 0.091306 -0.052547 255 125 0
-0.177423 0.157363 -0.024547 255 125 0
-0.184895 0.162455 -0.006547 255 125 0
-0.159617 0.119302 -0.106547 255 125 0
-0.192141 0.098853 -0.072547 255 125 0
-0.210117 0.100086 -0.122547 255 125 0
-0.213866 0.112415 -0.102547 255 125 0
-0.208246 0.107749 -0.032547 255 125 0
-0.158546 0.146371 -0.003566 255 125 0
-0.171250 0.105547 -0.017525 255 125 0
-0.186179 0.098180 -0.058547 255 125 0
-0.207194 0.125746 -0.011546 255 125 0
-0.161134 0.114458 -0.052547 255 125 0
-0.156802 0.132082 -0.064547 255 125 0
-0.194131 0.099064 -0.036547 255 125 0
-0.210325 0.107986 -0.058547 255 125 0
-0.166416 0.094971 -0.092547 255 125 0
-0.183246 0.088588 -0.118547 255 125 0
-0.214396 0.100398 -0.016547 255 125 0
-0.222153 0.113359 -0.080547 255 125 0
-0.155025 0.133892 -0.092547 255 125 0
-0.214053 0.136592 -0.000547 255 125 0
-0.208713 0.094747 -0.092547 255 125 0
-0.167170 0.106024 -0.118547 255 125 0
-0.206581 0.093469 -0.040547 255 125 0
-0.191800 0.101849 -0.129262 255 125 0
-0.164723 0.109829 -0.036547 255 125 0
-0.186191 0.133417 -0.003764 255 125 0
-0.217099 0.118822 -0.036547 255 125 0
-0.195325 0.088578 -0.056547 255 125 0
-0.163495 0.110702 -0.090547 255 125 0
-0.220094 0.136195 -0.088547 255 125 0
-0.204930 0.145617 -0.009482 255 125 0
-0.199120 0.090606 -0.016112 255 125 0
-0.173811 0.100738 -0.074547 255 125 0
-0.185286 0.088359 -0.080547 255 125 0
-0.195498 0.122400 -0.003236 255 125 0
-0.213191 0.108442 -0.002547 255 125 0
-0.219486 0.106199 -0.092547 255 125 0
-0.201854 0.101946 -0.112547 255 125 0
-0.208665 0.095167 -0.078547 255 125 0
-0.157707 0.106017 -0.068547 255 125 0
-0.154119 0.149893 -0.027518 255 125 0
-0.188169 0.098384 -0.110547 255 125 0
-0.161122 0.132574 -0.014547 255 125 0
-0.165167 0.096802 -0.028547 255 125 0
-0.153013 0.124262 -0.052547 255 125 0
-0.160469 0.120422 -0.030547 255 125 0
-0.171208 0.123574 -0.006547 255 125 0
-0.192721 0.111437 -0.008547 255 125 0
-0.195888 0.101308 -0.084547 255 125 0
-0.179993 0.099474 -0.046547 255 125 0
-0.199176 0.090113 -0.108547 255 125 0
-0.209613 0.095827 -0.054547 255 125 0
-0.210882 0.111046 -0.116547 255 125 0
-0.219866 0.138197 -0.026547 255 125 0
-0.184835 0.092307 -0.010547 255 125 0
-0.205601 0.104398 -0.070547 255 125 0
-0.157914 0.106040 -0.110547 255 125 0
-0.184429 0.131204 -0.015508 255 125 0
-0.178008 0.099227 -0.098547 255 125 0
-0.220701 0.113200 -0.012547 255 125 0
-0.152485 0.129577 -0.040547 255 125 0
-0.219344 0.125117 -0.121488 255 125 0
-0.201736 0.102981 -0.021528 255 125 0
-0.174958 0.090669 -0.040547 255 125 0
-0.159085 0.118251 -0.002547 255 125 0
-0.213560 0.114393 -0.048547 255 125 0
-0.155156 0.109752 -0.098547 255 125 0
-0.151839 0.116912 -0.018547 255 125 0
-0.219620 0.105019 -0.111939 255 125 0
-0.153217 0.122469 -0.116547 255 125 0
-0.151701 0.125462 -0.082547 255 125 0
-0.206235 0.098828 -0.008547 255 125 0
-0.165816 0.153238 -0.009512 255 125 0
-0.193358 0.088172 -0.068547 255 125 0
-0.221120 0.111229 -0.056547 255 125 0
-0.218175 0.129009 -0.010547 255 125 0
-0.193912 0.136310 -0.011518 255 125 0
-0.158874 0.108163 -0.012961 255 125 0
-0.166042 0.151255 -0.026547 255 125 0
-0.207471 0.105648 -0.095523 255 125 0
-0.214859 0.120580 -0.018547 255 125 0
-0.174771 0.109974 -0.129535 255 125 0
-0.215299 0.116605 -0.088547 255 125 0
-0.198293 0.150869 -0.000547 255 125 0
-0.154322 0.111669 -0.084547 255 125 0
-0.219816 0.131209 -0.098547 255 125 0
-0.179991 0.099491 -0.024547 255 125 0
-0.170461 0.112468 -0.008547 255 125 0
-0.158679 0.104114 -0.056547 255 125 0
-0.199975 0.100768 -0.061530 255 125 0
-0.214660 0.146726 -0.004547 255 125 0
-0.188166 0.098413 -0.092547 255 125 0
-0.168520 0.094166 -0.066547 255 125 0
-0.223019 0.117484 -0.106547 255 125 0
-0.205601 0.104397 -0.042547 255 125 0
-0.169941 0.099359 -0.008647 255 125 0
-0.177739 0.154597 -0.011505 255 125 0
-0.174953 0.090707 -0.078547 255 125 0
-0.193310 0.088592 -0.096547 255 125 0
-0.175984 0.089982 -0.092547 255 125 0
-0.183245 0.088596 -0.054547 255 125 0
-0.221823 0.131438 -0.068547 255 125 0
-0.219224 0.108493 -0.034547 255 125 0
-0.193284 0.124161 -0.013518 255 125 0
-0.193409 0.158395 -0.011516 255 125 0
-0.152733 0.126730 -0.102547 255 125 0
-0.181084 0.142900 -0.005750 255 125 0
-0.213548 0.114392 -0.074547 255 125 0
-0.214691 0.100431 -0.028547 255 125 0
-0.210992 0.110074 -0.021538 255 125 0
-0.195320 0.088627 -0.036547 255 125 0
-0.166365 0.139210 -0.004547 255 125 0
-0.158526 0.136304 -0.024547 255 125 0
-0.165767 0.108948 -0.074547 255 125 0
-0.175791 0.101018 -0.108547 255 125 0
-0.171592 0.102538 -0.052547 255 125 0
-0.219516 0.133188 -0.046547 255 125 0
-0.163360 0.112700 -0.062547 255 125 0
-0.163173 0.098588 -0.018547 255 125 0
-0.177013 0.090298 -0.028547 255 125 0
-0.204152 0.117113 -0.004547 255 125 0
-0.197234 0.089490 -0.046547 255 125 0
-0.168456 0.094732 -0.102547 255 125 0
-0.183927 0.153288 -0.001894 255 125 0
-0.197225 0.089571 -0.026547 255 125 0
-0.208049 0.135907 -0.009235 255 125 0
-0.186183 0.098150 -0.120547 255 125 0
-0.186559 0.094849 -0.000547 255 125 0
-0.178007 0.099240 -0.064547 255 125 0
-0.170446 0.103442 -0.088547 255 125 0
-0.199105 0.090734 -0.076547 255 125 0
-0.153545 0.125671 -0.072547 255 125 0
-0.193064 0.142252 -0.002547 255 125 0
-0.166324 0.095778 -0.038547 255 125 0
-0.219519 0.141241 -0.037557 255 125 0
-0.217860 0.102806 -0.080840 255 125 0
-0.206852 0.093416 -0.114547 255 125 0
-0.155018 0.111749 -0.032547 255 125 0
-0.180630 0.102589 -0.014547 255 125 0
-0.201283 0.106956 -0.003799 255 125 0
-0.189326 0.088227 -0.018547 255 125 0
-0.154686 0.109698 -0.046547 255 125 0
-0.172522 0.165049 -0.028547 255 125 0
-0.222355 0.121434 -0.028547 255 125 0
-0.190154 0.098625 -0.046547 255 125 0
-0.163137 0.114687 -0.114547 255 125 0
-0.159617 0.119306 -0.124547 255 125 0
