ply
format ascii 1.0
element vertex 1284
property float x
property float y
property float z
property uchar red
property uchar green
property uchar blue
end_header
-0.537286 1.370304 0.053458 0 255 0
-0.540571 1.199249 0.044670 0 255 0
-0.572006 1.402220 0.049458 0 255 0
-0.578327 1.223632 0.061891 0 255 0
-0.576686 1.240972 0.055458 0 255 0
-0.571666 1.209948 0.057458 0 255 0
-0.565041 1.357801 0.049458 0 255 0
-0.570930 1.195478 0.049458 0 255 0
-0.542965 1.173177 0.047458 0 255 0
-0.532674 1.279358 0.047458 0 255 0
-0.562364 1.327592 0.049458 0 255 0
-0.578079 1.195940 0.061458 0 255 0
-0.557271 1.245737 0.048546 0 255 0
-0.533744 1.346805 0.053458 0 255 0
-0.552046 1.312101 0.055458 0 255 0
-0.566249 1.184260 0.046585 0 255 0
-0.531244 1.387422 0.054007 0 255 0
-0.572949 1.181595 0.061990 0 255 0
-0.574160 1.406767 0.056931 0 255 0
-0.541366 1.426377 0.046468 0 255 0
-0.530535 1.381137 0.046487 0 255 0
-0.565994 1.286440 0.049458 0 255 0
-0.525554 1.241040 0.050183 0 255 0
-0.555472 1.215720 0.049458 0 255 0
-0.541905 1.414224 0.052049 0 255 0
-0.576702 1.423665 0.052235 0 255 0
-0.539233 1.223501 0.051458 0 255 0
-0.535601 1.318829 0.046509 0 255 0
-0.578232 1.166360 0.048277 0 255 0
-0.546997 1.202659 0.047458 0 255 0
-0.571119 1.382596 0.049458 0 255 0
-0.563084 1.381921 0.048698 0 255 0
-0.572804 1.218368 0.059458 0 255 0
-0.545551 1.218709 0.047458 0 255 0
-0.578369 1.254311 0.053458 0 255 0
-0.576660 1.409343 0.049458 0 255 0
-0.558842 1.296064 0.049458 0 255 0
-0.532227 1.305843 0.050295 0 255 0
-0.557726 1.339789 0.057458 0 255 0
-0.553651 1.253146 0.048534 0 255 0
-0.560834 1.373264 0.056361 0 255 0
-0.571047 1.426552 0.049458 0 255 0
-0.546912 1.246375 0.045458 0 255 0
-0.563813 1.169429 0.061458 0 255 0
-0.537769 1.212966 0.055458 0 255 0
-0.545182 1.230899 0.045458 0 255 0
-0.552234 1.240577 0.056008 0 255 0
-0.554500 1.224701 0.049458 0 255 0
-0.536526 1.175898 0.045458 0 255 0
-0.548784 1.266424 0.057988 0 255 0
-0.575228 1.233196 0.055458 0 255 0
-0.567460 1.317422 0.051458 0 255 0
-0.533138 1.171088 0.057458 0 255 0
-0.554653 1.267672 0.048520 0 255 0
-0.564900 1.173750 0.053458 0 255 0
-0.540912 1.236126 0.055634 0 255 0
-0.558371 1.336755 0.045458 0 255 0
-0.570786 1.393782 0.044478 0 255 0
-0.557240 1.231417 0.049458 0 255 0
-0.539231 1.399343 0.053458 0 255 0
-0.548522 1.288860 0.053458 0 255 0
-0.532766 1.293690 0.050308 0 255 0
-0.535790 1.433371 0.053666 0 255 0
-0.553576 1.291979 0.044656 0 255 0
-0.557318 1.274372 0.055936 0 255 0
-0.547574 1.206871 0.055458 0 255 0
-0.574453 1.415008 0.046575 0 255 0
-0.568486 1.370802 0.049458 0 255 0
-0.574714 1.228998 0.061458 0 255 0
-0.577754 1.182616 0.047458 0 255 0
-0.557611 1.282613 0.048485 0 255 0
-0.548519 1.190715 0.052430 0 255 0
-0.540799 1.356738 0.047458 0 255 0
-0.566070 1.329394 0.054406 0 255 0
-0.578394 1.396468 0.049458 0 255 0
-0.555787 1.329253 0.057458 0 255 0
-0.572831 1.396261 0.055458 0 255 0
-0.578232 1.166360 0.061659 0 255 0
-0.565872 1.378425 0.058536 0 255 0
-0.558415 1.346169 0.049172 0 255 0
-0.577754 1.254180 0.061458 0 255 0
-0.578548 1.242081 0.049458 0 255 0
-0.526727 1.274004 0.044459 0 255 0
-0.533125 1.426670 0.053994 0 255 0
-0.531150 1.330150 0.053681 0 255 0
-0.543652 1.179457 0.049458 0 255 0
-0.565326 1.342515 0.049458 0 255 0
-0.525839 1.412854 0.053872 0 255 0
-0.540987 1.197293 0.058682 0 255 0
-0.525574 1.337144 0.054061 0 255 0
-0.526433 1.265763 0.051996 0 255 0
-0.528825 1.360327 0.054264 0 255 0
-0.525593 1.433248 0.046524 0 255 0
-0.562696 1.316409 0.055869 0 255 0
-0.542614 1.420509 0.052032 0 255 0
-0.531953 1.393706 0.054357 0 255 0
-0.532416 1.420386 0.046510 0 255 0
-0.487941 1.302564 0.052917 255 0 0
-0.546047 1.510170 0.047458 255 0 0
-0.484441 1.415225 0.045458 255 0 0
-0.523752 1.211044 0.047458 255 0 0
-0.547197 1.441930 0.047458 255 0 0
-0.524912 1.359495 0.046491 255 0 0
-0.465519 1.240547 0.045458 255 0 0
-0.490400 1.478929 0.045458 255 0 0
-0.524683 1.264377 0.045458 255 0 0
-0.478072 1.355673 0.049458 255 0 0
-0.524005 1.402240 0.054187 255 0 0
-0.525195 1.319686 0.045458 255 0 0
-0.508988 1.444032 0.054041 255 0 0
-0.528598 1.476825 0.054323 255 0 0
-0.508740 1.512533 0.047458 255 0 0
-0.489461 1.266552 0.053458 255 0 0
-0.489804 1.216841 0.053458 255 0 0
-0.495199 1.383849 0.053724 255 0 0
-0.478053 1.449724 0.055458 255 0 0
-0.498186 1.331323 0.053359 255 0 0
-0.511860 1.238129 0.054060 255 0 0
-0.516699 1.292319 0.054228 255 0 0
-0.470471 1.284538 0.045458 255 0 0
-0.553041 1.482021 0.047458 255 0 0
-0.524884 1.426963 0.046519 255 0 0
-0.502146 1.360790 0.053824 255 0 0
-0.488405 1.242665 0.053458 255 0 0
-0.467079 1.217942 0.049458 255 0 0
-0.509622 1.489149 0.053734 255 0 0
-0.477914 1.320880 0.044606 255 0 0
-0.529260 1.454474 0.053630 255 0 0
-0.508327 1.466382 0.053543 255 0 0
-0.518382 1.380598 0.054093 255 0 0
-0.505028 1.414564 0.053728 255 0 0
-0.518873 1.339809 0.054316 255 0 0
-0.467855 1.262390 0.045458 255 0 0
-0.528353 1.497220 0.046493 255 0 0
-0.505271 1.312382 0.045458 255 0 0
-0.495812 1.284775 0.045458 255 0 0
-0.489316 1.435761 0.045458 255 0 0
-0.505952 1.256308 0.045458 255 0 0
-0.547991 1.462545 0.050260 255 0 0
-0.493432 1.497976 0.046543 255 0 0
-0.479897 1.374463 0.045458 255 0 0
-0.492552 1.458940 0.045458 255 0 0
-0.506607 1.397518 0.045458 255 0 0
-0.510244 1.274590 0.053756 255 0 0
-0.482382 1.397483 0.051458 255 0 0
-0.506237 1.216487 0.044701 255 0 0
-0.480456 1.337777 0.052677 255 0 0
-0.493884 1.346766 0.045458 255 0 0
-0.523935 1.229421 0.045458 255 0 0
-0.543294 1.494262 0.054173 255 0 0
-0.506987 1.429293 0.045458 255 0 0
-0.524307 1.246909 0.046540 255 0 0
-0.497996 1.231093 0.045458 255 0 0
-0.473415 1.303566 0.044604 255 0 0
-0.476587 1.230926 0.053458 255 0 0
-0.523312 1.280448 0.045458 255 0 0
-0.512002 1.324036 0.053872 255 0 0
-0.523986 1.306136 0.053986 255 0 0
-0.504538 1.373566 0.045458 255 0 0
-0.509516 1.350088 0.045458 255 0 0
-0.474445 1.250623 0.052967 255 0 0
-0.502882 1.299606 0.053703 255 0 0
-0.490899 1.317506 0.053619 255 0 0
-0.532171 1.440780 0.046511 255 0 0
-0.483026 1.287207 0.052877 255 0 0
-0.523294 1.511403 0.049458 255 0 0
-0.479127 1.464265 0.053458 255 0 0
-0.517598 1.413147 0.046522 255 0 0
-0.516029 1.478243 0.046528 255 0 0
-0.516691 1.455892 0.046485 255 0 0
-0.475740 1.273390 0.052993 255 0 0
-0.494708 1.424639 0.053186 255 0 0
-0.490528 1.362410 0.045458 255 0 0
-0.494954 1.404244 0.053283 255 0 0
-0.515187 1.222479 0.054207 255 0 0
-0.494047 1.446990 0.052497 255 0 0
-0.539627 1.473036 0.046473 255 0 0
-0.515424 1.365657 0.054319 255 0 0
-0.524544 1.390087 0.046508 255 0 0
-0.516359 1.255443 0.054014 255 0 0
-0.515202 1.501372 0.053458 255 0 0
-0.500333 1.268394 0.045458 255 0 0
-0.526765 1.466212 0.046485 255 0 0
-0.501775 1.477965 0.053458 255 0 0
-0.508935 1.333607 0.045458 255 0 0
-0.495964 1.255197 0.053901 255 0 0
-0.479142 1.218907 0.044617 255 0 0
-0.514410 1.303090 0.045458 255 0 0
-0.508712 1.286532 0.045458 255 0 0
-0.539873 1.452641 0.046488 255 0 0
-0.500210 1.244843 0.045458 255 0 0
-0.518892 1.435913 0.053506 255 0 0
-0.503986 1.453192 0.045458 255 0 0
-0.552660 1.498297 0.046486 255 0 0
-0.535700 1.486513 0.047458 255 0 0
-0.522191 1.487731 0.054438 255 0 0
-0.515519 1.422928 0.054268 255 0 0
-0.503932 1.342767 0.054053 255 0 0
-0.525281 1.328903 0.053823 255 0 0
-0.534515 1.506708 0.052084 255 0 0
-0.505795 1.497533 0.045458 255 0 0
-0.508478 1.388717 0.053893 255 0 0
-0.482375 1.385213 0.051458 255 0 0
-0.489453 1.372405 0.052704 255 0 0
-0.524374 1.371649 0.046515 255 0 0
-0.497015 1.509978 0.045458 255 0 0
-0.518334 1.351963 0.054300 255 0 0
-0.502618 1.223896 0.054077 255 0 0
-0.489217 1.229227 0.053613 255 0 0
-0.510599 1.229682 0.045458 255 0 0
-0.464493 1.230106 0.051515 255 0 0
-0.491429 1.468925 0.052146 255 0 0
-0.500585 1.435467 0.053458 255 0 0
-0.493555 1.487779 0.052756 255 0 0
-0.496586 1.415803 0.045458 255 0 0
-0.497675 1.276008 0.053941 255 0 0
-0.479993 1.311098 0.052572 255 0 0
-0.478235 1.261652 0.052831 255 0 0
-0.535006 1.465919 0.054649 255 0 0
-0.476837 1.345187 0.044592 255 0 0
-0.495259 1.296994 0.045458 255 0 0
-0.511436 1.403658 0.053840 255 0 0
-0.506455 1.263561 0.054297 255 0 0
-0.522814 1.273172 0.054245 255 0 0
-0.524668 1.298103 0.045458 255 0 0
-0.500058 1.322513 0.045458 255 0 0
-0.543833 1.482108 0.054111 255 0 0
-0.521142 1.444570 0.046531 255 0 0
-0.473538 1.293369 0.052474 255 0 0
-0.514497 1.312298 0.053784 255 0 0
-0.489283 1.353966 0.052849 255 0 0
-0.513112 1.246574 0.045458 255 0 0
-0.502006 1.486498 0.045458 255 0 0
-0.518007 1.492976 0.045458 255 0 0
-0.505453 1.249035 0.054315 255 0 0
-0.525007 1.416766 0.053972 255 0 0
-0.510175 1.361491 0.045458 255 0 0
-0.513653 1.268173 0.045458 255 0 0
-0.537208 1.445940 0.054703 255 0 0
-0.499707 1.237591 0.054048 255 0 0
-0.482951 1.326040 0.052764 255 0 0
-0.499872 1.467679 0.045458 255 0 0
-0.502018 1.385299 0.045458 255 0 0
-0.502124 1.442572 0.045458 255 0 0
-0.501049 1.288993 0.054070 255 0 0
-0.519649 1.470834 0.054010 255 0 0
-0.496891 1.308556 0.053961 255 0 0
-0.521097 1.334148 0.045458 255 0 0
-0.484869 1.252839 0.053458 255 0 0
-0.523910 1.344969 0.046519 255 0 0
-0.480503 1.366413 0.052307 255 0 0
-0.468160 1.251332 0.044592 255 0 0
-0.499377 1.460391 0.053256 255 0 0
-0.522304 1.238304 0.053458 255 0 0
-0.499036 1.394656 0.053458 255 0 0
-0.487432 1.425137 0.045458 255 0 0
-0.492194 1.340272 0.053305 255 0 0
-0.511044 1.213110 0.053458 255 0 0
-0.507270 1.408907 0.045458 255 0 0
-0.502382 1.503968 0.052640 255 0 0
-0.550040 1.472146 0.047458 255 0 0
-0.487062 1.277841 0.052977 255 0 0
-0.517843 1.392752 0.053911 255 0 0
-0.486827 1.447500 0.045458 255 0 0
-0.495405 1.219351 0.045458 255 0 0
-0.478481 1.241257 0.053029 255 0 0
-0.508600 1.378519 0.053516 255 0 0
-0.525395 1.482278 0.046564 255 0 0
-0.516822 1.282122 0.054012 255 0 0
-0.521728 1.461052 0.053885 255 0 0
-0.514998 1.319563 0.045458 255 0 0
-0.504526 1.277464 0.045458 255 0 0
-0.510065 1.419724 0.046548 255 0 0
-0.540091 1.499715 0.046463 255 0 0
-0.499267 1.355094 0.045458 255 0 0
-0.503980 1.318241 0.053458 255 0 0
-0.515178 1.386051 0.046510 255 0 0
-0.512192 1.438578 0.046487 255 0 0
-0.499235 1.374484 0.053709 255 0 0
-0.490502 1.415566 0.053189 255 0 0
-0.514176 1.371526 0.046562 255 0 0
-0.521075 1.319830 0.054262 255 0 0
-0.518136 1.400993 0.046554 255 0 0
-0.490602 1.261185 0.045458 255 0 0
-0.508450 1.456185 0.053524 255 0 0
-0.506460 1.475164 0.045458 255 0 0
-0.518893 1.219177 0.045458 255 0 0
-0.469680 1.273040 0.045458 255 0 0
-0.525149 1.502673 0.053781 255 0 0
-0.483925 1.408034 0.051825 255 0 0
-0.517176 1.237214 0.045458 255 0 0
-0.499106 1.336613 0.045458 255 0 0
-0.516236 1.265640 0.054295 255 0 0
-0.531557 1.491767 0.054253 255 0 0
-0.519277 1.289814 0.045458 255 0 0
-0.546498 1.488809 0.046488 255 0 0
-0.547500 1.503334 0.053840 255 0 0
-0.497583 1.430352 0.045458 255 0 0
-0.505065 1.424009 0.053458 255 0 0
-0.514611 1.465674 0.046546 255 0 0
-0.549853 1.453785 0.047458 255 0 0
-0.519894 1.450439 0.053701 255 0 0
-0.537794 1.462422 0.046488 255 0 0
-0.480667 1.221352 0.053458 255 0 0
-0.520478 1.255303 0.045458 255 0 0
-0.498942 1.366243 0.046607 255 0 0
-0.520782 1.311589 0.046543 255 0 0
-0.512664 1.301685 0.054351 255 0 0
-0.543956 1.471911 0.054435 255 0 0
-0.508137 1.351840 0.054303 255 0 0
-0.491976 1.293198 0.053037 255 0 0
-0.507735 1.238299 0.045458 255 0 0
-0.527171 1.443807 0.053458 255 0 0
-0.505877 1.295139 0.045458 255 0 0
-0.509527 1.431878 0.053936 255 0 0
-0.494358 1.305973 0.045458 255 0 0
-0.493404 1.252608 0.045458 255 0 0
-0.469653 1.225068 0.044598 255 0 0
-0.500368 1.215240 0.053223 255 0 0
-0.514545 1.340934 0.046525 255 0 0
-0.489623 1.390843 0.052947 255 0 0
-0.488471 1.453983 0.051759 255 0 0
-0.498356 1.349761 0.053453 255 0 0
-0.495870 1.375813 0.045458 255 0 0
-0.511880 1.334233 0.054073 255 0 0
-0.525356 1.290070 0.054109 255 0 0
-0.482705 1.346434 0.052604 255 0 0
-0.516227 1.429213 0.046518 255 0 0
-0.540582 1.458926 0.054561 255 0 0
-0.503041 1.303729 0.045458 255 0 0
-0.511307 1.475195 0.053458 255 0 0
-0.516076 1.506879 0.046519 255 0 0
-0.525130 1.406569 0.046515 255 0 0
-0.487053 1.441414 0.051906 255 0 0
-0.499080 1.404070 0.045458 255 0 0
-0.487176 1.431216 0.052634 255 0 0
-0.509611 1.229472 0.054122 255 0 0
-0.506619 1.308579 0.053458 255 0 0
-0.523541 1.261059 0.053458 255 0 0
-0.518429 1.409234 0.054182 255 0 0
-0.506224 1.461846 0.045458 255 0 0
-0.514110 1.246786 0.054018 255 0 0
-0.513325 1.279334 0.046562 255 0 0
-0.511415 1.485441 0.045458 255 0 0
-0.525205 1.367736 0.054117 255 0 0
-0.506090 1.342231 0.045458 255 0 0
-0.519877 1.229610 0.053458 255 0 0
-0.484362 1.391769 0.045458 255 0 0
-0.467329 1.255245 0.052448 255 0 0
-0.471119 1.266274 0.052399 255 0 0
-0.478159 1.300485 0.052844 255 0 0
-0.502505 1.493770 0.053425 255 0 0
-0.506351 1.369862 0.053529 255 0 0
-0.508165 1.284371 0.053920 255 0 0
-0.487572 1.333156 0.053195 255 0 0
-0.522295 1.381430 0.046498 255 0 0
-0.512069 1.448776 0.046540 255 0 0
-0.469824 1.243507 0.053071 255 0 0
-0.532511 1.477657 0.046519 255 0 0
-0.525763 1.451686 0.046503 255 0 0
-0.497798 1.265810 0.053946 255 0 0
-0.536178 1.498883 0.054586 255 0 0
-0.493489 1.363039 0.053268 255 0 0
-0.544342 1.451546 0.053458 255 0 0
-0.503516 1.406064 0.053458 255 0 0
-0.501456 1.450609 0.053275 255 0 0
-0.523475 1.250821 0.053768 255 0 0
-0.476033 1.281631 0.052528 255 0 0
-0.488003 1.215699 0.045458 255 0 0
-0.536839 1.476532 0.054029 255 0 0
-0.525149 1.281847 0.053458 255 0 0
-0.519942 1.479075 0.053764 255 0 0
-0.491683 1.284957 0.053251 255 0 0
-0.523145 1.473622 0.046507 255 0 0
-0.525177 1.435204 0.046530 255 0 0
-0.491192 1.325747 0.053600 255 0 0
-0.477621 1.312639 0.044598 255 0 0
-0.517503 1.355875 0.046550 255 0 0
-0.495671 1.246956 0.053890 255 0 0
-0.530385 1.458803 0.046529 255 0 0
-0.508458 1.292612 0.054170 255 0 0
-0.501199 1.422960 0.045458 255 0 0
-0.519022 1.215115 0.053458 255 0 0
-0.525300 1.425007 0.054486 255 0 0
-0.528646 1.505461 0.046514 255 0 0
-0.507674 1.325161 0.046571 255 0 0
-0.517796 1.364116 0.046530 255 0 0
-0.498500 1.478606 0.045458 255 0 0
-0.503579 1.224101 0.045458 255 0 0
-0.539580 1.444400 0.046494 255 0 0
-0.472026 1.223528 0.052488 255 0 0
-0.511757 1.344431 0.053667 255 0 0
-0.478330 1.318923 0.052504 255 0 0
-0.523693 1.297895 0.054087 255 0 0
-0.506814 1.396542 0.053960 255 0 0
-0.517891 1.421388 0.046512 255 0 0
-0.482247 1.362694 0.045458 255 0 0
-0.523027 1.272171 0.045458 255 0 0
-0.499670 1.468632 0.053347 255 0 0
-0.493262 1.479538 0.052841 255 0 0
-0.515083 1.328780 0.046546 255 0 0
-0.520528 1.495557 0.053487 255 0 0
-0.544249 1.480152 0.046485 255 0 0
-0.513515 1.393877 0.046497 255 0 0
-0.552953 1.506538 0.048435 255 0 0
-0.515310 1.212282 0.046561 255 0 0
-0.525328 1.357539 0.054072 255 0 0
-0.524960 1.388131 0.054081 255 0 0
-0.533220 1.483942 0.054389 255 0 0
-0.473954 1.291412 0.044590 255 0 0
-0.484228 1.401964 0.045458 255 0 0
-0.509812 1.360375 0.053458 255 0 0
-0.502084 1.486130 0.053458 255 0 0
-0.505039 1.327939 0.053458 255 0 0
-0.494079 1.489935 0.045458 255 0 0
-0.507290 1.505011 0.045458 255 0 0
-0.512184 1.260690 0.045458 255 0 0
-0.483966 1.234690 0.053458 255 0 0
-0.482337 1.377026 0.052145 255 0 0
-0.525007 1.416766 0.046509 255 0 0
-0.485259 1.420585 0.051458 255 0 0
-0.542559 1.440944 0.053458 255 0 0
-0.513911 1.295816 0.046560 255 0 0
-0.513517 1.312090 0.045458 255 0 0
-0.494880 1.299950 0.053458 255 0 0
-0.524430 1.236712 0.046544 255 0 0
-0.494792 1.222233 0.053755 255 0 0
-0.524180 1.222346 0.049458 255 0 0
-0.489917 1.399084 0.052284 255 0 0
-0.550021 1.493647 0.051458 255 0 0
-0.498328 1.417229 0.052933 255 0 0
-0.469531 1.235266 0.052288 255 0 0
-0.485663 1.361376 0.053075 255 0 0
-0.491136 1.460684 0.052436 255 0 0
-0.513760 1.373482 0.054189 255 0 0
-0.510557 1.378935 0.046556 255 0 0
-0.513269 1.414271 0.053661 255 0 0
-0.523542 1.375561 0.053583 255 0 0
-0.523910 1.344969 0.053827 255 0 0
-0.488234 1.310805 0.053163 255 0 0
-0.517229 1.443738 0.054117 255 0 0
-0.482441 1.270725 0.053396 255 0 0
-0.526765 1.466212 0.054273 255 0 0
-0.514782 1.484112 0.054148 255 0 0
-0.513487 1.461345 0.053913 255 0 0
-0.493754 1.438749 0.052266 255 0 0
-0.508118 1.255736 0.053954 255 0 0
-0.507542 1.498931 0.053074 255 0 0
-0.491994 1.442464 0.045458 255 0 0
-0.497042 1.230890 0.053857 255 0 0
-0.483319 1.295448 0.052673 255 0 0
-0.502835 1.270970 0.054108 255 0 0
-0.497893 1.323082 0.053705 255 0 0
-0.525688 1.490519 0.046559 255 0 0
-0.518580 1.331568 0.053910 255 0 0
-0.521236 1.501841 0.046542 255 0 0
-0.524837 1.398328 0.046509 255 0 0
-0.521784 1.326115 0.046528 255 0 0
-0.518694 1.484944 0.046543 255 0 0
-0.513411 1.500178 0.046506 255 0 0
-0.532464 1.449021 0.046507 255 0 0
-0.503440 1.383557 0.053858 255 0 0
-0.470873 1.286668 0.052446 255 0 0
-0.491882 1.235927 0.053776 255 0 0
-0.538257 1.489102 0.054140 255 0 0
-0.508478 1.388717 0.046537 255 0 0
-0.521728 1.461052 0.046505 255 0 0
-0.535053 1.494555 0.046519 255 0 0
-0.517210 1.347634 0.046514 255 0 0
-0.484904 1.379616 0.045458 255 0 0
-0.538011 1.509496 0.046472 255 0 0
-0.499796 1.501373 0.045458 255 0 0
-0.494084 1.422461 0.045458 255 0 0
-0.490811 1.471831 0.045458 255 0 0
-0.501987 1.289192 0.045458 255 0 0
-0.511073 1.222597 0.045458 255 0 0
-0.499939 1.395080 0.045458 255 0 0
-0.501700 1.348427 0.045458 255 0 0
-0.496325 1.238916 0.045458 255 0 0
-0.507009 1.265724 0.045458 255 0 0
-0.510951 1.492511 0.045458 255 0 0
-0.460159 1.409116 0.061458 0 255 255
-0.373774 1.310606 0.053458 0 255 255
-0.375312 1.486139 0.051458 0 255 255
-0.477744 1.302441 0.052920 0 255 255
-0.362136 1.398504 0.057458 0 255 255
-0.455354 1.484734 0.055458 0 255 255
-0.428931 1.349317 0.061396 0 255 255
-0.408263 1.436934 0.054568 0 255 255
-0.477786 1.355612 0.045458 0 255 255
-0.426917 1.301077 0.055458 0 255 255
-0.382566 1.355819 0.061672 0 255 255
-0.411958 1.390692 0.052525 0 255 255
-0.477341 1.448627 0.055458 0 255 255
-0.414667 1.479189 0.061458 0 255 255
-0.361973 1.452703 0.065458 0 255 255
-0.441377 1.450107 0.061458 0 255 255
-0.447417 1.377782 0.052496 0 255 255
-0.452359 1.325671 0.052525 0 255 255
-0.402497 1.329385 0.052500 0 255 255
-0.377010 1.428247 0.049458 0 255 255
-0.429319 1.414829 0.061085 0 255 255
-0.384246 1.458410 0.045458 0 255 255
-0.384985 1.382914 0.052487 0 255 255
-0.393690 1.409301 0.061032 0 255 255
-0.474155 1.381421 0.055458 0 255 255
-0.455958 1.350972 0.061458 0 255 255
-0.407582 1.363181 0.052488 0 255 255
-0.372428 1.336178 0.045458 0 255 255
-0.401618 1.304662 0.060943 0 255 255
-0.362130 1.369877 0.055458 0 255 255
-0.477791 1.331077 0.052294 0 255 255
-0.458124 1.433220 0.052467 0 255 255
-0.451564 1.300553 0.055458 0 255 255
-0.427636 1.326550 0.052480 0 255 255
-0.401571 1.458798 0.061458 0 255 255
-0.475420 1.471656 0.055458 0 255 255
-0.435698 1.471392 0.054597 0 255 255
-0.425670 1.374278 0.061458 0 255 255
-0.442843 1.399302 0.052474 0 255 255
-0.377843 1.406898 0.045458 0 255 255
-0.393086 1.479476 0.061458 0 255 255
-0.384971 1.444252 0.061458 0 255 255
-0.420586 1.455911 0.052477 0 255 255
-0.374592 1.470291 0.065458 0 255 255
-0.457208 1.461651 0.053458 0 255 255
-0.429285 1.434226 0.053458 0 255 255
-0.475595 1.422621 0.055458 0 255 255
-0.383985 1.327495 0.061458 0 255 255
-0.412323 1.312016 0.045458 0 255 255
-0.410464 1.416956 0.052468 0 255 255
-0.391511 1.313735 0.045458 0 255 255
-0.400711 1.347408 0.061690 0 255 255
-0.377486 1.364963 0.045458 0 255 255
-0.467807 1.397287 0.047458 0 255 255
-0.363391 1.417173 0.056436 0 255 255
-0.445931 1.418360 0.053458 0 255 255
-0.438372 1.314519 0.061679 0 255 255
-0.463050 1.366793 0.053458 0 255 255
-0.441870 1.360246 0.053458 0 255 255
-0.393860 1.427739 0.061364 0 255 255
-0.400343 1.378000 0.061208 0 255 255
-0.427192 1.395975 0.061241 0 255 255
-0.459238 1.389505 0.061458 0 255 255
-0.442748 1.342030 0.052500 0 255 255
-0.379702 1.398149 0.061500 0 255 255
-0.467450 1.316611 0.055458 0 255 255
-0.416484 1.340537 0.052463 0 255 255
-0.362068 1.461875 0.050577 0 255 255
-0.368995 1.342711 0.061203 0 255 255
-0.414774 1.319727 0.061428 0 255 255
-0.438649 1.308444 0.045458 0 255 255
-0.463122 1.338182 0.047458 0 255 255
-0.367157 1.325963 0.059458 0 255 255
-0.387433 1.342541 0.052471 0 255 255
-0.443882 1.432888 0.061458 0 255 255
-0.459225 1.447283 0.061458 0 255 255
-0.428459 1.486210 0.054520 0 255 255
-0.377283 1.371054 0.060979 0 255 255
-0.396600 1.395607 0.052469 0 255 255
-0.378332 1.414215 0.061180 0 255 255
-0.387344 1.311852 0.061458 0 255 255
-0.456226 1.312180 0.045458 0 255 255
-0.413092 1.404595 0.061458 0 255 255
-0.380336 1.443266 0.046707 0 255 255
-0.392224 1.368096 0.052494 0 255 255
-0.405106 1.471023 0.052467 0 255 255
-0.470550 1.435861 0.061458 0 255 255
-0.371244 1.351368 0.048820 0 255 255
-0.418583 1.426860 0.061457 0 255 255
-0.422523 1.360223 0.052490 0 255 255
-0.386657 1.461624 0.061458 0 255 255
-0.439123 1.330226 0.061458 0 255 255
-0.403948 1.486092 0.053458 0 255 255
-0.433812 1.384069 0.053458 0 255 255
-0.448943 1.472162 0.061458 0 255 255
-0.461268 1.333699 0.061458 0 255 255
-0.421125 1.443758 0.061331 0 255 255
-0.372135 1.385654 0.059458 0 255 255
-0.397942 1.447009 0.052465 0 255 255
-0.474613 1.408099 0.055458 0 255 255
-0.469016 1.458936 0.061458 0 255 255
-0.469304 1.351764 0.056306 0 255 255
-0.376854 1.392309 0.045458 0 255 255
-0.452898 1.313518 0.061273 0 255 255
-0.413989 1.352275 0.061032 0 255 255
-0.379992 1.483363 0.065458 0 255 255
-0.412912 1.376582 0.052490 0 255 255
-0.422242 1.467359 0.061458 0 255 255
-0.400664 1.318772 0.061371 0 255 255
-0.462160 1.423854 0.061927 0 255 255
-0.451507 1.368160 0.061458 0 255 255
-0.470905 1.430808 0.045458 0 255 255
-0.381924 1.474274 0.054533 0 255 255
-0.373075 1.378338 0.047458 0 255 255
-0.463298 1.473169 0.061458 0 255 255
-0.369240 1.322316 0.046568 0 255 255
-0.368833 1.473536 0.051458 0 255 255
-0.425644 1.311814 0.047458 0 255 255
-0.423157 1.405341 0.052475 0 255 255
-0.444112 1.387303 0.061458 0 255 255
-0.441286 1.483582 0.057458 0 255 255
-0.449761 1.443710 0.052486 0 255 255
-0.415728 1.305617 0.061283 0 255 255
-0.387698 1.418250 0.052502 0 255 255
-0.369735 1.359226 0.059458 0 255 255
-0.425557 1.336332 0.061211 0 255 255
-0.394247 1.335810 0.061458 0 255 255
-0.444062 1.460901 0.054570 0 255 255
-0.475050 1.320271 0.045458 0 255 255
-0.438467 1.371791 0.061170 0 255 255
-0.463220 1.377052 0.061458 0 255 255
-0.379006 1.432760 0.061458 0 255 255
-0.439228 1.300871 0.059458 0 255 255
-0.397800 1.361102 0.061795 0 255 255
-0.432031 1.450165 0.052487 0 255 255
-0.440763 1.409083 0.061106 0 255 255
-0.455977 1.400049 0.053458 0 255 255
-0.377811 1.452953 0.055458 0 255 255
-0.476586 1.343089 0.047458 0 255 255
-0.401346 1.305943 0.047458 0 255 255
-0.469938 1.396882 0.059899 0 255 255
-0.388284 1.434732 0.052469 0 255 255
-0.393179 1.353986 0.052493 0 255 255
-0.389571 1.390200 0.061458 0 255 255
-0.417533 1.383699 0.061568 0 255 255
-0.409491 1.334961 0.061078 0 255 255
-0.402346 1.407051 0.052517 0 255 255
-0.409680 1.449504 0.061298 0 255 255
-0.426236 1.311940 0.061458 0 255 255
-0.433965 1.460305 0.061458 0 255 255
-0.406429 1.426321 0.061379 0 255 255
-0.430349 1.361886 0.061642 0 255 255
-0.415067 1.327968 0.052504 0 255 255
-0.466243 1.443124 0.052475 0 255 255
-0.414991 1.366801 0.061348 0 255 255
-0.394200 1.464616 0.052485 0 255 255
-0.404841 1.395314 0.061282 0 255 255
-0.441085 1.349856 0.061499 0 255 255
-0.398635 1.438977 0.061458 0 255 255
-0.388605 1.375505 0.061531 0 255 255
-0.422202 1.419451 0.052486 0 255 255
-0.449864 1.337409 0.061267 0 255 255
-0.433728 1.422944 0.053458 0 255 255
-0.465779 1.416445 0.052481 0 255 255
-0.382225 1.318943 0.052493 0 255 255
-0.424669 1.475181 0.052467 0 255 255
-0.453531 1.358635 0.052470 0 255 255
-0.382953 1.305899 0.047458 0 255 255
-0.386696 1.403725 0.052516 0 255 255
-0.473325 1.457903 0.049458 0 255 255
-0.364616 1.464461 0.063458 0 255 255
-0.441037 1.321220 0.052490 0 255 255
-0.380024 1.338921 0.061684 0 255 255
-0.399436 1.420745 0.052484 0 255 255
-0.433934 1.441211 0.061458 0 255 255
-0.451206 1.388811 0.052516 0 255 255
-0.451325 1.455589 0.061458 0 255 255
-0.430594 1.341492 0.052487 0 255 255
-0.410171 1.466436 0.061458 0 255 255
-0.390759 1.326891 0.052506 0 255 255
-0.462570 1.306493 0.055458 0 255 255
-0.466266 1.327581 0.053458 0 255 255
-0.404671 1.413679 0.061458 0 255 255
-0.406996 1.346699 0.052482 0 255 255
-0.431057 1.368171 0.052486 0 255 255
-0.373384 1.404984 0.055458 0 255 255
-0.422987 1.386902 0.052470 0 255 255
-0.392782 1.452046 0.060993 0 255 255
-0.464192 1.385437 0.052480 0 255 255
-0.454699 1.343520 0.053458 0 255 255
-0.458566 1.322901 0.061458 0 255 255
-0.398975 1.469720 0.061458 0 255 255
-0.471789 1.297086 0.045458 0 255 255
-0.375941 1.319651 0.061401 0 255 255
-0.451192 1.423568 0.061458 0 255 255
-0.381271 1.333052 0.052494 0 255 255
-0.387478 1.486620 0.055458 0 255 255
-0.406476 1.454957 0.052468 0 255 255
-0.447445 1.310314 0.052459 0 255 255
-0.432078 1.478801 0.061603 0 255 255
-0.434384 1.352521 0.052466 0 255 255
-0.378522 1.418345 0.045458 0 255 255
-0.403008 1.384700 0.052486 0 255 255
-0.398046 1.340707 0.052515 0 255 255
-0.415719 1.469190 0.052478 0 255 255
-0.473252 1.309665 0.045458 0 255 255
-0.416749 1.416247 0.061171 0 255 255
-0.406949 1.318064 0.052495 0 255 255
-0.434479 1.409792 0.052469 0 255 255
-0.454457 1.411994 0.052484 0 255 255
-0.477534 1.433256 0.053458 0 255 255
-0.391421 1.304540 0.054862 0 255 255
-0.452870 1.380986 0.061325 0 255 255
-0.440811 1.437719 0.052497 0 255 255
-0.448711 1.400549 0.061224 0 255 255
-0.455886 1.472610 0.053458 0 255 255
-0.452964 1.438257 0.061173 0 255 255
-0.379719 1.463582 0.053458 0 255 255
-0.446906 1.322467 0.061120 0 255 255
-0.418670 1.436071 0.053458 0 255 255
-0.414425 1.446423 0.052505 0 255 255
-0.435850 1.340564 0.061458 0 255 255
-0.362219 1.384209 0.056575 0 255 255
-0.416144 1.303661 0.051091 0 255 255
-0.399112 1.431888 0.053458 0 255 255
-0.430582 1.322311 0.061458 0 255 255
-0.463963 1.453852 0.053458 0 255 255
-0.466385 1.480935 0.055458 0 255 255
-0.467471 1.341151 0.056293 0 255 255
-0.389533 1.347077 0.061458 0 255 255
-0.445064 1.475427 0.052492 0 255 255
-0.465269 1.361130 0.061715 0 255 255
-0.427466 1.452405 0.061458 0 255 255
-0.383690 1.360148 0.052494 0 255 255
-0.384494 1.423703 0.061675 0 255 255
-0.428780 1.426983 0.061678 0 255 255
-0.432645 1.399179 0.052467 0 255 255
-0.384862 1.393112 0.052492 0 255 255
-0.437389 1.396098 0.061138 0 255 255
-0.403546 1.372547 0.052478 0 255 255
-0.422646 1.350026 0.052461 0 255 255
-0.377236 1.342418 0.052492 0 255 255
-0.418262 1.486087 0.054545 0 255 255
-0.403490 1.478858 0.061458 0 255 255
-0.473225 1.366911 0.053458 0 255 255
-0.394077 1.474813 0.052495 0 255 255
-0.466147 1.467640 0.053458 0 255 255
-0.469324 1.447869 0.061595 0 255 255
-0.417136 1.395188 0.061458 0 255 255
-0.372293 1.394529 0.054673 0 255 255
-0.376235 1.440350 0.055458 0 255 255
-0.470108 1.415320 0.061480 0 255 255
-0.427450 1.385145 0.061458 0 255 255
-0.386771 1.364892 0.061245 0 255 255
-0.389484 1.400228 0.061896 0 255 255
-0.416258 1.457036 0.061668 0 255 255
-0.438684 1.418865 0.061435 0 255 255
-0.447662 1.357388 0.061229 0 255 255
-0.408196 1.312195 0.061139 0 255 255
-0.421351 1.327259 0.061256 0 255 255
-0.442890 1.427937 0.052506 0 255 255
-0.409879 1.400474 0.052474 0 255 255
-0.458247 1.423023 0.052465 0 255 255
-0.457614 1.377905 0.052466 0 255 255
-0.431398 1.405048 0.061200 0 255 255
-0.394058 1.378709 0.052505 0 255 255
-0.420444 1.370005 0.052513 0 255 255
-0.419102 1.318602 0.052484 0 255 255
-0.383152 1.372301 0.052516 0 255 255
-0.406920 1.385532 0.061642 0 255 255
-0.467197 1.429014 0.054531 0 255 255
-0.463946 1.405832 0.052487 0 255 255
-0.442871 1.331833 0.052469 0 255 255
-0.412513 1.426556 0.053458 0 255 255
-0.427736 1.465610 0.053458 0 255 255
-0.446933 1.303101 0.045458 0 255 255
-0.386914 1.450799 0.052520 0 255 255
-0.450545 1.411162 0.061391 0 255 255
-0.367260 1.334164 0.053458 0 255 255
-0.434460 1.313688 0.052506 0 255 255
-0.396751 1.317941 0.052477 0 255 255
-0.381073 1.382083 0.061313 0 255 255
-0.371228 1.369767 0.051458 0 255 255
-0.376970 1.314810 0.045458 0 255 255
-0.453966 1.452783 0.052467 0 255 255
-0.411684 1.478555 0.052477 0 255 255
-0.460454 1.321258 0.049458 0 255 255
-0.427022 1.377537 0.052472 0 255 255
-0.446735 1.352131 0.053458 0 255 255
-0.422563 1.408134 0.061458 0 255 255
-0.404378 1.368634 0.060939 0 255 255
-0.447539 1.367585 0.052491 0 255 255
-0.477205 1.314595 0.052510 0 255 255
-0.463940 1.357761 0.051458 0 255 255
-0.425453 1.442633 0.052477 0 255 255
-0.422723 1.356176 0.061458 0 255 255
-0.437635 1.375703 0.052471 0 255 255
-0.375622 1.423862 0.057458 0 255 255
-0.459712 1.464228 0.061951 0 255 255
-0.375020 1.477896 0.059458 0 255 255
-0.387243 1.471316 0.061458 0 255 255
-0.380835 1.306247 0.057458 0 255 255
-0.363286 1.408044 0.057458 0 255 255
-0.390051 1.320606 0.060949 0 255 255
-0.456779 1.333735 0.053458 0 255 255
-0.440858 1.466354 0.061269 0 255 255
-0.414547 1.436226 0.061639 0 255 255
-0.430416 1.303852 0.047458 0 255 255
-0.461281 1.399131 0.061790 0 255 255
-0.373107 1.332983 0.061458 0 255 255
-0.418025 1.342909 0.061074 0 255 255
-0.383171 1.468405 0.046609 0 255 255
-0.378143 1.347769 0.061458 0 255 255
-0.398783 1.327621 0.061458 0 255 255
-0.396134 1.417999 0.061458 0 255 255
-0.423422 1.481050 0.059998 0 255 255
-0.389973 1.436407 0.061458 0 255 255
-0.396079 1.455777 0.053458 0 255 255
-0.442228 1.450288 0.052487 0 255 255
-0.414297 1.408545 0.053458 0 255 255
-0.440792 1.389712 0.053458 0 255 255
-0.410956 1.376166 0.061240 0 255 255
-0.406457 1.358853 0.061231 0 255 255
-0.399265 1.402307 0.061633 0 255 255
-0.368594 1.318090 0.055458 0 255 255
-0.398264 1.387781 0.061443 0 255 255
-0.445904 1.307942 0.061364 0 255 255
-0.383908 1.407221 0.061779 0 255 255
-0.420907 1.396684 0.052467 0 255 255
-0.466271 1.375656 0.052489 0 255 255
-0.381441 1.351491 0.052505 0 255 255
-0.422060 1.333544 0.052522 0 255 255
-0.413158 1.356188 0.052492 0 255 255
-0.445092 1.407958 0.052480 0 255 255
-0.461621 1.436008 0.061052 0 255 255
-0.466913 1.367614 0.045458 0 255 255
-0.407539 1.324905 0.061458 0 255 255
-0.472128 1.391214 0.053458 0 255 255
-0.379660 1.383827 0.045458 0 255 255
-0.363487 1.456043 0.057458 0 255 255
-0.393274 1.411257 0.052476 0 255 255
-0.371080 1.467572 0.057458 0 255 255
-0.368688 1.350825 0.057458 0 255 255
-0.383301 1.433673 0.045458 0 255 255
-0.374693 1.325520 0.052491 0 255 255
-0.408099 1.303032 0.055458 0 255 255
-0.401230 1.447708 0.061458 0 255 255
-0.423985 1.434142 0.061458 0 255 255
-0.409491 1.334961 0.052467 0 255 255
-0.461895 1.348145 0.052504 0 255 255
-0.449676 1.434489 0.053458 0 255 255
-0.371065 1.375866 0.057458 0 255 255
-0.467688 1.388225 0.061109 0 255 255
-0.476610 1.461686 0.056386 0 255 255
-0.433802 1.307163 0.061458 0 255 255
-0.374962 1.415543 0.053458 0 255 255
-0.436388 1.381572 0.061168 0 255 255
-0.464084 1.347466 0.061458 0 255 255
-0.396042 1.311656 0.061639 0 255 255
-0.409368 1.345159 0.061255 0 255 255
-0.445848 1.442879 0.061366 0 255 255
-0.392319 1.425367 0.052469 0 255 255
-0.391979 1.388490 0.052488 0 255 255
-0.411098 1.462073 0.052486 0 255 255
-0.402960 1.356065 0.052477 0 255 255
-0.395721 1.370884 0.061574 0 255 255
-0.370859 1.361509 0.049458 0 255 255
-0.459982 1.368185 0.061458 0 255 255
-0.384287 1.453538 0.061458 0 255 255
-0.446490 1.375541 0.061458 0 255 255
-0.435605 1.462208 0.053458 0 255 255
-0.382095 1.410925 0.051458 0 255 255
-0.368922 1.342696 0.051458 0 255 255
-0.441283 1.300825 0.051338 0 255 255
-0.467986 1.369886 0.059458 0 255 255
-0.439005 1.359637 0.061256 0 255 255
-0.471418 1.466875 0.061458 0 255 255
-0.461139 1.313225 0.060086 0 255 255
-0.458417 1.441461 0.054541 0 255 255
-0.390807 1.355526 0.061199 0 255 255
-0.376990 1.362813 0.061275 0 255 255
-0.453484 1.330000 0.061414 0 255 255
-0.434214 1.334082 0.052478 0 255 255
-0.457274 1.341029 0.061309 0 255 255
-0.427343 1.318309 0.052486 0 255 255
-0.432078 1.478801 0.052476 0 255 255
-0.470401 1.423561 0.061875 0 255 255
-0.390533 1.443389 0.052472 0 255 255
-0.391053 1.335132 0.052539 0 255 255
-0.452066 1.317430 0.052503 0 255 255
-0.430764 1.359930 0.052477 0 255 255
-0.399341 1.363474 0.052490 0 255 255
-0.402857 1.462366 0.052505 0 255 255
-0.377203 1.356724 0.045458 0 255 255
-0.459573 1.392634 0.053458 0 255 255
-0.441119 1.474747 0.061458 0 255 255
-0.388114 1.416294 0.060999 0 255 255
-0.422280 1.428706 0.053458 0 255 255
-0.456802 1.477922 0.059900 0 255 255
-0.451546 1.464169 0.061458 0 255 255
-0.474899 1.440875 0.056370 0 255 255
-0.455697 1.361140 0.061458 0 255 255
-0.467816 1.404610 0.061458 0 255 255
-0.423232 1.366508 0.061253 0 255 255
-0.428412 1.457575 0.054599 0 255 255
-0.395911 1.485426 0.054534 0 255 255
-0.435760 1.432556 0.061458 0 255 255
-0.388180 1.459247 0.053458 0 255 255
-0.450571 1.425480 0.053458 0 255 255
-0.406397 1.445712 0.053458 0 255 255
-0.384078 1.425660 0.052489 0 255 255
-0.450044 1.466262 0.053458 0 255 255
-0.459419 1.455987 0.061701 0 255 255
-0.432201 1.468604 0.061358 0 255 255
-0.401487 1.478432 0.052477 0 255 255
-0.430181 1.391534 0.053458 0 255 255
-0.457538 1.416738 0.061400 0 255 255
-0.372000 1.386288 0.051452 0 255 255
-0.403055 1.339727 0.061458 0 255 255
-0.381366 1.390324 0.061095 0 255 255
-0.423016 1.319427 0.061458 0 255 255
-0.454561 1.305692 0.060914 0 255 255
-0.417732 1.334668 0.061016 0 255 255
-0.448201 1.345234 0.061408 0 255 255
-0.455365 1.369248 0.052490 0 255 255
-0.450375 1.392724 0.061306 0 255 255
-0.433694 1.442340 0.052459 0 255 255
-0.414821 1.348362 0.052466 0 255 255
-0.439298 1.367878 0.052472 0 255 255
-0.394937 1.403432 0.052469 0 255 255
-0.453506 1.305468 0.049458 0 255 255
-0.476066 1.334800 0.045458 0 255 255
-0.394616 1.462659 0.061177 0 255 255
-0.380203 1.400300 0.049458 0 255 255
-0.477961 1.349515 0.051897 0 255 255
-0.375648 1.311410 0.061118 0 255 255
-0.399752 1.313445 0.045458 0 255 255
-0.469441 1.423357 0.049458 0 255 255
-0.407431 1.440847 0.061359 0 255 255
-0.427572 1.413426 0.053458 0 255 255
-0.388068 1.469446 0.053458 0 255 255
-0.377548 1.446763 0.060950 0 255 255
-0.415610 1.363892 0.053458 0 255 255
-0.449864 1.337409 0.052509 0 255 255
-0.393107 1.306225 0.047458 0 255 255
-0.448145 1.480171 0.058189 0 255 255
-0.477498 1.322836 0.052283 0 255 255
-0.459182 1.312809 0.052669 0 255 255
-0.456888 1.429418 0.061458 0 255 255
-0.442673 1.457818 0.061458 0 255 255
-0.443738 1.366233 0.061458 0 255 255
-0.374066 1.328471 0.045458 0 255 255
-0.424061 1.420325 0.061458 0 255 255
-0.471760 1.359450 0.053458 0 255 255
-0.411161 1.484578 0.057458 0 255 255
-0.382784 1.450989 0.045458 0 255 255
-0.392489 1.443805 0.061883 0 255 255
-0.420569 1.306646 0.045458 0 255 255
-0.469862 1.435715 0.052459 0 255 255
-0.425702 1.460702 0.061458 0 255 255
-0.438665 1.322760 0.061297 0 255 255
-0.375307 1.346098 0.045458 0 255 255
-0.380686 1.467877 0.059458 0 255 255
-0.472038 1.401418 0.053458 0 255 255
-0.395693 1.438352 0.054574 0 255 255
-0.391225 1.382417 0.061458 0 255 255
-0.389342 1.314321 0.052499 0 255 255
-0.414481 1.311486 0.052506 0 255 255
-0.379041 1.459349 0.059458 0 255 255
-0.383235 1.443883 0.053458 0 255 255
-0.449543 1.396636 0.054579 0 255 255
-0.415375 1.384233 0.053458 0 255 255
-0.474230 1.415165 0.053458 0 255 255
-0.409616 1.305514 0.047458 0 255 255
-0.472747 1.374046 0.055458 0 255 255
-0.418529 1.312346 0.061458 0 255 255
-0.450955 1.448054 0.061458 0 255 255
-0.387140 1.334300 0.061223 0 255 255
-0.371033 1.367681 0.059458 0 255 255
-0.374741 1.354156 0.061184 0 255 255
-0.433514 1.448436 0.061458 0 255 255
-0.430717 1.331294 0.061656 0 255 255
-0.430862 1.369090 0.061458 0 255 255
-0.396600 1.395607 0.061370 0 255 255
-0.401269 1.431359 0.061179 0 255 255
-0.432352 1.390938 0.061438 0 255 255
-0.422429 1.302952 0.061114 0 255 255
-0.427041 1.473641 0.061169 0 255 255
-0.445385 1.416199 0.061210 0 255 255
-0.403301 1.392941 0.052533 0 255 255
-0.435986 1.431560 0.053458 0 255 255
-0.443722 1.424025 0.061370 0 255 255
-0.442399 1.468726 0.052466 0 255 255
-0.400295 1.349364 0.052499 0 255 255
-0.410049 1.418912 0.061285 0 255 255
-0.374665 1.392989 0.061458 0 255 255
-0.386961 1.479434 0.054572 0 255 255
-0.401911 1.312903 0.052508 0 255 255
-0.455194 1.350810 0.052503 0 255 255
-0.417656 1.373501 0.061147 0 255 255
-0.433968 1.354477 0.061335 0 255 255
-0.443164 1.340074 0.061380 0 255 255
-0.439516 1.414952 0.052474 0 255 255
-0.378115 1.367141 0.052520 0 255 255
-0.435877 1.326257 0.052459 0 255 255
-0.379825 1.387952 0.052468 0 255 255
-0.410247 1.369882 0.052462 0 255 255
-0.377709 1.373189 0.045458 0 255 255
-0.405810 1.429234 0.053458 0 255 255
-0.408603 1.473811 0.061019 0 255 255
-0.383513 1.423495 0.045458 0 255 255
-0.462604 1.354430 0.060804 0 255 255
-0.366977 1.458020 0.065458 0 255 255
-0.422032 1.401012 0.061273 0 255 255
-0.437068 1.455325 0.054595 0 255 255
-0.434507 1.301430 0.053458 0 255 255
-0.441290 1.382614 0.053458 0 255 255
-0.417107 1.472280 0.061458 0 255 255
-0.420879 1.464152 0.054552 0 255 255
-0.373729 1.478666 0.051458 0 255 255
-0.413737 1.454456 0.053458 0 255 255
-0.471441 1.452408 0.053458 0 255 255
-0.466762 1.334867 0.052503 0 255 255
-0.400895 1.413881 0.053458 0 255 255
-0.361940 1.423998 0.055458 0 255 255
-0.422036 1.449093 0.053458 0 255 255
-0.424678 1.311609 0.054602 0 255 255
-0.420724 1.349452 0.061458 0 255 255
-0.364943 1.467588 0.053458 0 255 255
-0.468785 1.460022 0.054535 0 255 255
-0.382641 1.316986 0.061245 0 255 255
-0.375571 1.432030 0.055458 0 255 255
-0.474435 1.455089 0.059458 0 255 255
-0.473164 1.429800 0.059458 0 255 255
-0.408512 1.432898 0.061458 0 255 255
-0.411958 1.390692 0.061562 0 255 255
-0.378104 1.483686 0.057458 0 255 255
-0.375667 1.407514 0.061389 0 255 255
-0.373292 1.399450 0.059458 0 255 255
-0.464286 1.442709 0.061522 0 255 255
-0.378915 1.377535 0.051458 0 255 255
-0.428325 1.342550 0.061458 0 255 255
-0.467830 1.474132 0.054503 0 255 255
-0.371769 1.316720 0.049458 0 255 255
-0.396099 1.342338 0.061458 0 255 255
-0.440165 1.402281 0.061458 0 255 255
-0.419537 1.412750 0.052512 0 255 255
-0.460298 1.480710 0.052470 0 255 255
-0.414012 1.444291 0.061458 0 255 255
-0.451792 1.405293 0.052507 0 255 255
-0.418181 1.476849 0.053458 0 255 255
-0.409557 1.459701 0.061142 0 255 255
-0.447478 1.454451 0.053458 0 255 255
-0.378006 1.434986 0.049458 0 255 255
-0.386977 1.430365 0.061458 0 255 255
-0.361926 1.375968 0.058323 0 255 255
-0.367055 1.327986 0.049458 0 255 255
-0.472706 1.297281 0.052118 0 255 255
-0.363810 1.390681 0.057458 0 255 255
-0.435395 1.424722 0.061458 0 255 255
-0.465788 1.430760 0.061458 0 255 255
-0.382471 1.455988 0.051458 0 255 255
-0.392300 1.329263 0.061431 0 255 255
-0.416655 1.358976 0.061412 0 255 255
-0.434969 1.484440 0.055458 0 255 255
-0.460618 1.339695 0.053458 0 255 255
-0.463578 1.436424 0.054595 0 255 255
-0.429441 1.404632 0.054587 0 255 255
-0.422155 1.390815 0.061104 0 255 255
-0.457907 1.386146 0.054583 0 255 255
-0.383276 1.314002 0.047458 0 255 255
-0.407261 1.422409 0.054566 0 255 255
-0.415918 1.420159 0.054549 0 255 255
-0.411427 1.411026 0.061458 0 255 255
-0.379003 1.439919 0.061458 0 255 255
-0.465344 1.322297 0.058118 0 255 255
-0.472644 1.303402 0.047458 0 255 255
-0.406675 1.405927 0.061112 0 255 255
-0.450299 1.431557 0.061545 0 255 255
-0.427239 1.424611 0.054581 0 255 255
-0.402218 1.421337 0.061458 0 255 255
-0.445525 1.328965 0.061458 0 255 255
-0.375502 1.335916 0.051458 0 255 255
-0.469033 1.381899 0.059458 0 255 255
-0.438570 1.477120 0.053458 0 255 255
-0.437882 1.403398 0.053458 0 255 255
-0.439343 1.348430 0.053458 0 255 255
-0.401978 1.437643 0.052492 0 255 255
-0.463653 1.397591 0.052465 0 255 255
-0.407596 1.411212 0.053458 0 255 255
-0.456307 1.403295 0.061458 0 255 255
-0.432236 1.376600 0.061458 0 255 255
-0.407187 1.379455 0.053458 0 255 255
-0.461083 1.448162 0.054571 0 255 255
-0.391005 1.306496 0.061005 0 255 255
-0.452668 1.381937 0.053458 0 255 255
-0.445366 1.300854 0.057458 0 255 255
-0.420322 1.380202 0.052496 0 255 255
-0.456093 1.471637 0.061179 0 255 255
-0.372300 1.476318 0.065458 0 255 255
-0.463684 1.340346 0.061458 0 255 255
-0.370696 1.463709 0.065458 0 255 255
-0.456489 1.373577 0.061257 0 255 255
-0.399611 1.304488 0.053458 0 255 255
-0.367789 1.336321 0.059458 0 255 255
-0.374379 1.472670 0.055458 0 255 255
-0.468983 1.410992 0.054591 0 255 255
-0.377548 1.446763 0.053850 0 255 255
-0.404038 1.331758 0.061915 0 255 255
-0.399237 1.469776 0.054583 0 255 255
-0.376760 1.325960 0.061458 0 255 255
-0.385477 1.342125 0.061018 0 255 255
-0.410865 1.398639 0.061458 0 255 255
-0.419462 1.451583 0.061010 0 255 255
-0.427410 1.443049 0.061947 0 255 255
-0.368993 1.320219 0.061458 0 255 255
-0.401420 1.353693 0.061120 0 255 255
-0.432087 1.315228 0.061112 0 255 255
-0.403594 1.401182 0.054595 0 255 255
-0.457661 1.406541 0.054569 0 255 255
-0.434251 1.410863 0.061458 0 255 255
-0.474540 1.307894 0.052488 0 255 255
-0.442672 1.380863 0.061590 0 255 255
-0.443476 1.444419 0.054527 0 255 255
-0.416967 1.463321 0.061312 0 255 255
-0.435802 1.365090 0.060907 0 255 255
-0.376339 1.421970 0.051458 0 255 255
-0.463823 1.416029 0.061124 0 255 255
-0.446197 1.316183 0.061372 0 255 255
-0.383568 1.370345 0.061492 0 255 255
-0.413218 1.432858 0.053458 0 255 255
-0.440395 1.439675 0.061572 0 255 255
-0.375620 1.378879 0.061115 0 255 255
-0.424505 1.302805 0.049458 0 255 255
-0.415067 1.327968 0.061439 0 255 255
-0.399974 1.408592 0.061201 0 255 255
-0.464485 1.393678 0.061239 0 255 255
-0.443674 1.395389 0.061087 0 255 255
-0.441160 1.311023 0.052504 0 255 255
-0.388142 1.348826 0.052504 0 255 255
-0.424309 1.342201 0.052459 0 255 255
-0.440225 1.421237 0.052507 0 255 255
-0.403206 1.335670 0.052509 0 255 255
-0.390051 1.320606 0.052486 0 255 255
-0.391516 1.361811 0.052512 0 255 255
-0.376765 1.358676 0.051458 0 255 255
-0.458984 1.361839 0.052497 0 255 255
-0.413716 1.440138 0.054569 0 255 255
-0.394842 1.346160 0.052495 0 255 255
-0.428931 1.349317 0.052482 0 255 255
-0.455828 1.395928 0.061369 0 255 255
-0.448201 1.345234 0.052475 0 255 255
-0.388605 1.375505 0.052495 0 255 255
-0.379041 1.420500 0.061732 0 255 255
-0.417704 1.402137 0.052511 0 255 255
-0.389900 1.398272 0.052490 0 255 255
-0.409614 1.324764 0.052496 0 255 255
-0.397460 1.324225 0.052517 0 255 255
-0.410200 1.341246 0.052502 0 255 255
-0.446074 1.326380 0.052484 0 255 255
-0.393983 1.417542 0.052472 0 255 255
-0.400343 1.378000 0.052469 0 255 255
-0.421351 1.327259 0.052488 0 255 255
-0.384475 1.327599 0.052512 0 255 255
-0.415776 1.334253 0.052487 0 255 255
-0.477083 1.349328 0.045458 0 255 255
-0.475754 1.326555 0.045458 0 255 255
-0.466120 1.453322 0.061390 0 255 255
-0.381596 1.412864 0.045458 0 255 255
-0.464097 1.328166 0.059906 0 255 255
-0.447665 1.309279 0.045458 0 255 255
-0.379315 1.332637 0.061241 0 255 255
-0.457118 1.303284 0.055458 0 255 255
-0.404745 1.453486 0.061458 0 255 255
-0.461546 1.474841 0.054541 0 255 255
-0.381613 1.418019 0.051458 0 255 255
-0.450347 1.460192 0.054531 0 255 255
-0.414822 1.396453 0.053458 0 255 255
-0.419370 1.442393 0.053458 0 255 255
-0.471696 1.446328 0.052466 0 255 255
-0.424416 1.481261 0.053458 0 255 255
-0.452794 1.419819 0.052461 0 255 255
-0.458521 1.416947 0.053458 0 255 255
-0.374943 1.409405 0.051458 0 255 255
-0.460818 1.372452 0.052498 0 255 255
-0.460184 1.327334 0.052520 0 255 255
-0.408425 1.311119 0.051458 0 255 255
-0.425389 1.365982 0.053458 0 255 255
-0.435849 1.393726 0.052495 0 255 255
-0.398283 1.483885 0.059989 0 255 255
-0.460695 1.382649 0.061314 0 255 255
-0.453578 1.387271 0.060813 0 255 255
-0.448955 1.351304 0.061458 0 255 255
-0.385420 1.477062 0.059995 0 255 255
-0.465783 1.464523 0.061458 0 255 255
-0.435632 1.346652 0.061299 0 255 255
-0.363847 1.463123 0.057458 0 255 255
-0.378181 1.309112 0.049458 0 255 255
-0.383341 1.438747 0.049458 0 255 255
-0.468766 1.363918 0.056307 0 255 255
-0.476128 1.338902 0.051841 0 255 255
-0.407903 1.303954 0.061462 0 255 255
-0.412559 1.427624 0.061458 0 255 255
-0.452535 1.319575 0.061458 0 255 255
-0.369538 1.357139 0.053458 0 255 255
-0.380903 1.375912 0.061458 0 255 255
-0.402159 1.311739 0.061458 0 255 255
-0.407652 1.318213 0.061458 0 255 255
-0.395681 1.351834 0.061458 0 255 255
-0.421588 1.470437 0.054584 0 255 255
-0.448173 1.412703 0.054594 0 255 255
-0.427731 1.383821 0.054578 0 255 255
-0.460742 1.411285 0.052468 0 255 255
-0.448787 1.361716 0.054568 0 255 255
-0.436217 1.363134 0.054569 0 255 255
-0.409850 1.467942 0.054563 0 255 255
-0.449808 1.472346 0.054580 0 255 255
-0.450620 1.372329 0.054574 0 255 255
-0.458275 1.355554 0.054584 0 255 255
-0.426361 1.399888 0.052504 0 255 255
-0.471866 1.464766 0.052470 0 255 255
-0.427882 1.306156 0.061024 0 255 255
-0.404397 1.464738 0.061577 0 255 255
-0.383813 1.349950 0.061193 0 255 255
-0.420379 1.302976 0.055458 0 255 255
-0.439620 1.308651 0.061202 0 255 255
-0.393120 1.472565 0.061458 0 255 255
-0.430131 1.421136 0.061458 0 255 255
-0.470404 1.441964 0.061458 0 255 255
-0.451254 1.417447 0.061014 0 255 255
-0.446898 1.303268 0.051458 0 255 255
-0.328590 1.619375 0.229458 255 125 0
-0.338347 1.429179 0.053458 255 125 0
-0.323415 1.739915 0.052549 255 125 0
-0.352012 1.547659 0.429587 255 125 0
-0.345784 1.413431 0.261551 255 125 0
-0.394683 1.587399 0.076142 255 125 0
-0.342297 1.785756 0.255458 255 125 0
-0.331823 1.681119 0.365458 255 125 0
-0.313903 1.502754 0.163458 255 125 0
-0.375012 1.703854 0.155458 255 125 0
-0.348345 1.526433 0.303115 255 125 0
-0.292322 1.537016 0.053458 255 125 0
-0.295724 1.639973 0.103458 255 125 0
-0.364204 1.692312 0.275458 255 125 0
-0.376206 1.571204 0.165458 255 125 0
-0.380729 1.499131 0.099458 255 125 0
-0.354356 1.613587 0.311967 255 125 0
-0.347442 1.424869 0.175458 255 125 0
-0.365341 1.489151 0.229458 255 125 0
-0.329511 1.624663 0.422809 255 125 0
-0.354290 1.488847 0.373994 255 125 0
-0.340879 1.773189 0.173458 255 125 0
-0.318667 1.702101 0.211458 255 125 0
-0.388001 1.686168 0.082621 255 125 0
-0.308017 1.566933 0.121458 255 125 0
-0.309635 1.712449 0.121458 255 125 0
-0.319821 1.546951 0.221458 255 125 0
-0.384390 1.635820 0.135458 255 125 0
-0.309496 1.479326 0.095458 255 125 0
-0.317243 1.648637 0.167458 255 125 0
-0.321899 1.473784 0.275458 255 125 0
-0.302733 1.678267 0.051458 255 125 0
-0.290507 1.602060 0.051458 255 125 0
-0.363961 1.574735 0.259458 255 125 0
-0.369221 1.661729 0.203458 255 125 0
-0.356430 1.440303 0.113458 255 125 0
-0.374038 1.511375 0.159458 255 125 0
-0.311156 1.590092 0.179458 255 125 0
-0.360404 1.469700 0.319298 255 125 0
-0.388524 1.529797 0.051458 255 125 0
-0.333502 1.740014 0.287458 255 125 0
-0.321262 1.690384 0.311458 255 125 0
-0.329991 1.649302 0.275458 255 125 0
-0.330201 1.448267 0.221458 255 125 0
-0.385889 1.550770 0.115458 255 125 0
-0.333492 1.538598 0.379458 255 125 0
-0.359271 1.638562 0.381458 255 125 0
-0.325290 1.572649 0.295458 255 125 0
-0.398127 1.638529 0.065458 255 125 0
-0.369298 1.610629 0.198404 255 125 0
-0.366626 1.536622 0.203458 255 125 0
-0.334353 1.750418 0.219458 255 125 0
-0.332451 1.755124 0.105458 255 125 0
-0.321203 1.500217 0.337166 255 125 0
-0.325341 1.726011 0.167458 255 125 0
-0.321327 1.457305 0.145458 255 125 0
-0.365641 1.704791 0.227458 255 125 0
-0.361311 1.667442 0.327458 255 125 0
-0.359191 1.471487 0.183458 255 125 0
-0.371736 1.463930 0.067458 255 125 0
-0.320953 1.496074 0.211458 255 125 0
-0.319026 1.698088 0.259458 255 125 0
-0.336873 1.517860 0.255458 255 125 0
-0.302749 1.519699 0.119458 255 125 0
-0.365357 1.624104 0.257458 255 125 0
-0.307332 1.493179 0.051458 255 125 0
-0.309029 1.610086 0.137458 255 125 0
-0.334330 1.582749 0.404499 255 125 0
-0.316038 1.548191 0.163458 255 125 0
-0.319974 1.581742 0.251458 255 125 0
-0.330398 1.663701 0.231458 255 125 0
-0.362226 1.461130 0.263458 255 125 0
