ply
format ascii 1.0
element vertex 1352
property float x
property float y
property float z
property uchar red
property uchar green
property uchar blue
end_header
0.144136 0.281568 -0.033853 0 0 255
0.131540 0.257022 0.171885 0 0 255
0.161685 0.282062 0.107885 0 0 255
0.309330 0.139170 -0.052115 0 0 255
0.288200 0.283780 0.073884 0 0 255
0.206808 0.286773 0.085885 0 0 255
0.102371 0.235202 -0.074116 0 0 255
0.144939 0.244808 0.165884 0 0 255
0.259914 0.282511 0.083885 0 0 255
0.325317 0.139504 -0.024116 0 0 255
0.268717 0.138660 -0.064115 0 0 255
0.195925 0.240520 0.163885 0 0 255
0.093047 0.282271 0.137884 0 0 255
0.098713 0.230442 0.001885 0 0 255
0.347814 0.264033 0.073712 0 0 255
0.096170 0.207690 -0.056116 0 0 255
0.208969 0.294283 0.067885 0 0 255
0.249000 0.147810 -0.008115 0 0 255
0.294666 0.251518 0.159884 0 0 255
0.202422 0.289126 -0.028116 0 0 255
0.244937 0.257569 0.163885 0 0 255
0.302876 0.280248 -0.052115 0 0 255
0.185853 0.281292 -0.074116 0 0 255
0.353706 0.262286 0.019885 0 0 255
0.293457 0.139611 0.025885 0 0 255
0.258865 0.277096 0.115884 0 0 255
0.243917 0.283693 0.085885 0 0 255
0.165493 0.149638 0.015885 0 0 255
0.138306 0.307836 0.070836 0 0 255
0.229583 0.289406 -0.016115 0 0 255
0.312040 0.139693 -0.026115 0 0 255
0.348854 0.287858 0.013884 0 0 255
0.183191 0.288104 -0.059133 0 0 255
0.095747 0.210286 -0.064115 0 0 255
0.333017 0.288061 0.013884 0 0 255
0.112733 0.306425 0.082878 0 0 255
0.175488 0.149874 -0.014116 0 0 255
0.353704 0.257374 0.011885 0 0 255
0.334518 0.279835 0.073884 0 0 255
0.097341 0.243519 -0.014116 0 0 255
0.176062 0.281554 -0.002115 0 0 255
0.236326 0.274769 0.125885 0 0 255
0.268516 0.139085 -0.048115 0 0 255
0.114130 0.256723 0.171885 0 0 255
0.348030 0.288445 0.022869 0 0 255
0.095737 0.198171 -0.054115 0 0 255
0.193302 0.145775 -0.028116 0 0 255
0.248168 0.272432 0.129884 0 0 255
0.090571 0.296020 0.083885 0 0 255
0.094619 0.191485 -0.066115 0 0 255
0.157719 0.273059 0.149884 0 0 255
0.102662 0.190775 0.009885 0 0 255
0.222315 0.280961 -0.012115 0 0 255
0.195910 0.259379 0.163885 0 0 255
0.246499 0.280424 -0.044115 0 0 255
0.163753 0.147199 -0.029046 0 0 255
0.196292 0.265142 0.139885 0 0 255
0.194295 0.148687 -0.010116 0 0 255
0.247703 0.140903 -0.080115 0 0 255
0.281173 0.242933 0.163885 0 0 255
0.128688 0.292587 0.107885 0 0 255
0.269529 0.281713 0.103885 0 0 255
0.178312 0.281264 -0.056116 0 0 255
0.295516 0.242377 0.163713 0 0 255
0.335009 0.287411 0.041884 0 0 255
0.276812 0.280284 -0.054115 0 0 255
0.320734 0.250179 0.157884 0 0 255
0.337952 0.146885 -0.074116 0 0 255
0.144007 0.303771 0.081885 0 0 255
0.096241 0.242032 -0.070116 0 0 255
0.142829 0.292328 0.087884 0 0 255
0.207724 0.139960 0.007885 0 0 255
0.188276 0.140248 0.007885 0 0 255
0.101517 0.180490 -0.058115 0 0 255
0.234434 0.139522 -0.032116 0 0 255
0.351807 0.286853 0.041884 0 0 255
0.299143 0.281902 0.039885 0 0 255
0.230960 0.289637 0.011885 0 0 255
0.252019 0.140066 0.001885 0 0 255
0.094931 0.181550 -0.066115 0 0 255
0.295630 0.288971 -0.012115 0 0 255
0.348741 0.251088 0.105884 0 0 255
0.218151 0.288900 -0.002115 0 0 255
0.221892 0.287256 0.079885 0 0 255
0.236346 0.279966 -0.032116 0 0 255
0.337201 0.138943 0.011660 0 0 255
0.100456 0.306435 0.083885 0 0 255
0.306351 0.147355 -0.032116 0 0 255
0.155311 0.280967 -0.044115 0 0 255
0.257937 0.248242 0.159884 0 0 255
0.360728 0.242537 -0.028116 0 0 255
0.205908 0.147746 0.023885 0 0 255
0.093242 0.275655 0.129884 0 0 255
0.165531 0.273677 0.125709 0 0 255
0.207125 0.307882 0.045048 0 0 255
0.239029 0.276839 0.101884 0 0 255
0.277547 0.148302 -0.028116 0 0 255
0.243751 0.257190 0.145885 0 0 255
0.101662 0.247992 -0.030115 0 0 255
0.121900 0.298612 0.095885 0 0 255
0.309027 0.139386 0.021885 0 0 255
0.105752 0.313860 0.046892 0 0 255
0.147609 0.303657 0.042940 0 0 255
0.258164 0.289889 -0.024116 0 0 255
0.102383 0.235195 -0.058115 0 0 255
0.299142 0.147582 -0.010116 0 0 255
0.344395 0.297126 0.037885 0 0 255
0.113324 0.290033 -0.030115 0 0 255
0.271332 0.249800 0.158888 0 0 255
0.178536 0.148938 0.015885 0 0 255
0.295591 0.297588 0.061885 0 0 255
0.319740 0.269448 0.099885 0 0 255
0.101954 0.220760 -0.084116 0 0 255
0.250525 0.139352 -0.028116 0 0 255
0.327259 0.288520 0.007885 0 0 255
0.244251 0.270386 0.115884 0 0 255
0.256230 0.147565 -0.080115 0 0 255
0.335132 0.139487 -0.040115 0 0 255
0.149145 0.290279 0.019885 0 0 255
0.305252 0.139622 -0.006115 0 0 255
0.348986 0.248456 0.128718 0 0 255
0.204927 0.291024 0.015885 0 0 255
0.269465 0.260959 0.150867 0 0 255
0.333379 0.269416 0.111885 0 0 255
0.297919 0.266409 0.131885 0 0 255
0.163553 0.289828 -0.040115 0 0 255
0.277446 0.144716 0.026641 0 0 255
0.278039 0.303976 0.040919 0 0 255
0.176537 0.289109 -0.024116 0 0 255
0.287054 0.280348 0.101884 0 0 255
0.184113 0.299729 0.048630 0 0 255
0.220085 0.140070 0.025885 0 0 255
0.187501 0.292399 0.095885 0 0 255
0.192787 0.277448 0.127885 0 0 255
0.147726 0.290045 0.113885 0 0 255
0.145992 0.287614 0.099243 0 0 255
0.155820 0.292888 0.083885 0 0 255
0.208139 0.297331 0.039885 0 0 255
0.246461 0.280372 -0.020115 0 0 255
0.095542 0.271992 0.143884 0 0 255
0.307517 0.280493 -0.014116 0 0 255
0.284218 0.139885 -0.022115 0 0 255
0.307599 0.138772 -0.070116 0 0 255
0.327452 0.259597 0.121885 0 0 255
0.236707 0.280473 -0.048115 0 0 255
0.214583 0.280452 -0.050247 0 0 255
0.116090 0.290467 0.015885 0 0 255
0.285709 0.280290 -0.026115 0 0 255
0.342008 0.280002 0.013884 0 0 255
0.179102 0.299593 0.081885 0 0 255
0.087951 0.313012 0.067885 0 0 255
0.354105 0.264458 0.081885 0 0 255
0.105166 0.313038 0.069884 0 0 255
0.325171 0.146188 -0.056116 0 0 255
0.313553 0.147119 -0.018116 0 0 255
0.221202 0.297841 0.057885 0 0 255
0.095415 0.237708 -0.062115 0 0 255
0.123197 0.303875 0.050781 0 0 255
0.204419 0.142216 -0.016115 0 0 255
0.230137 0.148982 0.009885 0 0 255
0.225160 0.290104 -0.030115 0 0 255
0.312352 0.272867 0.093885 0 0 255
0.113519 0.279975 0.141885 0 0 255
0.245381 0.289189 0.005885 0 0 255
0.269772 0.147734 0.023805 0 0 255
0.235925 0.148501 -0.044115 0 0 255
0.335806 0.288528 -0.004116 0 0 255
0.234588 0.263725 0.133790 0 0 255
0.351672 0.288304 -0.026115 0 0 255
0.133313 0.290504 -0.026115 0 0 255
0.360463 0.269749 -0.018116 0 0 255
0.193361 0.280850 -0.022115 0 0 255
0.097422 0.214166 0.019885 0 0 255
0.265503 0.280981 -0.048115 0 0 255
0.157685 0.290231 0.007885 0 0 255
0.293192 0.280448 -0.042116 0 0 255
0.324415 0.262227 0.133884 0 0 255
0.141468 0.293298 0.103885 0 0 255
0.360702 0.285545 -0.056116 0 0 255
0.159298 0.289049 -0.026115 0 0 255
0.133782 0.287719 0.119884 0 0 255
0.344437 0.288551 0.069884 0 0 255
0.278785 0.139706 -0.006115 0 0 255
0.124895 0.306255 0.077884 0 0 255
0.322654 0.139492 0.011885 0 0 255
0.353715 0.275751 -0.028116 0 0 255
0.323259 0.277826 0.097885 0 0 255
0.360902 0.284176 0.023885 0 0 255
0.267483 0.294308 0.073884 0 0 255
0.357214 0.263434 0.111885 0 0 255
0.305789 0.270555 0.119884 0 0 255
0.102459 0.183550 -0.096115 0 0 255
0.320772 0.293148 0.045884 0 0 255
0.111571 0.304797 0.052202 0 0 255
0.095542 0.181114 -0.034115 0 0 255
0.213339 0.281339 -0.006115 0 0 255
0.349610 0.257838 0.135885 0 0 255
0.095607 0.232657 -0.050115 0 0 255
0.267597 0.272117 0.106667 0 0 255
0.113352 0.281416 0.017884 0 0 255
0.248150 0.296515 0.055884 0 0 255
0.266204 0.280482 -0.024116 0 0 255
0.118084 0.300151 0.076056 0 0 255
0.192493 0.287369 0.025885 0 0 255
0.189939 0.280834 0.017884 0 0 255
0.311675 0.287353 -0.052115 0 0 255
0.203738 0.289357 -0.044115 0 0 255
0.205461 0.281440 0.027884 0 0 255
0.158450 0.281185 -0.014116 0 0 255
0.188625 0.140740 0.015885 0 0 255
0.351445 0.279457 -0.036115 0 0 255
0.094433 0.204015 0.007885 0 0 255
0.222348 0.139798 0.008053 0 0 255
0.331849 0.145218 -0.079035 0 0 255
0.288713 0.139136 -0.012115 0 0 255
0.101940 0.220770 -0.024116 0 0 255
0.327420 0.287104 -0.052115 0 0 255
0.353691 0.230360 0.007885 0 0 255
0.095304 0.205851 -0.034115 0 0 255
0.341767 0.279665 -0.022115 0 0 255
0.353380 0.272345 0.003884 0 0 255
0.229581 0.280814 -0.008115 0 0 255
0.165742 0.148239 -0.054115 0 0 255
0.340756 0.147373 -0.058115 0 0 255
0.101956 0.220759 -0.032116 0 0 255
0.086942 0.280601 0.114981 0 0 255
0.313286 0.253513 0.139885 0 0 255
0.160557 0.282138 -0.056116 0 0 255
0.288777 0.260481 0.127885 0 0 255
0.187599 0.280509 -0.038116 0 0 255
0.307467 0.278072 0.101884 0 0 255
0.102446 0.183559 -0.010116 0 0 255
0.103114 0.239587 -0.028116 0 0 255
0.328183 0.300145 0.045884 0 0 255
0.332416 0.279930 -0.012115 0 0 255
0.147694 0.281486 0.011885 0 0 255
0.170820 0.289558 0.087884 0 0 255
0.178741 0.147547 -0.048115 0 0 255
0.251804 0.246532 0.165632 0 0 255
0.256692 0.139867 -0.010116 0 0 255
0.312232 0.279587 -0.001588 0 0 255
0.332913 0.274139 0.087884 0 0 255
0.093459 0.186414 0.015885 0 0 255
0.292226 0.296313 0.038992 0 0 255
0.273980 0.263846 0.143884 0 0 255
0.162490 0.300413 0.064281 0 0 255
0.352450 0.291198 0.055884 0 0 255
0.249374 0.139802 -0.014116 0 0 255
0.341368 0.282550 0.035884 0 0 255
0.104603 0.295027 0.108856 0 0 255
0.100237 0.216580 0.009885 0 0 255
0.312026 0.237970 0.161286 0 0 255
0.208764 0.289516 0.022878 0 0 255
0.330211 0.139015 -0.004116 0 0 255
0.113677 0.283641 0.134879 0 0 255
0.102238 0.176338 -0.040115 0 0 255
0.159889 0.148669 -0.012115 0 0 255
0.090052 0.309068 0.045884 0 0 255
0.099316 0.225623 0.023885 0 0 255
0.163381 0.280996 0.019885 0 0 255
0.300033 0.288288 0.079885 0 0 255
0.177415 0.147281 -0.024116 0 0 255
0.101972 0.177684 0.009885 0 0 255
0.268632 0.280456 -0.006115 0 0 255
0.168180 0.287724 0.111885 0 0 255
0.337133 0.242171 0.154971 0 0 255
0.182743 0.281052 -0.022115 0 0 255
0.157949 0.297490 0.091884 0 0 255
0.353542 0.247956 -0.036115 0 0 255
0.098485 0.309218 0.059884 0 0 255
0.263418 0.138826 -0.022115 0 0 255
0.255744 0.265832 0.142861 0 0 255
0.355565 0.256047 0.123884 0 0 255
0.177339 0.283345 0.101884 0 0 255
0.122614 0.311660 0.067885 0 0 255
0.217928 0.264478 0.153885 0 0 255
0.296507 0.274763 0.113885 0 0 255
0.099423 0.279069 0.143884 0 0 255
0.321838 0.279279 0.077884 0 0 255
0.273185 0.140385 -0.014116 0 0 255
0.177752 0.282156 0.123884 0 0 255
0.276957 0.292128 0.057885 0 0 255
0.185384 0.270515 0.145885 0 0 255
0.166133 0.300271 0.083885 0 0 255
0.259774 0.147494 0.024845 0 0 255
0.360686 0.233862 0.013884 0 0 255
0.189693 0.300663 0.040928 0 0 255
0.088135 0.271941 0.147884 0 0 255
0.328879 0.287365 -0.060116 0 0 255
0.146784 0.312834 0.059884 0 0 255
0.138961 0.282803 0.129884 0 0 255
0.340742 0.259251 0.137884 0 0 255
0.315105 0.280170 -0.028116 0 0 255
0.206681 0.281174 -0.016115 0 0 255
0.237822 0.295812 0.057366 0 0 255
0.351656 0.288315 -0.008115 0 0 255
0.353469 0.201039 0.001885 0 0 255
0.143783 0.281074 -0.020115 0 0 255
0.290836 0.287477 0.066958 0 0 255
0.324563 0.265877 0.107063 0 0 255
0.129631 0.301741 0.069884 0 0 255
0.288190 0.139509 0.017884 0 0 255
0.266476 0.139671 0.003884 0 0 255
0.253785 0.280307 0.019885 0 0 255
0.322228 0.279826 -0.038518 0 0 255
0.346141 0.279966 -0.058115 0 0 255
0.154916 0.307014 0.069884 0 0 255
0.148822 0.281250 -0.000116 0 0 255
0.084369 0.304547 0.055184 0 0 255
0.274062 0.267403 0.115884 0 0 255
0.343539 0.276908 0.095885 0 0 255
0.147460 0.300006 0.069884 0 0 255
0.113897 0.281028 -0.038116 0 0 255
0.313018 0.287577 0.079885 0 0 255
0.308712 0.281540 -0.064115 0 0 255
0.268053 0.286532 0.026670 0 0 255
0.273342 0.280303 -0.020115 0 0 255
0.304963 0.282314 0.073884 0 0 255
0.303215 0.239395 0.161885 0 0 255
0.171048 0.281413 0.003884 0 0 255
0.150432 0.252510 0.169268 0 0 255
0.139384 0.281795 0.113885 0 0 255
0.294219 0.281887 -0.066115 0 0 255
0.354802 0.234481 0.147884 0 0 255
0.322640 0.139194 -0.062115 0 0 255
0.292431 0.291253 0.055884 0 0 255
0.208092 0.250688 0.168038 0 0 255
0.297985 0.280279 0.023885 0 0 255
0.256440 0.280584 0.005885 0 0 255
0.245371 0.280601 -0.036115 0 0 255
0.152395 0.306924 0.053885 0 0 255
0.281495 0.296598 0.063884 0 0 255
0.128229 0.260978 0.165884 0 0 255
0.225540 0.282037 -0.060116 0 0 255
0.164794 0.286421 0.097885 0 0 255
0.124018 0.281179 0.021885 0 0 255
0.173971 0.282066 -0.068115 0 0 255
0.312542 0.280023 0.011885 0 0 255
0.185846 0.271470 0.127885 0 0 255
0.102388 0.235190 -0.082115 0 0 255
0.183717 0.140746 -0.014116 0 0 255
0.329064 0.279863 0.027884 0 0 255
0.285982 0.287561 0.037885 0 0 255
0.101209 0.216378 -0.092116 0 0 255
0.192482 0.301129 0.056867 0 0 255
0.352506 0.238576 0.139885 0 0 255
0.230387 0.288832 0.041632 0 0 255
0.219740 0.280794 -0.034115 0 0 255
0.312901 0.280525 0.027884 0 0 255
0.229812 0.139930 0.001885 0 0 255
0.251634 0.281047 -0.054115 0 0 255
0.352447 0.287751 0.066846 0 0 255
0.170393 0.304603 0.054977 0 0 255
0.325257 0.270295 0.114816 0 0 255
0.184603 0.262530 0.148420 0 0 255
0.115791 0.279715 0.123884 0 0 255
0.173072 0.280807 -0.018116 0 0 255
0.263544 0.280212 0.019885 0 0 255
0.309297 0.252199 0.151885 0 0 255
0.244200 0.280645 -0.002115 0 0 255
0.227369 0.281158 0.095281 0 0 255
0.353404 0.247762 -0.028413 0 0 255
0.285529 0.269704 0.107885 0 0 255
0.193240 0.140319 0.001885 0 0 255
0.258462 0.279976 -0.010116 0 0 255
0.344340 0.241943 0.162326 0 0 255
0.116376 0.294311 0.089885 0 0 255
0.131119 0.295766 0.083885 0 0 255
0.287984 0.280036 0.011885 0 0 255
0.337451 0.139294 -0.078115 0 0 255
0.338097 0.291740 0.061885 0 0 255
0.253107 0.284909 -0.064115 0 0 255
0.096118 0.241803 0.021885 0 0 255
0.193123 0.147044 -0.018116 0 0 255
0.162297 0.245036 0.163885 0 0 255
0.122850 0.296501 0.083885 0 0 255
0.129857 0.289297 0.099885 0 0 255
0.158022 0.264293 0.149884 0 0 255
0.091599 0.269909 0.136447 0 0 255
0.300040 0.279717 0.007885 0 0 255
0.143908 0.274361 0.130481 0 0 255
0.147983 0.281281 -0.046116 0 0 255
0.260701 0.300335 0.059884 0 0 255
0.095123 0.186327 -0.040115 0 0 255
0.319369 0.284323 0.065885 0 0 255
0.272698 0.293045 0.044640 0 0 255
0.354232 0.234888 -0.016115 0 0 255
0.330158 0.139054 -0.030115 0 0 255
0.219515 0.266703 0.131885 0 0 255
0.210154 0.298352 0.076859 0 0 255
0.317231 0.280934 -0.062115 0 0 255
0.264568 0.281647 -0.062374 0 0 255
0.134228 0.281455 -0.000116 0 0 255
0.106548 0.256790 0.171885 0 0 255
0.282737 0.278515 0.087884 0 0 255
0.251513 0.263937 0.129884 0 0 255
0.360730 0.242536 0.023885 0 0 255
0.131096 0.277063 0.125885 0 0 255
0.353449 0.178943 0.020621 0 0 255
0.126797 0.277924 0.143884 0 0 255
0.320440 0.294539 0.059884 0 0 255
0.353716 0.292973 0.045884 0 0 255
0.238822 0.280359 0.017884 0 0 255
0.344603 0.287084 -0.056116 0 0 255
0.248047 0.303258 0.040888 0 0 255
0.353490 0.262441 -0.050115 0 0 255
0.313165 0.274007 0.108864 0 0 255
0.269074 0.285805 0.041884 0 0 255
0.354086 0.214278 0.023885 0 0 255
0.178231 0.288040 0.089885 0 0 255
0.346918 0.279999 0.001885 0 0 255
0.348573 0.240988 0.147884 0 0 255
0.243804 0.298915 0.067885 0 0 255
0.193118 0.281357 -0.008115 0 0 255
0.255651 0.288009 -0.052115 0 0 255
0.238165 0.290655 0.069884 0 0 255
0.359233 0.221494 -0.003033 0 0 255
0.236991 0.146550 0.024296 0 0 255
0.301648 0.268194 0.105884 0 0 255
0.102622 0.208001 -0.076115 0 0 255
0.280145 0.282820 0.028306 0 0 255
0.289517 0.264963 0.133884 0 0 255
0.360912 0.266973 -0.002115 0 0 255
0.253750 0.290590 -0.040115 0 0 255
0.229488 0.139477 -0.038116 0 0 255
0.102699 0.182146 0.003884 0 0 255
0.168776 0.288560 -0.055092 0 0 255
0.275143 0.265477 0.135885 0 0 255
0.234577 0.139722 -0.012115 0 0 255
0.108087 0.299912 0.077753 0 0 255
0.277689 0.275932 0.113885 0 0 255
0.318606 0.288523 -0.006115 0 0 255
0.230241 0.302405 0.063884 0 0 255
0.278050 0.286772 -0.069102 0 0 255
0.307254 0.288049 -0.024116 0 0 255
0.236793 0.289176 -0.036115 0 0 255
0.171652 0.275372 0.137884 0 0 255
0.155066 0.276229 0.122643 0 0 255
0.178001 0.289350 0.001885 0 0 255
0.139275 0.288531 -0.040115 0 0 255
0.298693 0.139387 0.009885 0 0 255
0.151931 0.290748 -0.020115 0 0 255
0.241451 0.139027 -0.046116 0 0 255
0.332208 0.147418 -0.046116 0 0 255
0.212824 0.277987 0.123884 0 0 255
0.129538 0.305875 0.059884 0 0 255
0.331397 0.289236 -0.038116 0 0 255
0.262057 0.295347 0.053885 0 0 255
0.265806 0.286827 0.091884 0 0 255
0.356282 0.269017 0.095885 0 0 255
0.360878 0.266997 0.013884 0 0 255
0.101946 0.220766 -0.048115 0 0 255
0.243056 0.268709 0.139885 0 0 255
0.245930 0.148751 0.009885 0 0 255
0.197009 0.286811 0.107885 0 0 255
0.263130 0.148756 -0.016115 0 0 255
0.120875 0.273594 0.135885 0 0 255
0.336371 0.148112 -0.014116 0 0 255
0.263135 0.148762 -0.004116 0 0 255
0.321399 0.288996 0.023885 0 0 255
0.311956 0.148326 -0.046116 0 0 255
0.270337 0.148527 -0.002115 0 0 255
0.199675 0.293993 0.071885 0 0 255
0.132157 0.263090 0.159884 0 0 255
0.302753 0.297295 0.057885 0 0 255
0.304193 0.288981 0.009885 0 0 255
0.300705 0.284091 0.089885 0 0 255
0.187744 0.144827 -0.034115 0 0 255
0.303559 0.258750 0.147884 0 0 255
0.140019 0.275796 0.145885 0 0 255
0.260330 0.148275 0.009885 0 0 255
0.317811 0.280520 0.092845 0 0 255
0.304398 0.278938 0.081885 0 0 255
0.189324 0.289814 -0.004116 0 0 255
0.119602 0.278170 0.145885 0 0 255
0.262574 0.289184 -0.036115 0 0 255
0.286970 0.288945 -0.038116 0 0 255
0.102404 0.200787 -0.058115 0 0 255
0.200941 0.288880 -0.020115 0 0 255
0.102665 0.190773 -0.028116 0 0 255
0.315803 0.288039 -0.038116 0 0 255
0.357414 0.287826 -0.036115 0 0 255
0.275648 0.288484 -0.004116 0 0 255
0.335188 0.253221 0.133884 0 0 255
0.264715 0.147533 -0.030115 0 0 255
0.231673 0.280303 -0.026115 0 0 255
0.120897 0.290774 0.097885 0 0 255
0.166544 0.147666 -0.043097 0 0 255
0.236742 0.280521 -0.056116 0 0 255
0.101744 0.179147 -0.070116 0 0 255
0.251801 0.148269 -0.050115 0 0 255
0.113306 0.290008 -0.012115 0 0 255
0.114777 0.305848 0.063884 0 0 255
0.288036 0.304216 0.040888 0 0 255
0.095032 0.225697 -0.072115 0 0 255
0.295050 0.146899 -0.064115 0 0 255
0.228280 0.309989 0.048874 0 0 255
0.288009 0.280070 -0.016115 0 0 255
0.301922 0.148035 -0.058115 0 0 255
0.176968 0.286267 0.109885 0 0 255
0.121916 0.280222 -0.024116 0 0 255
0.101490 0.206351 0.007885 0 0 255
0.304099 0.288851 0.059884 0 0 255
0.185057 0.276945 0.115074 0 0 255
0.291579 0.278185 0.085885 0 0 255
0.171760 0.146401 -0.058115 0 0 255
0.315727 0.267266 0.122806 0 0 255
0.194564 0.252969 0.167884 0 0 255
0.136544 0.267481 0.147884 0 0 255
0.254734 0.147317 -0.072115 0 0 255
0.173371 0.281226 0.011885 0 0 255
0.261234 0.288940 -0.004116 0 0 255
0.181265 0.140751 -0.024116 0 0 255
0.231221 0.280868 0.021885 0 0 255
0.101391 0.228532 -0.018250 0 0 255
0.114760 0.288602 0.103885 0 0 255
0.097503 0.246046 -0.088116 0 0 255
0.215915 0.148001 0.011885 0 0 255
0.102453 0.192135 -0.048115 0 0 255
0.185798 0.140219 -0.006115 0 0 255
0.310022 0.262714 0.135885 0 0 255
0.360669 0.242580 -0.020115 0 0 255
0.324898 0.290205 0.051885 0 0 255
0.213644 0.289469 0.079885 0 0 255
0.242060 0.139880 -0.008115 0 0 255
0.124721 0.290504 -0.016115 0 0 255
0.139966 0.310163 0.063884 0 0 255
0.214288 0.149163 -0.004116 0 0 255
0.157244 0.293056 0.103885 0 0 255
0.103225 0.268987 0.152554 0 0 255
0.261626 0.138804 -0.066115 0 0 255
0.188759 0.306242 0.062837 0 0 255
0.226974 0.291267 0.071885 0 0 255
0.092208 0.262105 0.157884 0 0 255
0.347941 0.259029 0.103885 0 0 255
0.352504 0.201727 0.012047 0 0 255
0.132362 0.285727 0.105884 0 0 255
0.303574 0.260562 0.123884 0 0 255
0.342141 0.268079 0.115884 0 0 255
0.106612 0.278853 0.147884 0 0 255
0.353440 0.267390 -0.030115 0 0 255
0.171407 0.286683 0.025885 0 0 255
0.314925 0.282578 0.037885 0 0 255
0.254900 0.292203 0.081885 0 0 255
0.354779 0.251695 0.131885 0 0 255
0.197881 0.302192 0.049884 0 0 255
0.187631 0.253000 0.160908 0 0 255
0.362333 0.275785 -0.044115 0 0 255
0.095671 0.237525 -0.042116 0 0 255
0.134538 0.281045 -0.032116 0 0 255
0.287819 0.279803 -0.061432 0 0 255
0.274816 0.254685 0.144535 0 0 255
0.325822 0.288307 -0.044115 0 0 255
0.090278 0.316275 0.049884 0 0 255
0.286913 0.147656 0.023885 0 0 255
0.207512 0.258472 0.163885 0 0 255
0.201352 0.248127 0.166682 0 0 255
0.180509 0.294931 0.075885 0 0 255
0.175972 0.305537 0.042912 0 0 255
0.223122 0.147773 -0.014116 0 0 255
0.101740 0.213544 -0.052115 0 0 255
0.236587 0.283748 0.085885 0 0 255
0.185753 0.281363 0.002196 0 0 255
0.102465 0.183546 -0.030115 0 0 255
0.280874 0.235624 0.161124 0 0 255
0.167706 0.290504 -0.034115 0 0 255
0.150731 0.314923 0.047885 0 0 255
0.237594 0.288605 -0.051112 0 0 255
0.259771 0.288699 0.013884 0 0 255
0.361295 0.269157 -0.033099 0 0 255
0.154653 0.282536 0.109885 0 0 255
0.360270 0.210928 -0.002115 0 0 255
0.135144 0.296515 0.097885 0 0 255
0.215449 0.140458 0.019885 0 0 255
0.266409 0.139576 0.015885 0 0 255
0.360253 0.253920 -0.002115 0 0 255
0.293404 0.148073 -0.038116 0 0 255
0.353261 0.261338 -0.084116 0 0 255
0.355795 0.288999 0.011885 0 0 255
0.124000 0.280892 -0.034115 0 0 255
0.095627 0.179121 -0.080115 0 0 255
0.319468 0.146679 -0.070116 0 0 255
0.237031 0.279180 0.113885 0 0 255
0.165973 0.260522 0.157884 0 0 255
0.102137 0.236465 -0.094115 0 0 255
0.216824 0.288681 -0.024116 0 0 255
0.347913 0.267616 0.091884 0 0 255
0.316376 0.147634 -0.062115 0 0 255
0.353749 0.274539 -0.010116 0 0 255
0.238729 0.148988 -0.058115 0 0 255
0.360695 0.276955 -0.032116 0 0 255
0.230055 0.140272 0.017884 0 0 255
0.287852 0.147120 -0.058115 0 0 255
0.245627 0.287789 -0.052115 0 0 255
0.095739 0.232564 -0.024116 0 0 255
0.086816 0.292974 0.069884 0 0 255
0.096795 0.287524 0.109885 0 0 255
0.352937 0.250551 0.148689 0 0 255
0.327341 0.283548 0.037476 0 0 255
0.288775 0.239814 0.162721 0 0 255
0.361411 0.264160 -0.048115 0 0 255
0.117094 0.264322 0.157884 0 0 255
0.360447 0.226639 0.011885 0 0 255
0.252704 0.292567 0.045111 0 0 255
0.091977 0.270439 0.159884 0 0 255
0.338369 0.264568 0.125885 0 0 255
0.097401 0.246117 0.015885 0 0 255
0.284777 0.139486 0.005885 0 0 255
0.095721 0.188356 -0.032116 0 0 255
0.101200 0.190379 -0.072115 0 0 255
0.282971 0.286783 -0.060116 0 0 255
0.329266 0.275916 0.101884 0 0 255
0.093467 0.258751 0.164191 0 0 255
0.257224 0.278238 0.093885 0 0 255
0.131552 0.281147 -0.046116 0 0 255
0.126290 0.247621 0.167884 0 0 255
0.325576 0.139865 -0.074369 0 0 255
0.105362 0.265095 0.159884 0 0 255
0.340362 0.279174 -0.034115 0 0 255
0.196543 0.289602 -0.042116 0 0 255
0.144818 0.303191 0.063322 0 0 255
0.234644 0.139816 -0.024116 0 0 255
0.349061 0.279559 -0.014116 0 0 255
0.355253 0.226245 -0.028116 0 0 255
0.228530 0.282787 0.108911 0 0 255
0.349148 0.279680 -0.022115 0 0 255
0.325040 0.245883 0.162493 0 0 255
0.354196 0.202977 0.021885 0 0 255
0.313229 0.291319 0.051885 0 0 255
0.157593 0.289166 0.093885 0 0 255
0.115988 0.304102 0.045070 0 0 255
0.356732 0.221431 -0.018116 0 0 255
0.172500 0.283447 -0.051591 0 0 255
0.184580 0.296940 0.068964 0 0 255
0.158273 0.149848 0.017884 0 0 255
0.251108 0.293773 0.061885 0 0 255
0.214138 0.248833 0.158870 0 0 255
0.098841 0.193959 0.021885 0 0 255
0.124369 0.288298 -0.052981 0 0 255
0.333068 0.246805 0.149884 0 0 255
0.085764 0.283898 0.125885 0 0 255
0.340824 0.268011 0.099885 0 0 255
0.083149 0.307873 0.047885 0 0 255
0.168408 0.294932 0.095885 0 0 255
0.303541 0.274292 0.093885 0 0 255
0.261998 0.138539 -0.078115 0 0 255
0.352236 0.275618 0.069884 0 0 255
0.121795 0.312243 0.046907 0 0 255
0.162819 0.311204 0.045884 0 0 255
0.351604 0.262459 0.127885 0 0 255
0.121217 0.294210 0.109885 0 0 255
0.089844 0.293272 0.115884 0 0 255
0.226973 0.304711 0.057885 0 0 255
0.104177 0.277209 0.131885 0 0 255
0.309202 0.289117 0.034944 0 0 255
0.276719 0.281463 0.099885 0 0 255
0.289231 0.254229 0.143106 0 0 255
0.276649 0.295140 0.036911 0 0 255
0.172054 0.251828 0.160843 0 0 255
0.353975 0.284204 0.025885 0 0 255
0.291380 0.271020 0.103885 0 0 255
0.361191 0.205357 0.023885 0 0 255
0.251801 0.280969 0.011885 0 0 255
0.143303 0.290732 0.003884 0 0 255
0.236709 0.270143 0.117885 0 0 255
0.342072 0.293870 0.055884 0 0 255
0.223896 0.259069 0.146181 0 0 255
0.246193 0.280015 0.023885 0 0 255
0.095105 0.226606 -0.088116 0 0 255
0.100024 0.224593 0.015885 0 0 255
0.334713 0.261093 0.133884 0 0 255
0.228271 0.263319 0.153885 0 0 255
0.093729 0.214345 0.005693 0 0 255
0.310188 0.280167 0.019885 0 0 255
0.227859 0.243959 0.164600 0 0 255
0.335916 0.262692 0.111885 0 0 255
0.162784 0.311156 0.057885 0 0 255
0.352222 0.187188 0.001885 0 0 255
0.273148 0.279900 0.007885 0 0 255
0.095118 0.223180 -0.011410 0 0 255
0.101666 0.196399 -0.076115 0 0 255
0.300162 0.286776 -0.060116 0 0 255
0.330112 0.139337 -0.052115 0 0 255
0.227983 0.273351 0.131885 0 0 255
0.272148 0.261277 0.129884 0 0 255
0.099366 0.303676 0.071885 0 0 255
0.307757 0.280201 -0.038116 0 0 255
0.274360 0.240270 0.163020 0 0 255
0.148427 0.277252 0.139885 0 0 255
0.278085 0.273045 0.101884 0 0 255
0.325857 0.279695 0.003884 0 0 255
0.241050 0.264030 0.147884 0 0 255
0.317811 0.280520 -0.046845 0 0 255
0.319074 0.255052 0.133884 0 0 255
0.254798 0.288616 -0.017083 0 0 255
0.353096 0.243885 0.015885 0 0 255
0.142261 0.278940 0.119884 0 0 255
0.221566 0.283354 0.089885 0 0 255
0.266969 0.238172 0.161885 0 0 255
0.084707 0.315350 0.059884 0 0 255
0.211092 0.280486 -0.022115 0 0 255
0.101608 0.252944 -0.041075 0 0 255
0.359759 0.196552 0.011885 0 0 255
0.219061 0.139685 -0.014116 0 0 255
0.096439 0.180261 0.017884 0 0 255
0.283400 0.147839 -0.002115 0 0 255
0.162683 0.149141 0.003884 0 0 255
0.311067 0.140388 -0.064115 0 0 255
0.187985 0.289597 -0.022115 0 0 255
0.159901 0.148687 -0.066115 0 0 255
0.351593 0.172898 0.007536 0 0 255
0.257267 0.285187 0.025885 0 0 255
0.308227 0.139652 -0.020115 0 0 255
0.239690 0.284654 -0.064780 0 0 255
0.328587 0.288741 0.071885 0 0 255
0.277548 0.148303 -0.048115 0 0 255
0.103147 0.205169 -0.024116 0 0 255
0.313621 0.145936 0.023885 0 0 255
0.102421 0.252364 -0.056116 0 0 255
0.287278 0.253165 0.159884 0 0 255
0.361629 0.254178 -0.018116 0 0 255
0.317235 0.288300 0.017884 0 0 255
0.231465 0.280693 -0.042116 0 0 255
0.170378 0.294250 0.077884 0 0 255
0.345240 0.287977 -0.039158 0 0 255
0.316292 0.139118 -0.036115 0 0 255
0.125531 0.289926 -0.039151 0 0 255
0.170029 0.310982 0.045884 0 0 255
0.288286 0.277013 0.108882 0 0 255
0.130404 0.303647 0.084859 0 0 255
0.118540 0.314566 0.062842 0 0 255
0.138318 0.290632 0.016877 0 0 255
0.228723 0.148737 -0.020115 0 0 255
0.099695 0.233040 0.011885 0 0 255
0.271752 0.148777 0.007885 0 0 255
0.304756 0.148563 0.009885 0 0 255
0.278741 0.139644 0.021885 0 0 255
0.233630 0.279150 0.097885 0 0 255
0.294506 0.287316 -0.054115 0 0 255
0.100077 0.283515 0.137884 0 0 255
0.221563 0.273017 0.114869 0 0 255
0.156797 0.304474 0.077884 0 0 255
0.300342 0.149264 0.019885 0 0 255
0.130259 0.317220 0.053885 0 0 255
0.333584 0.147650 -0.006115 0 0 255
0.177145 0.289960 -0.011118 0 0 255
0.323562 0.147374 0.003884 0 0 255
0.098546 0.314087 0.066857 0 0 255
0.181562 0.289266 -0.049105 0 0 255
0.245375 0.289180 0.015885 0 0 255
0.262701 0.292806 0.036933 0 0 255
0.338590 0.147779 -0.037102 0 0 255
0.136668 0.281431 0.009885 0 0 255
0.293398 0.280737 0.098828 0 0 255
0.268507 0.300947 0.058876 0 0 255
0.184248 0.311916 0.051885 0 0 255
0.235923 0.148498 0.013884 0 0 255
0.107307 0.281597 0.121885 0 0 255
0.352447 0.287751 -0.041124 0 0 255
0.306413 0.288650 -0.009108 0 0 255
0.208525 0.299513 0.056994 0 0 255
0.361164 0.256967 -0.026115 0 0 255
0.228949 0.267748 0.143884 0 0 255
0.102141 0.227998 -0.034115 0 0 255
0.333011 0.146846 -0.061098 0 0 255
0.097156 0.305253 0.045013 0 0 255
0.335534 0.281259 0.083885 0 0 255
0.334812 0.235472 0.153885 0 0 255
0.269777 0.288949 -0.022115 0 0 255
0.361668 0.219757 0.025885 0 0 255
0.102425 0.183574 -0.042116 0 0 255
0.163101 0.258214 0.163885 0 0 255
0.266990 0.288486 -0.048115 0 0 255
0.191076 0.284936 0.093885 0 0 255
0.334081 0.286111 0.035031 0 0 255
0.353547 0.268626 -0.020115 0 0 255
0.229226 0.287204 0.026842 0 0 255
0.313750 0.283417 0.087884 0 0 255
0.233347 0.275762 0.105884 0 0 255
0.259545 0.281493 0.103885 0 0 255
0.174942 0.142220 0.025885 0 0 255
0.102887 0.240961 -0.078115 0 0 255
0.134308 0.271235 0.137884 0 0 255
0.176366 0.307712 0.061885 0 0 255
0.211976 0.280243 0.019885 0 0 255
0.190398 0.287876 -0.071073 0 0 255
0.353210 0.188940 0.017081 0 0 255
0.102110 0.228019 -0.042116 0 0 255
0.201500 0.148456 0.017884 0 0 255
0.187613 0.294303 0.043885 0 0 255
0.230101 0.252187 0.161885 0 0 255
0.343891 0.288940 0.049884 0 0 255
0.194185 0.262189 0.145885 0 0 255
0.343603 0.285683 0.057885 0 0 255
0.100750 0.244853 -0.050115 0 0 255
0.305732 0.139279 -0.058115 0 0 255
0.313466 0.232029 0.157884 0 0 255
0.350825 0.239774 0.159884 0 0 255
0.109403 0.294869 0.089885 0 0 255
0.252260 0.260947 0.152774 0 0 255
0.353617 0.275614 0.013884 0 0 255
0.190920 0.288608 -0.030115 0 0 255
0.178595 0.302326 0.073884 0 0 255
0.219104 0.277228 0.105884 0 0 255
0.353176 0.240554 -0.025217 0 0 255
0.197314 0.140458 0.019885 0 0 255
0.086622 0.273262 0.123884 0 0 255
0.343178 0.279622 0.021885 0 0 255
0.248081 0.251645 0.160939 0 0 255
0.308870 0.139499 0.007885 0 0 255
0.268576 0.287266 -0.058115 0 0 255
0.336088 0.287136 -0.064115 0 0 255
0.115306 0.282480 -0.046475 0 0 255
0.313545 0.147108 -0.034115 0 0 255
0.154592 0.296228 0.075885 0 0 255
0.121771 0.270498 0.143884 0 0 255
0.217750 0.280649 -0.020115 0 0 255
0.205986 0.271844 0.120277 0 0 255
0.334375 0.258968 0.121885 0 0 255
0.224566 0.148042 -0.038116 0 0 255
0.326837 0.256885 0.143884 0 0 255
0.360435 0.252573 0.021885 0 0 255
0.253143 0.139941 0.011885 0 0 255
0.242707 0.292328 0.082878 0 0 255
0.245928 0.148747 -0.032116 0 0 255
0.240322 0.147776 -0.028116 0 0 255
0.319435 0.139331 -0.000116 0 0 255
0.099622 0.243271 -0.094115 0 0 255
0.323568 0.147384 0.013884 0 0 255
0.176905 0.299957 0.062692 0 0 255
0.094793 0.184105 -0.050115 0 0 255
0.261892 0.267563 0.137884 0 0 255
0.224364 0.294166 0.065885 0 0 255
0.168860 0.281129 -0.024116 0 0 255
0.339657 0.279677 0.027884 0 0 255
0.322840 0.247452 0.151885 0 0 255
0.353227 0.278511 0.087884 0 0 255
0.310915 0.291517 0.069884 0 0 255
0.187326 0.282698 -0.062115 0 0 255
0.360243 0.228144 -0.020115 0 0 255
0.329367 0.251948 0.137884 0 0 255
0.181802 0.146608 -0.018116 0 0 255
0.206919 0.280042 0.101884 0 0 255
0.097800 0.213165 -0.098116 0 0 255
0.102186 0.193572 -0.040115 0 0 255
0.224197 0.287043 -0.052115 0 0 255
0.093672 0.300368 0.050215 0 0 255
0.219695 0.284175 0.028457 0 0 255
0.180185 0.263225 0.156479 0 0 255
0.258631 0.285883 0.075885 0 0 255
0.146540 0.267571 0.143884 0 0 255
0.135994 0.287375 0.026704 0 0 255
0.088116 0.265024 0.152961 0 0 255
0.149515 0.278776 0.117885 0 0 255
0.196205 0.296018 0.041137 0 0 255
0.334432 0.288317 0.021885 0 0 255
0.095042 0.178301 -0.020115 0 0 255
0.284833 0.275616 0.093885 0 0 255
0.213899 0.258830 0.156433 0 0 255
0.172738 0.273450 0.124691 0 0 255
0.196688 0.280933 -0.028116 0 0 255
0.353455 0.285720 0.059884 0 0 255
0.190220 0.266963 0.135885 0 0 255
0.095518 0.199633 -0.022115 0 0 255
0.105278 0.285642 0.111885 0 0 255
0.294554 0.250433 0.149884 0 0 255
0.095596 0.199742 -0.030115 0 0 255
0.353348 0.258015 -0.018116 0 0 255
0.361339 0.281408 -0.002115 0 0 255
0.091535 0.300815 0.073884 0 0 255
0.217760 0.260990 0.143884 0 0 255
0.332070 0.255738 0.127885 0 0 255
0.285669 0.266456 0.113885 0 0 255
0.101492 0.180454 -0.004116 0 0 255
0.219946 0.256974 0.166725 0 0 255
0.269144 0.146853 -0.040115 0 0 255
0.184124 0.282525 0.100747 0 0 255
0.352288 0.177315 -0.047801 0 0 255
0.239314 0.308236 0.049884 0 0 255
0.097819 0.297410 0.105884 0 0 255
0.088798 0.286647 0.094814 0 0 255
0.336367 0.148107 0.017884 0 0 255
0.179680 0.265962 0.139885 0 0 255
0.354110 0.234975 -0.034618 0 0 255
0.360436 0.252573 -0.042116 0 0 255
0.300551 0.268264 0.125885 0 0 255
0.338593 0.288992 -0.018116 0 0 255
0.353439 0.261587 -0.008115 0 0 255
0.226828 0.288914 -0.002115 0 0 255
0.202423 0.271929 0.139885 0 0 255
0.180337 0.147654 0.023885 0 0 255
0.094412 0.235966 -0.000603 0 0 255
0.275645 0.288487 0.009885 0 0 255
0.129165 0.289791 0.005885 0 0 255
0.243970 0.139114 -0.052435 0 0 255
0.126030 0.309223 0.053885 0 0 255
0.150245 0.283245 0.125885 0 0 255
0.098297 0.182864 0.023885 0 0 255
0.300601 0.147853 -0.038116 0 0 255
0.119160 0.289557 0.005885 0 0 255
0.096796 0.242753 0.009885 0 0 255
0.210152 0.148496 0.005885 0 0 255
0.146357 0.289811 -0.012115 0 0 255
0.280872 0.280395 -0.032116 0 0 255
0.151571 0.288548 -0.049089 0 0 255
0.207110 0.149433 -0.016115 0 0 255
0.255093 0.299360 0.065885 0 0 255
0.292823 0.288516 -0.000116 0 0 255
0.359268 0.259428 -0.014116 0 0 255
0.273383 0.147615 -0.014116 0 0 255
0.098340 0.272471 0.158679 0 0 255
0.307714 0.302462 0.041884 0 0 255
0.102531 0.264569 0.169024 0 0 255
0.201203 0.296136 0.087884 0 0 255
0.102109 0.198540 -0.051136 0 0 255
0.335482 0.277741 0.094873 0 0 255
0.182108 0.283963 0.027884 0 0 255
0.331759 0.282854 0.067262 0 0 255
0.173542 0.290073 -0.048115 0 0 255
0.298738 0.291667 0.053432 0 0 255
0.215946 0.148043 -0.018116 0 0 255
0.127750 0.280973 0.137884 0 0 255
0.250051 0.287090 0.093885 0 0 255
0.153087 0.309577 0.063884 0 0 255
0.110248 0.316717 0.059884 0 0 255
0.286885 0.285382 0.088857 0 0 255
0.111020 0.295363 0.105884 0 0 255
0.332906 0.279579 0.003884 0 0 255
0.234428 0.277278 0.119884 0 0 255
0.239274 0.140008 0.009885 0 0 255
0.231548 0.290461 0.090855 0 0 255
0.101424 0.318124 0.049884 0 0 255
0.200192 0.148231 -0.016115 0 0 255
0.244247 0.278946 0.113885 0 0 255
0.277462 0.285947 0.091884 0 0 255
0.237528 0.147303 -0.018116 0 0 255
0.197475 0.266801 0.151885 0 0 255
0.242811 0.295918 0.075885 0 0 255
0.270185 0.280098 -0.040115 0 0 255
0.150002 0.284754 0.103885 0 0 255
0.296342 0.147099 -0.022115 0 0 255
0.328157 0.282967 0.085885 0 0 255
0.281205 0.289434 -0.020115 0 0 255
0.095568 0.189370 -0.020115 0 0 255
0.134275 0.293515 0.103885 0 0 255
0.206999 0.269821 0.145885 0 0 255
0.256090 0.293870 0.037885 0 0 255
0.283162 0.290495 0.043285 0 0 255
0.333103 0.279439 0.015885 0 0 255
0.354403 0.262939 0.103885 0 0 255
0.123050 0.265784 0.169885 0 0 255
0.110638 0.310376 0.072833 0 0 255
0.247136 0.274429 0.122837 0 0 255
0.101513 0.214926 -0.076115 0 0 255
0.278380 0.139137 -0.035384 0 0 255
0.140755 0.281524 -0.012115 0 0 255
0.253929 0.266732 0.121885 0 0 255
0.119327 0.305337 0.081885 0 0 255
0.100958 0.174794 -0.024116 0 0 255
0.300230 0.145662 0.025598 0 0 255
0.312310 0.259033 0.125885 0 0 255
0.182712 0.308098 0.058823 0 0 255
0.294701 0.258454 0.131885 0 0 255
0.246277 0.300778 0.061885 0 0 255
0.212578 0.146766 0.024262 0 0 255
0.331047 0.288275 0.053885 0 0 255
0.209619 0.288906 0.009885 0 0 255
0.100986 0.183190 -0.078115 0 0 255
0.344589 0.287065 -0.030115 0 0 255
0.314845 0.293583 0.063884 0 0 255
0.123055 0.283013 0.131885 0 0 255
0.299433 0.296085 0.038993 0 0 255
0.090685 0.265648 0.165884 0 0 255
0.094538 0.216223 -0.060116 0 0 255
0.282142 0.258068 0.135885 0 0 255
0.303265 0.280793 -0.060116 0 0 255
0.096169 0.202777 -0.040115 0 0 255
0.247849 0.144553 0.025885 0 0 255
0.359758 0.256670 -0.048115 0 0 255
0.151382 0.302060 0.081885 0 0 255
0.094333 0.222080 0.005885 0 0 255
0.360005 0.229463 -0.000116 0 0 255
0.353132 0.278379 -0.000116 0 0 255
0.263133 0.148760 -0.082115 0 0 255
0.215834 0.144443 -0.024861 0 0 255
0.287140 0.297483 0.059884 0 0 255
0.168664 0.147195 -0.036115 0 0 255
0.359361 0.275448 -0.014116 0 0 255
0.094559 0.236174 -0.018116 0 0 255
0.282024 0.254457 0.152441 0 0 255
0.289209 0.288639 0.026843 0 0 255
0.319854 0.276606 0.083885 0 0 255
0.086749 0.297936 0.089885 0 0 255
0.100424 0.246418 -0.064115 0 0 255
0.183250 0.140663 0.019885 0 0 255
0.132641 0.311877 0.063884 0 0 255
0.347349 0.276647 0.047885 0 0 255
0.101910 0.194818 0.003884 0 0 255
0.309464 0.244711 0.162510 0 0 255
0.097882 0.297365 0.085885 0 0 255
0.106354 0.290594 0.099885 0 0 255
0.128560 0.280396 0.120375 0 0 255
0.248058 0.286054 0.026667 0 0 255
0.149751 0.287390 0.025885 0 0 255
0.335286 0.291245 0.047885 0 0 255
0.260094 0.279926 -0.018116 0 0 255
0.089226 0.303538 0.061885 0 0 255
0.341844 0.248777 0.141885 0 0 255
0.180314 0.146307 -0.034115 0 0 255
0.210839 0.240762 0.163885 0 0 255
0.206843 0.288430 -0.014116 0 0 255
0.086545 0.273514 0.133884 0 0 255
0.352906 0.245660 0.119884 0 0 255
0.259337 0.280465 -0.042116 0 0 255
0.246880 0.139750 -0.022115 0 0 255
0.095823 0.232503 -0.034115 0 0 255
0.314526 0.286248 -0.058115 0 0 255
0.307381 0.276231 0.087884 0 0 255
0.092471 0.260798 0.173885 0 0 255
0.178903 0.140885 0.005885 0 0 255
0.353293 0.254494 0.005885 0 0 255
0.353792 0.257311 0.115884 0 0 255
0.087309 0.277670 0.103885 0 0 255
0.138116 0.276574 0.125885 0 0 255
0.359025 0.286641 -0.022115 0 0 255
0.336348 0.279581 -0.018116 0 0 255
0.305777 0.287758 -0.046116 0 0 255
0.103587 0.245385 -0.044115 0 0 255
0.274289 0.139599 0.015885 0 0 255
0.160766 0.280774 -0.024116 0 0 255
0.097202 0.236433 -0.098577 0 0 255
0.132900 0.284670 0.125885 0 0 255
0.233100 0.147983 -0.038116 0 0 255
0.156923 0.282274 0.028086 0 0 255
0.333549 0.147599 -0.020115 0 0 255
0.251603 0.139484 -0.064115 0 0 255
0.264732 0.147558 -0.062115 0 0 255
0.102928 0.180760 0.015885 0 0 255
0.303624 0.288183 0.042606 0 0 255
0.113478 0.269585 0.147884 0 0 255
0.361173 0.256960 -0.036115 0 0 255
0.282171 0.266635 0.131885 0 0 255
0.348876 0.270645 0.107885 0 0 255
0.136525 0.270898 0.157884 0 0 255
0.096686 0.185212 -0.000116 0 0 255
0.322718 0.242627 0.156989 0 0 255
0.352252 0.249592 -0.016115 0 0 255
0.095157 0.225609 -0.052115 0 0 255
0.314189 0.289220 0.007885 0 0 255
0.230137 0.293924 0.045884 0 0 255
0.203742 0.289363 -0.006115 0 0 255
0.182122 0.290050 0.017884 0 0 255
0.231512 0.149203 -0.004116 0 0 255
0.140508 0.290259 -0.024116 0 0 255
0.333409 0.247284 0.156983 0 0 255
0.287541 0.148536 -0.012115 0 0 255
0.101963 0.229333 -0.070116 0 0 255
0.352687 0.277753 -0.052540 0 0 255
0.240958 0.289877 -0.008115 0 0 255
0.225263 0.302314 0.040892 0 0 255
0.116104 0.290485 -0.042116 0 0 255
0.303976 0.264569 0.133884 0 0 255
0.323949 0.265017 0.127885 0 0 255
0.286979 0.288959 0.081885 0 0 255
0.329424 0.296803 0.036893 0 0 255
0.155937 0.280892 -0.030115 0 0 255
0.294196 0.288744 0.011885 0 0 255
0.101997 0.186336 -0.090115 0 0 255
0.176784 0.296343 0.091884 0 0 255
0.258611 0.304292 0.049884 0 0 255
0.230714 0.299623 0.069884 0 0 255
0.360268 0.193732 0.019885 0 0 255
0.246788 0.289418 -0.040115 0 0 255
0.132066 0.250871 0.168700 0 0 255
0.185737 0.148715 0.001885 0 0 255
0.272814 0.286321 0.071885 0 0 255
0.246783 0.289421 -0.028116 0 0 255
0.184906 0.273289 0.139885 0 0 255
0.113052 0.317205 0.049884 0 0 255
0.251227 0.288708 -0.006115 0 0 255
0.121603 0.253422 0.170297 0 0 255
0.265984 0.262968 0.127885 0 0 255
0.319210 0.272151 0.112864 0 0 255
0.304600 0.286109 0.065885 0 0 255
0.100947 0.196912 -0.013309 0 0 255
0.246303 0.242264 0.163885 0 0 255
0.129493 0.274817 0.131896 0 0 255
0.218831 0.293296 0.085885 0 0 255
0.095317 0.213127 -0.086115 0 0 255
0.265979 0.276736 0.095885 0 0 255
0.257539 0.139263 -0.026115 0 0 255
0.096996 0.194817 -0.098623 0 0 255
0.136666 0.306550 0.057885 0 0 255
0.324449 0.288069 -0.066115 0 0 255
0.095448 0.220199 -0.038116 0 0 255
0.277002 0.288747 -0.062115 0 0 255
0.314804 0.255641 0.150753 0 0 255
0.189609 0.303179 0.049884 0 0 255
0.187186 0.142164 -0.028116 0 0 255
0.252214 0.274660 0.103885 0 0 255
0.101415 0.194122 0.015705 0 0 255
0.347802 0.281237 0.035398 0 0 255
0.258005 0.242109 0.163885 0 0 255
0.131071 0.268778 0.143884 0 0 255
0.352942 0.280028 0.043885 0 0 255
0.181374 0.255008 0.169885 0 0 255
0.094423 0.218762 -0.095619 0 0 255
0.200051 0.277301 0.109885 0 0 255
0.191810 0.262303 0.154469 0 0 255
0.169721 0.265775 0.156639 0 0 255
0.095312 0.227955 -0.064115 0 0 255
0.118790 0.287364 0.026706 0 0 255
0.354282 0.211107 0.001885 0 0 255
0.176199 0.271413 0.129884 0 0 255
0.185741 0.298568 0.082797 0 0 255
0.144245 0.281491 0.023885 0 0 255
0.236063 0.139842 0.003884 0 0 255
0.311679 0.287350 -0.066115 0 0 255
0.221839 0.147531 -0.000116 0 0 255
0.161635 0.276456 0.119884 0 0 255
0.287371 0.289949 0.061885 0 0 255
0.350224 0.288077 -0.066115 0 0 255
0.095971 0.212745 -0.014116 0 0 255
0.244609 0.274331 0.105884 0 0 255
0.126890 0.281499 -0.000116 0 0 255
0.097816 0.204058 -0.098116 0 0 255
0.330859 0.236820 0.160277 0 0 255
0.260396 0.141480 -0.086115 0 0 255
0.208057 0.264415 0.137884 0 0 255
0.275810 0.287076 0.025885 0 0 255
0.277478 0.139780 -0.020115 0 0 255
0.283427 0.147820 -0.042116 0 0 255
0.094311 0.201383 0.023885 0 0 255
0.151707 0.257741 0.163885 0 0 255
0.267358 0.282115 0.084217 0 0 255
0.167233 0.279508 0.111885 0 0 255
0.106843 0.300800 0.049884 0 0 255
0.224813 0.280526 0.011885 0 0 255
0.302325 0.141710 -0.072607 0 0 255
0.210176 0.263943 0.154806 0 0 255
0.354804 0.239393 0.028310 0 0 255
0.235095 0.281657 0.091884 0 0 255
0.153307 0.290982 0.109885 0 0 255
0.294104 0.267950 0.126819 0 0 255
0.251327 0.256195 0.145885 0 0 255
0.098827 0.188598 -0.008115 0 0 255
0.192983 0.246727 0.166178 0 0 255
0.271229 0.280652 -0.062115 0 0 255
0.142634 0.289796 0.093885 0 0 255
0.302724 0.242149 0.154724 0 0 255
0.084881 0.306638 0.079885 0 0 255
0.241318 0.283493 0.102836 0 0 255
0.273100 0.278018 0.107885 0 0 255
0.093313 0.283427 0.113885 0 0 255
0.359785 0.239487 0.009885 0 0 255
0.142102 0.306271 0.075885 0 0 255
0.275763 0.280121 0.013884 0 0 255
0.153114 0.275164 0.143884 0 0 255
0.248742 0.307677 0.046851 0 0 255
0.142290 0.258318 0.164935 0 0 255
0.217017 0.287309 0.103885 0 0 255
0.160516 0.266648 0.143884 0 0 255
0.101287 0.207720 -0.060116 0 0 255
0.095727 0.241254 -0.036115 0 0 255
0.196890 0.272869 0.121885 0 0 255
0.256007 0.280384 -0.032116 0 0 255
0.237856 0.244199 0.165423 0 0 255
0.206908 0.283469 0.112843 0 0 255
0.195076 0.280658 0.005885 0 0 255
0.209267 0.290220 0.093885 0 0 255
0.107154 0.305491 0.086873 0 0 255
0.329769 0.138856 -0.066115 0 0 255
0.184807 0.304147 0.070882 0 0 255
0.187722 0.291014 0.103885 0 0 255
0.269345 0.265957 0.139885 0 0 255
0.322973 0.139661 -0.016115 0 0 255
0.102337 0.205748 -0.045155 0 0 255
0.206072 0.309850 0.051885 0 0 255
0.138605 0.304811 0.051885 0 0 255
0.095112 0.178399 -0.012115 0 0 255
0.127724 0.289556 0.015885 0 0 255
0.202274 0.259752 0.156163 0 0 255
0.301072 0.277719 0.104825 0 0 255
0.324678 0.279816 0.013884 0 0 255
0.218492 0.250641 0.167884 0 0 255
0.221047 0.297952 0.073884 0 0 255
0.227394 0.139984 -0.004116 0 0 255
0.095042 0.188632 -0.080115 0 0 255
0.141574 0.288309 0.114863 0 0 255
0.290043 0.270847 0.121885 0 0 255
0.236776 0.256461 0.147884 0 0 255
0.189569 0.297045 0.087884 0 0 255
0.164543 0.146635 -0.070116 0 0 255
0.230374 0.268150 0.123884 0 0 255
0.178773 0.288798 0.024863 0 0 255
0.131480 0.275856 0.147884 0 0 255
0.197730 0.299843 0.075885 0 0 255
0.164586 0.296462 0.090855 0 0 255
0.212107 0.273537 0.133884 0 0 255
0.256961 0.288202 -0.060116 0 0 255
0.101516 0.214930 -0.036115 0 0 255
0.152732 0.290176 -0.003119 0 0 255
0.204585 0.280214 0.118825 0 0 255
0.113345 0.298618 0.099885 0 0 255
0.324463 0.288058 -0.030115 0 0 255
0.337443 0.287380 0.073884 0 0 255
0.094691 0.198918 -0.078115 0 0 255
0.094676 0.198929 -0.070116 0 0 255
0.146134 0.280926 -0.026115 0 0 255
0.289163 0.138815 -0.042116 0 0 255
0.222086 0.280640 -0.050115 0 0 255
0.354133 0.269352 -0.054115 0 0 255
0.122723 0.301756 0.071885 0 0 255
0.345854 0.275061 0.081885 0 0 255
0.084262 0.292339 0.105884 0 0 255
0.147609 0.303657 0.050855 0 0 255
0.348343 0.271025 0.059884 0 0 255
0.122513 0.282252 -0.048158 0 0 255
0.245052 0.261175 0.152825 0 0 255
0.342289 0.235623 0.153885 0 0 255
0.128888 0.280856 -0.012115 0 0 255
0.094762 0.215794 -0.022115 0 0 255
0.329172 0.148351 -0.074116 0 0 255
0.337201 0.138943 -0.057707 0 0 255
0.096052 0.217600 0.014641 0 0 255
0.252009 0.288150 0.073184 0 0 255
0.330144 0.139063 0.007885 0 0 255
0.134032 0.281180 0.023885 0 0 255
0.234483 0.139591 -0.046116 0 0 255
0.142064 0.251110 0.168790 0 0 255
0.268542 0.249334 0.164636 0 0 255
0.253940 0.139315 -0.040115 0 0 255
0.336415 0.139504 -0.016115 0 0 255
0.128560 0.280396 -0.020979 0 0 255
0.095241 0.193612 -0.060116 0 0 255
0.287313 0.287534 -0.054115 0 0 255
0.100708 0.206908 0.015774 0 0 255
0.163434 0.281070 -0.010116 0 0 255
0.095850 0.227570 -0.028116 0 0 255
0.345262 0.253569 0.129884 0 0 255
0.097407 0.246113 -0.078115 0 0 255
0.218990 0.296962 0.047440 0 0 255
0.226993 0.146311 0.024121 0 0 255
0.184124 0.287438 -0.066115 0 0 255
0.095246 0.210805 -0.030115 0 0 255
0.096189 0.207676 -0.020115 0 0 255
0.177208 0.296937 0.047885 0 0 255
0.164370 0.272049 0.148878 0 0 255
0.265919 0.266321 0.119884 0 0 255
0.107118 0.276036 0.153885 0 0 255
0.229226 0.287204 -0.063025 0 0 255
0.344086 0.279473 -0.064115 0 0 255
0.220972 0.280807 0.097885 0 0 255
0.298018 0.280324 0.013884 0 0 255
0.167637 0.252522 0.169284 0 0 255
0.166681 0.292511 0.082754 0 0 255
0.313645 0.141005 -0.070116 0 0 255
0.133271 0.299146 0.075885 0 0 255
0.357474 0.244859 0.131885 0 0 255
0.248713 0.149208 -0.080115 0 0 255
0.307107 0.293068 0.044694 0 0 255
0.293548 0.146627 -0.050115 0 0 255
0.232541 0.288408 -0.022115 0 0 255
0.166513 0.288832 -0.020115 0 0 255
0.269866 0.140296 -0.078115 0 0 255
0.227513 0.147039 -0.026115 0 0 255
0.135768 0.280168 0.134809 0 0 255
0.280871 0.279846 -0.006115 0 0 255
0.094738 0.193971 -0.090115 0 0 255
0.190727 0.140242 -0.011992 0 0 255
0.095079 0.230577 -0.040115 0 0 255
0.171146 0.281549 -0.012115 0 0 255
0.249051 0.139349 -0.074116 0 0 255
0.361219 0.196723 0.001885 0 0 255
0.349404 0.231822 0.149884 0 0 255
0.272732 0.241432 0.156477 0 0 255
0.193740 0.289118 -0.018116 0 0 255
0.352695 0.245811 0.003884 0 0 255
0.098113 0.304569 0.051885 0 0 255
0.296173 0.148555 0.005885 0 0 255
0.273990 0.289668 -0.010116 0 0 255
0.104398 0.253410 0.164559 0 0 255
0.279917 0.289390 0.037885 0 0 255
0.149737 0.248093 0.163242 0 0 255
0.147242 0.310032 0.045884 0 0 255
0.354402 0.280157 0.081885 0 0 255
0.114632 0.274647 0.135885 0 0 255
0.198995 0.296484 0.047386 0 0 255
0.263628 0.273441 0.117885 0 0 255
0.095808 0.239885 -0.086115 0 0 255
0.235260 0.302553 0.040915 0 0 255
0.164118 0.299252 0.043127 0 0 255
0.322456 0.287033 0.035051 0 0 255
0.360401 0.218204 0.019885 0 0 255
0.303915 0.298926 0.051885 0 0 255
0.190916 0.288602 0.019885 0 0 255
0.215961 0.306492 0.056825 0 0 255
0.198700 0.147975 0.005885 0 0 255
0.358302 0.187766 0.007885 0 0 255
0.279131 0.147078 -0.034115 0 0 255
0.149528 0.313236 0.053885 0 0 255
0.242576 0.288701 0.091884 0 0 255
0.320202 0.287316 -0.020115 0 0 255
0.346890 0.252407 0.148685 0 0 255
0.304759 0.148567 -0.046116 0 0 255
0.114901 0.288800 -0.006115 0 0 255
0.178174 0.270738 0.147884 0 0 255
0.355821 0.271815 0.089885 0 0 255
0.183734 0.288867 -0.012115 0 0 255
0.357410 0.287819 -0.012115 0 0 255
0.135050 0.310159 0.044895 0 0 255
0.254093 0.301403 0.040900 0 0 255
0.239788 0.253796 0.161885 0 0 255
0.172132 0.272601 0.145885 0 0 255
0.266186 0.297691 0.038926 0 0 255
0.121871 0.315792 0.055884 0 0 255
0.182746 0.256485 0.162915 0 0 255
0.351923 0.251274 0.111885 0 0 255
0.318972 0.282148 0.072604 0 0 255
0.346599 0.284552 0.045884 0 0 255
0.102269 0.308976 0.044913 0 0 255
0.095876 0.210357 -0.078115 0 0 255
0.183658 0.285315 0.110848 0 0 255
0.226766 0.139104 -0.023823 0 0 255
0.346024 0.278745 0.089885 0 0 255
0.334128 0.283621 0.027884 0 0 255
0.278210 0.280109 -0.024116 0 0 255
0.099979 0.254104 0.170105 0 0 255
0.157035 0.258325 0.169885 0 0 255
0.132523 0.284938 -0.052115 0 0 255
0.139251 0.285053 -0.046808 0 0 255
0.354338 0.242183 -0.038482 0 0 255
0.148749 0.293018 0.085885 0 0 255
0.232684 0.261055 0.139885 0 0 255
0.294320 0.292362 0.068828 0 0 255
0.163745 0.271174 0.131885 0 0 255
0.095857 0.231104 -0.078115 0 0 255
0.226943 0.287450 -0.044115 0 0 255
0.138078 0.300629 0.045231 0 0 255
0.271117 0.280496 0.019885 0 0 255
0.216816 0.269032 0.125885 0 0 255
0.278380 0.139137 0.008228 0 0 255
0.093455 0.275955 0.156855 0 0 255
0.237036 0.280934 -0.008115 0 0 255
0.187004 0.145355 0.025028 0 0 255
0.302845 0.280205 0.001885 0 0 255
0.281108 0.289504 0.061885 0 0 255
0.354052 0.224561 0.001885 0 0 255
0.237106 0.293866 0.063884 0 0 255
0.317970 0.139535 -0.028116 0 0 255
0.179707 0.283219 -0.070629 0 0 255
0.099103 0.245989 -0.008115 0 0 255
