ply
format ascii 1.0
element vertex 1251
property float x
property float y
property float z
property uchar red
property uchar green
property uchar blue
end_header
-0.413576 0.535064 -0.109415 32 26 43
-0.415700 0.537657 -0.096072 54 33 24
-0.418051 0.532708 -0.086381 35 25 30
-0.435668 0.544218 -0.090892 63 49 33
-0.318373 0.537832 0.166845 127 104 80
-0.077742 0.257784 -0.069203 100 55 22
-0.108272 0.252592 -0.070810 96 49 18
-0.097916 0.292870 -0.067352 96 46 19
-0.074270 0.286182 -0.068693 99 49 18
-0.065287 0.285511 -0.067460 102 53 23
-0.480706 0.482671 -0.055331 45 36 19
-0.486266 0.465986 -0.055233 48 38 20
-0.473695 0.462473 -0.064323 43 33 18
-0.490637 0.472202 -0.059343 59 50 37
-0.476974 0.476663 -0.049416 45 36 19
-0.481579 0.474169 -0.072165 47 35 19
-0.487604 0.448712 -0.091622 47 38 28
-0.482703 0.458710 -0.086010 35 27 13
-0.476669 0.471225 -0.082680 38 30 15
-0.486378 0.464493 -0.072466 50 40 29
-0.237390 0.489441 -0.060932 45 34 28
-0.245345 0.535861 0.265234 128 100 77
-0.368732 0.531735 0.444785 132 101 69
-0.388256 0.531129 0.434890 138 108 81
-0.221833 0.534517 0.303714 128 102 80
-0.038930 0.533088 0.282016 138 118 102
-0.054651 0.531680 0.355591 147 117 94
-0.059835 0.533377 0.337641 140 113 92
-0.070199 0.532576 0.341508 140 113 95
-0.046851 0.532148 0.324079 137 112 95
-0.047428 0.532957 0.344951 139 112 95
-0.503681 0.540682 -0.119880 50 41 27
-0.499856 0.536295 -0.102994 59 50 34
-0.499377 0.537989 -0.116437 53 43 28
-0.498730 0.532852 -0.089849 58 48 36
-0.548442 0.536674 0.224580 136 109 88
-0.066966 0.531148 0.310137 139 113 95
-0.468003 0.533357 0.425101 143 114 92
-0.445088 0.531874 0.458322 141 114 92
-0.384742 0.532310 0.402776 136 109 81
-0.386427 0.532331 0.417549 136 107 81
-0.399570 0.542806 0.010021 95 74 50
-0.133044 0.537065 0.019572 89 67 51
-0.129663 0.526722 0.014140 97 72 57
-0.710994 0.542419 0.070397 127 103 81
-0.683779 0.541948 0.089108 126 102 80
-0.709335 0.541896 0.090716 127 101 81
0.071654 0.529318 0.213326 160 136 118
0.097036 0.530651 0.199653 161 136 118
0.094193 0.529767 0.212187 161 137 120
0.100302 0.528583 0.228550 162 137 120
-0.250699 0.318149 -0.024159 30 30 34
-0.255947 0.321461 -0.028923 32 31 38
-0.223706 0.327443 -0.036079 30 35 45
-0.240438 0.323678 -0.036135 30 30 37
-0.229816 0.322909 -0.028244 33 36 47
0.010195 0.436327 0.611773 141 111 71
0.000273 0.439834 0.605871 147 118 85
-0.347882 0.508512 -0.134554 18 9 5
-0.351242 0.487318 -0.135410 16 7 3
-0.351871 0.471390 -0.139333 14 5 1
-0.232115 0.522592 0.622624 149 120 91
-0.222632 0.522614 0.629945 151 121 94
-0.617380 0.302197 -0.149357 51 33 13
0.103747 0.536343 0.083703 155 133 116
0.080622 0.535756 0.096464 156 133 117
-0.598099 0.456445 0.032430 77 57 36
-0.615160 0.491458 0.016091 85 66 40
-0.607543 0.484644 0.020358 84 64 36
-0.813932 0.315365 -0.127109 61 44 20
-0.032688 0.515896 0.659491 170 145 123
-0.011378 0.514765 0.655323 170 146 125
-0.011712 0.515516 0.666600 171 146 124
-0.353548 0.502330 -0.251885 17 9 3
-0.357026 0.494272 -0.257548 19 7 2
-0.362031 0.519770 -0.046650 63 45 30
-0.388307 0.536929 -0.025753 87 66 42
-0.374089 0.529891 -0.050952 60 44 28
-0.384435 0.535083 -0.051803 78 57 36
-0.399273 0.542632 -0.053324 78 57 36
-0.403493 0.542312 -0.026239 88 67 43
-0.376035 0.530098 -0.030805 80 59 38
-0.662026 0.327252 -0.101984 63 46 23
-0.508658 0.533886 0.390534 145 118 98
-0.518247 0.535103 0.365772 143 115 96
-0.245645 0.525749 0.513382 134 99 63
-0.248839 0.527132 0.496129 133 99 63
-0.333938 0.507237 0.053446 26 13 4
-0.255945 0.303071 -0.020311 28 28 34
-0.686267 0.395690 0.008575 75 55 29
-0.696953 0.375494 -0.014004 76 56 30
-0.675241 0.388121 0.001638 80 62 32
-0.664244 0.385770 -0.001480 78 60 30
-0.035086 0.534338 0.236404 121 106 90
-0.036330 0.528885 0.224934 147 128 116
-0.012821 0.527365 0.224182 150 132 120
-0.031309 0.519680 0.215374 43 46 59
-0.051002 0.515381 0.209555 70 64 72
-0.169521 0.486640 0.615811 151 118 74
-0.155662 0.475042 0.624234 153 120 79
-0.167483 0.455913 0.617218 146 113 75
-0.164521 0.474731 0.620087 151 118 77
0.020205 0.470572 0.027240 179 161 151
0.017770 0.484711 0.043084 179 160 150
-0.295055 0.530148 0.420629 126 97 69
-0.271568 0.531206 0.415075 121 92 69
-0.462218 0.534127 0.384701 141 113 90
-0.447832 0.534693 0.391338 140 111 88
-0.450292 0.532631 0.430585 140 112 87
-0.434155 0.532667 0.410616 141 111 88
-0.456922 0.535727 0.331946 140 113 89
-0.439937 0.534818 0.347946 140 113 86
-0.459213 0.534316 0.370581 139 113 89
-0.671024 0.289483 -0.209087 92 71 43
-0.659664 0.287514 -0.245136 48 30 8
-0.667406 0.292364 -0.224667 92 69 43
-0.664820 0.285970 -0.234390 102 77 45
-0.012170 0.211560 -0.070658 118 73 36
-0.020034 0.400588 -0.090940 145 81 46
0.102480 0.527350 0.254757 164 140 118
0.082801 0.527551 0.293864 163 141 120
0.106532 0.525918 0.291123 163 141 121
0.099299 0.526135 0.275025 163 140 122
-0.506333 0.315774 -0.131904 85 62 32
-0.289272 0.530104 0.436501 128 94 63
-0.276251 0.530205 0.443179 126 93 60
-0.612806 0.331455 -0.124777 51 36 17
-0.615816 0.325024 -0.136389 50 35 18
-0.636104 0.320634 -0.145267 56 41 20
-0.352577 0.476242 -0.180027 23 11 8
-0.350081 0.471177 -0.189309 18 8 3
-0.352253 0.473894 -0.160597 16 7 2
-0.348039 0.454576 -0.172254 17 9 5
-0.062961 0.239232 -0.067949 104 59 27
-0.044422 0.250350 -0.069255 108 62 28
-0.460022 0.347944 -0.197681 21 12 3
-0.460244 0.353247 -0.192413 22 13 4
-0.469756 0.534022 -0.255055 33 24 13
-0.472296 0.543323 -0.271884 32 24 11
-0.054575 0.396191 -0.029825 158 129 116
-0.043391 0.409443 -0.006359 164 137 125
-0.330324 0.491203 -0.014079 112 87 70
-0.326307 0.484495 -0.044233 114 87 68
-0.308484 0.477044 -0.054089 68 50 35
-0.337444 0.487964 -0.048856 111 87 68
-0.295413 0.526667 0.664064 157 129 104
-0.282258 0.503052 0.088353 113 95 79
-0.687756 0.542731 0.060857 126 102 82
-0.326806 0.535654 0.193773 129 104 82
-0.324988 0.528492 0.520196 136 104 73
0.013566 0.412567 -0.059255 75 30 11
0.032316 0.417320 -0.060930 94 53 28
-0.067745 0.344722 -0.053747 133 66 34
-0.082473 0.340439 -0.048478 96 37 13
-0.073091 0.340917 -0.047635 133 63 33
0.099968 0.536957 -0.046659 128 108 92
0.086512 0.538081 -0.042734 127 107 88
-0.421367 0.389909 -0.069464 99 103 30
-0.417344 0.395862 -0.076339 36 27 44
-0.185926 0.522417 0.192081 138 110 94
-0.026630 0.398921 -0.027926 136 102 85
-0.006248 0.406357 -0.026113 157 130 113
-0.024676 0.407683 -0.013566 166 145 130
-0.141306 0.525093 0.519179 115 81 50
-0.144142 0.525881 0.535189 112 79 47
-0.222131 0.526684 0.015139 85 63 45
-0.235300 0.531004 0.022221 74 55 40
-0.230083 0.530562 0.049911 85 60 45
-0.209975 0.513075 0.021991 94 69 51
-0.419301 0.537702 0.195016 129 104 82
-0.345296 0.276273 -0.123506 17 7 2
-0.073738 0.531852 0.235708 133 77 50
-0.044898 0.532192 0.262803 134 115 101
0.088422 0.525388 0.352530 166 144 127
-0.343662 0.532154 0.404540 137 107 81
-0.360809 0.532094 0.400876 136 108 83
-0.370678 0.532808 0.428351 137 106 79
-0.336281 0.532535 0.423968 137 106 80
-0.177769 0.435192 0.019279 144 115 94
-0.158175 0.432198 0.024669 146 114 93
-0.175099 0.441079 0.033946 146 115 94
-0.239429 0.538594 0.159553 108 84 60
-0.219497 0.536845 0.167567 105 81 57
-0.210058 0.535892 0.178937 105 79 56
-0.213370 0.537537 0.192994 113 89 65
0.046411 0.507463 0.640168 127 93 61
0.052595 0.504111 0.624448 156 130 103
0.039782 0.509866 0.623131 135 100 60
0.043643 0.507080 0.629698 136 101 63
-0.317116 0.350689 -0.056075 29 31 42
-0.299026 0.353175 -0.052732 29 30 42
-0.283434 0.347024 -0.051205 29 32 46
-0.475878 0.391530 -0.092380 28 19 9
0.012974 0.438655 0.036078 171 152 142
-0.090284 0.525562 0.262953 216 158 122
-0.084202 0.525906 0.282844 240 180 144
-0.105969 0.531057 0.270115 95 52 34
-0.098548 0.527362 0.283761 135 104 84
-0.502995 0.540901 0.175978 135 109 88
-0.469482 0.538923 0.192436 136 109 88
-0.487945 0.540754 0.159582 133 108 85
-0.200762 0.437010 -0.064125 30 35 44
-0.210907 0.463341 -0.061045 32 33 41
-0.608679 0.542232 0.060100 129 105 82
-0.073734 0.471223 0.614518 146 108 52
-0.079969 0.467095 0.604426 141 106 51
-0.060102 0.468481 0.607913 143 105 50
-0.187995 0.520099 0.649988 157 130 103
-0.209034 0.520080 0.690798 157 130 104
-0.190309 0.519651 0.687946 156 129 103
-0.071808 0.462411 0.601399 135 104 62
-0.063079 0.462918 0.602895 143 111 72
-0.045903 0.474121 0.624014 159 127 91
0.077374 0.383848 -0.061258 85 48 25
-0.267746 0.535387 0.259186 128 102 81
-0.261596 0.537148 0.231003 126 100 80
-0.076556 0.532283 0.356739 144 114 90
-0.485762 0.533489 -0.149549 56 49 18
-0.477196 0.545600 -0.147583 92 94 24
-0.466986 0.545110 -0.141953 120 126 25
-0.467874 0.546026 -0.115275 110 117 19
-0.483298 0.546010 -0.133325 94 95 23
-0.492455 0.521154 -0.132339 37 27 11
-0.488044 0.540333 -0.135822 45 36 21
-0.475924 0.547510 -0.139316 116 124 20
-0.464915 0.549307 -0.124767 112 118 20
-0.560664 0.262119 -0.137112 93 70 39
-0.474963 0.469502 -0.139673 78 74 14
-0.475825 0.451082 -0.120103 38 27 9
-0.141258 0.523181 0.504318 115 82 47
-0.166277 0.528309 0.488109 128 93 57
-0.156243 0.539751 -0.040869 69 50 35
-0.140358 0.541021 -0.046786 56 39 26
-0.170076 0.537285 -0.042372 60 43 32
-0.157934 0.537378 -0.021148 73 52 37
-0.167284 0.532673 -0.048530 52 31 16
-0.352490 0.533872 0.360768 133 107 83
-0.347646 0.532121 0.377676 132 105 81
-0.407736 0.322272 -0.062869 33 26 40
-0.393105 0.284484 -0.084075 36 28 46
-0.420596 0.295493 -0.086508 75 74 34
-0.414734 0.317116 -0.085080 32 26 46
-0.052978 0.358892 -0.079518 84 39 17
-0.025444 0.370365 -0.080278 98 51 27
-0.166798 0.508857 0.609439 122 89 60
-0.166411 0.512757 0.590714 130 99 63
-0.159379 0.498893 0.602485 137 104 62
-0.158407 0.504750 0.608159 150 116 67
-0.161155 0.511167 0.596731 125 96 64
-0.180732 0.516727 0.602272 132 100 67
-0.069794 0.243527 -0.068243 103 55 21
-0.051260 0.283730 -0.068097 104 55 22
-0.334511 0.418825 -0.189785 18 9 6
-0.323053 0.438315 -0.198612 37 23 19
-0.329592 0.443842 -0.197954 17 8 4
-0.249424 0.378302 -0.059886 28 37 47
-0.230851 0.378971 -0.060000 30 35 48
-0.242433 0.383146 -0.061906 31 39 52
-0.224644 0.394187 -0.063296 25 35 48
-0.133851 0.328311 -0.057097 63 19 5
-0.156333 0.299808 -0.046223 78 53 39
-0.145654 0.286304 -0.027877 104 84 72
-0.159352 0.312622 -0.039844 130 72 45
-0.165562 0.327410 -0.033331 127 64 35
-0.156529 0.307233 -0.059773 77 42 25
-0.149729 0.320241 -0.024576 64 49 46
-0.155714 0.327527 -0.024233 66 48 42
-0.149133 0.315782 -0.032341 118 93 78
-0.401970 0.528088 -0.129140 50 29 16
-0.400354 0.519173 -0.116247 57 31 10
-0.396573 0.519525 -0.115462 38 26 36
-0.397027 0.525629 -0.136094 49 29 18
-0.395546 0.538555 -0.131561 49 29 18
-0.385035 0.539223 -0.140493 52 35 20
-0.390158 0.544522 -0.135720 37 29 20
-0.420516 0.356794 -0.062195 78 77 26
-0.386388 0.364070 -0.081130 28 22 41
-0.409630 0.371226 -0.081674 30 24 45
-0.398018 0.357065 -0.060147 31 27 37
0.040779 0.532259 0.345729 159 136 117
0.032783 0.527543 0.363292 157 136 116
0.040292 0.528377 0.360402 159 137 119
-0.492728 0.313219 -0.134509 81 60 30
-0.502151 0.277611 -0.135285 86 64 34
-0.072163 0.397420 -0.073257 160 69 31
-0.068595 0.384377 -0.088652 117 59 33
-0.062995 0.395128 -0.080971 129 59 29
-0.061450 0.390084 -0.070155 127 58 28
-0.202186 0.531269 0.174765 97 71 45
-0.279958 0.533126 -0.292749 39 30 20
-0.206299 0.511981 0.066619 83 60 42
-0.175023 0.516919 0.067685 151 118 94
-0.186551 0.325245 -0.027975 27 35 47
-0.156254 0.330076 -0.028091 39 39 48
-0.182797 0.325856 -0.034258 31 36 46
-0.171639 0.342813 -0.050888 136 112 96
-0.170598 0.326538 -0.024268 33 33 42
-0.172045 0.330281 -0.033094 40 40 44
-0.163103 0.324910 -0.053085 84 38 21
-0.283482 0.526289 0.645608 156 127 101
-0.298926 0.525409 0.648930 153 125 97
-0.282732 0.526385 0.630107 151 121 93
-0.208923 0.519944 0.579203 133 100 69
-0.182204 0.515607 0.584917 135 101 71
-0.191930 0.515841 0.599052 132 99 67
-0.192256 0.517661 0.580736 134 103 69
-0.189750 0.513595 0.611992 153 121 71
-0.284234 0.522257 -0.270497 39 30 20
-0.281055 0.524505 -0.261600 41 30 20
-0.286447 0.516123 -0.258058 41 30 21
-0.682001 0.307101 -0.158746 58 41 22
0.063495 0.507826 0.556359 158 138 117
0.059323 0.504085 0.544937 159 139 118
0.057492 0.482201 0.554935 157 137 118
-0.490917 0.540208 0.131011 130 104 82
-0.461329 0.541263 0.112750 125 101 79
-0.477790 0.542098 0.112427 128 105 82
-0.473934 0.540568 0.128274 126 102 79
-0.803732 0.378973 -0.021287 73 56 30
-0.584807 0.433633 0.034436 79 59 37
-0.288848 0.527322 0.575503 143 111 82
-0.502559 0.536155 0.350446 141 115 93
-0.481814 0.473987 -0.094361 28 21 9
-0.486598 0.453386 -0.104668 27 20 9
-0.482199 0.469396 -0.111339 28 21 9
-0.490845 0.464001 -0.119246 42 32 22
-0.484714 0.465505 -0.114458 25 17 4
-0.476703 0.458398 -0.105559 23 14 4
-0.477225 0.467614 -0.089712 31 22 11
-0.452903 0.246664 -0.213127 21 11 4
-0.455922 0.283899 -0.189765 54 30 13
0.049757 0.538158 0.066112 153 130 112
0.048740 0.539746 0.013775 147 126 111
-0.246858 0.529268 0.116603 107 90 78
-0.254011 0.526244 0.134486 121 102 87
-0.269925 0.507128 0.112342 118 93 73
-0.463327 0.541736 -0.153704 125 132 23
-0.455201 0.544188 -0.140893 85 85 36
-0.446320 0.541721 -0.146783 34 25 41
-0.334219 0.423409 -0.062601 36 33 39
-0.320199 0.422664 -0.064644 36 34 39
0.015228 0.529377 0.275540 156 132 115
-0.005139 0.530414 0.283338 146 126 109
-0.673547 0.333043 -0.083636 64 46 25
-0.686991 0.330851 -0.089640 68 50 26
-0.671806 0.342252 -0.065622 63 46 23
-0.113872 0.517840 0.656084 159 131 101
-0.133322 0.517117 0.656205 156 129 100
-0.642859 0.383871 -0.002225 81 62 34
-0.691787 0.539480 0.217861 133 108 88
-0.657856 0.540022 0.220940 133 108 88
0.096119 0.466153 -0.057871 82 50 25
0.052524 0.450818 -0.059398 84 50 27
-0.507436 0.483317 0.013525 87 70 47
-0.516296 0.464471 0.027658 89 70 46
-0.527866 0.484654 0.019222 69 51 25
-0.673807 0.426586 0.026776 83 63 37
-0.197834 0.469161 -0.034830 62 41 28
-0.192667 0.485631 -0.052599 83 62 49
-0.207205 0.468520 -0.052761 56 40 27
-0.190062 0.468397 -0.047970 119 96 81
-0.182311 0.473585 -0.046086 105 82 68
-0.189083 0.463627 -0.038508 146 121 102
-0.188507 0.466537 -0.027058 103 78 64
-0.204100 0.484775 -0.046877 62 40 26
-0.200062 0.470922 -0.039927 50 32 20
-0.183365 0.467705 -0.040503 125 102 88
-0.216179 0.475966 -0.059174 53 39 29
-0.536280 0.535805 0.315727 142 117 95
-0.559227 0.536696 0.320946 141 116 95
-0.157125 0.352574 -0.054220 130 103 89
-0.129603 0.341693 -0.054276 78 32 17
-0.146428 0.332833 -0.052094 65 36 22
-0.051389 0.333058 -0.049347 119 59 33
-0.349712 0.460598 -0.263001 24 13 5
-0.343568 0.454047 -0.276052 18 8 3
-0.358341 0.471431 -0.255772 18 9 4
-0.147710 0.489333 0.153559 158 127 102
-0.136085 0.494871 0.166472 254 241 181
-0.604302 0.335734 -0.092659 54 38 19
-0.565540 0.438100 0.034682 84 65 38
-0.562449 0.456658 0.033398 70 51 27
-0.532971 0.446506 0.034221 70 52 27
-0.325422 0.528010 0.615686 150 122 95
-0.332183 0.527386 0.648241 154 126 100
-0.357198 0.528216 0.594946 151 124 97
-0.357914 0.477505 -0.060976 55 34 16
-0.350192 0.487171 -0.058123 69 48 31
0.074427 0.507288 -0.059005 85 52 27
0.096376 0.515599 -0.057753 85 51 27
0.087266 0.522054 0.404402 167 148 129
0.116618 0.520459 0.382135 169 148 132
0.081254 0.518512 0.413031 171 150 131
0.096744 0.515755 0.407511 171 150 134
0.104845 0.516370 0.411150 170 150 134
-0.472019 0.454872 -0.041166 52 42 23
-0.489606 0.472891 -0.047263 53 46 30
-0.493055 0.485027 -0.035956 61 50 37
-0.484404 0.493942 -0.034934 58 47 27
-0.479969 0.484387 -0.036187 57 46 27
-0.484241 0.483656 -0.042427 56 48 29
-0.493304 0.484909 -0.055056 61 49 37
-0.490200 0.477209 -0.039292 67 54 41
-0.200161 0.527413 0.342726 129 102 80
-0.202131 0.532869 0.329044 129 102 79
-0.174636 0.527075 0.345867 128 101 78
-0.178153 0.532282 0.357887 113 84 63
-0.376762 0.368567 -0.085760 20 13 1
-0.364707 0.343200 -0.058261 30 23 37
-0.362396 0.374744 -0.056032 31 21 37
-0.718639 0.353510 -0.049869 72 55 27
-0.704539 0.348249 -0.055948 71 53 28
-0.149217 0.267629 -0.022339 75 63 57
-0.167377 0.288749 -0.015270 48 42 46
-0.254644 0.524353 0.616446 148 118 89
-0.275235 0.347770 -0.048925 8 10 19
-0.265904 0.345628 -0.045497 26 36 46
-0.255589 0.324906 -0.038570 32 34 43
-0.275564 0.329212 -0.037598 28 33 44
-0.267798 0.324571 -0.028228 30 30 40
-0.283086 0.328893 -0.046551 9 9 19
-0.268848 0.330970 -0.037306 29 32 45
-0.257476 0.332628 -0.043807 31 35 43
-0.276841 0.315668 -0.023558 27 29 33
-0.280984 0.323031 -0.028263 27 29 33
-0.591405 0.540168 0.089616 130 105 83
-0.566062 0.540243 0.085744 129 104 81
-0.589931 0.270419 -0.199616 36 24 9
-0.591217 0.302435 -0.194054 28 16 7
-0.586468 0.540884 0.136963 131 106 84
-0.569628 0.538381 0.161800 130 106 84
-0.598250 0.539468 0.164391 131 107 85
-0.562540 0.538935 0.171189 131 106 84
-0.365551 0.537085 0.138319 119 96 73
-0.397426 0.538825 0.143321 123 101 79
-0.396468 0.538305 0.169446 127 103 81
-0.175103 0.490211 0.138525 141 109 83
-0.165889 0.488230 0.142353 149 118 93
-0.725562 0.540618 0.082985 125 100 78
-0.732422 0.539351 0.063264 126 101 80
-0.724363 0.540356 0.055136 123 101 77
-0.037993 0.486576 0.151187 240 227 214
-0.032565 0.497938 0.178042 253 248 225
-0.413239 0.536957 0.249027 137 110 86
-0.428879 0.537146 0.239531 133 108 84
-0.394553 0.535803 0.224823 130 106 81
0.037667 0.453393 -0.058335 86 52 27
0.009306 0.414495 -0.055511 75 30 9
0.019997 0.416104 -0.060530 81 45 25
-0.477985 0.425012 -0.118109 31 23 9
-0.214979 0.535023 0.088392 101 75 54
-0.214055 0.522267 0.060654 101 75 54
-0.681432 0.444144 0.026843 66 48 25
-0.692973 0.460443 0.023825 57 39 17
-0.684684 0.478877 0.019172 72 53 28
-0.473280 0.530854 -0.238000 35 26 15
-0.469960 0.537563 -0.230464 36 27 16
-0.478037 0.526027 -0.213001 39 29 14
-0.475519 0.530680 -0.220671 42 32 19
-0.239987 0.526209 0.013419 70 51 37
-0.248945 0.508927 0.006181 99 82 69
-0.241678 0.524166 0.037105 100 81 69
-0.096367 0.404881 0.004587 146 105 85
-0.098631 0.414238 0.018458 145 107 87
-0.113039 0.411308 -0.002998 138 97 74
-0.542981 0.538540 0.163529 132 107 84
-0.544689 0.538807 0.189565 132 108 86
-0.523940 0.538450 0.197946 133 107 85
-0.535008 0.536994 0.206308 133 108 85
-0.184412 0.532515 0.299762 132 105 84
-0.158369 0.530540 0.312472 132 107 85
-0.447947 0.540478 0.123183 127 102 79
-0.458214 0.541041 0.141946 125 102 79
-0.423500 0.540404 0.109973 121 99 77
0.048331 0.536360 0.143771 154 134 115
0.038226 0.532603 0.157474 156 132 118
0.028780 0.524766 0.174022 154 135 119
0.044109 0.534520 0.159512 155 134 119
0.031989 0.525938 0.136327 171 150 141
-0.612988 0.302348 -0.186383 87 65 38
-0.592089 0.309604 -0.195911 28 18 9
-0.595891 0.311593 -0.207280 21 11 5
-0.601313 0.310108 -0.204333 34 25 9
-0.709198 0.316114 -0.123189 62 46 23
-0.158171 0.265516 -0.019106 52 53 58
-0.754048 0.493605 0.011069 61 42 20
-0.734305 0.487894 0.012759 57 39 16
-0.350699 0.534663 0.286759 129 104 81
-0.165580 0.531566 0.324943 131 104 81
-0.162667 0.528590 0.344156 131 104 82
-0.150353 0.532440 0.356289 121 94 73
0.032061 0.518505 -0.058920 83 54 32
0.041478 0.528770 -0.056562 82 50 30
-0.514609 0.533272 0.446432 142 118 97
-0.520559 0.533550 0.425899 146 118 98
-0.277479 0.234848 -0.021184 68 50 46
-0.065035 0.421439 0.028117 117 61 33
0.063852 0.507513 0.638888 161 138 120
0.080082 0.509405 0.626844 162 140 121
0.058945 0.508904 0.631473 174 152 137
0.056052 0.512825 0.613615 161 139 121
-0.029464 0.306157 -0.064877 122 67 31
-0.017633 0.295311 -0.066634 118 64 30
-0.032361 0.313879 -0.060409 93 44 21
-0.016120 0.328129 -0.059724 92 43 21
0.000267 0.308626 -0.065814 105 56 24
-0.088600 0.520838 0.216883 70 31 12
-0.085742 0.522840 0.221248 78 41 21
-0.719053 0.320940 -0.111145 63 46 22
-0.033923 0.402544 -0.095621 138 77 43
-0.044627 0.397323 -0.093273 114 53 26
-0.448077 0.545039 -0.036054 91 73 51
-0.421088 0.543179 -0.026419 90 72 48
-0.189691 0.524410 0.481595 121 88 55
-0.199973 0.522272 0.473029 115 81 48
-0.193817 0.523546 0.460607 117 84 51
-0.180616 0.524899 0.487662 119 88 53
-0.725508 0.537832 0.115722 127 101 80
-0.643773 0.541908 0.033307 121 98 70
-0.645807 0.539431 0.024842 117 91 63
-0.183114 0.482091 0.103317 142 111 89
-0.409276 0.541244 0.080385 110 90 67
-0.442561 0.540982 0.100144 117 97 76
-0.406862 0.539975 0.097446 115 94 72
-0.745924 0.293892 -0.187209 57 40 20
-0.764055 0.296276 -0.181066 56 40 19
-0.759327 0.306266 -0.157120 56 41 20
-0.486004 0.513119 -0.152502 41 30 15
-0.487164 0.518326 -0.155406 39 29 13
-0.482485 0.503342 -0.156656 44 33 13
-0.486847 0.498433 -0.151556 45 37 12
-0.323572 0.459148 -0.212935 20 10 5
-0.341786 0.454161 -0.187708 18 9 4
-0.315543 0.455791 -0.209733 40 29 22
-0.313319 0.300613 -0.055470 32 33 44
-0.472756 0.546123 -0.284271 32 25 13
-0.432092 0.532029 0.434882 138 109 85
-0.419923 0.533271 0.423189 139 110 85
-0.405157 0.533302 0.425090 139 109 84
-0.423684 0.531278 0.458071 141 112 89
-0.416867 0.531111 0.435097 140 111 87
-0.327649 0.296458 -0.062275 34 32 38
-0.335622 0.284685 -0.061721 46 36 41
-0.746353 0.310049 -0.143025 57 41 20
-0.770804 0.314660 -0.126517 61 44 20
-0.737859 0.321910 -0.111897 66 46 25
-0.173420 0.529631 0.425176 128 92 57
-0.181566 0.527825 0.444084 122 89 56
-0.570539 0.541319 0.036377 130 104 81
-0.583336 0.542491 0.053715 128 105 81
-0.573235 0.541082 0.061558 128 106 82
-0.758147 0.327578 -0.097800 65 48 24
-0.750256 0.332111 -0.089861 64 47 22
-0.780390 0.321245 -0.114979 66 50 27
-0.753613 0.321197 -0.112424 65 46 23
0.026415 0.263207 -0.067305 113 69 34
0.005388 0.249469 -0.068469 115 69 34
-0.630949 0.539332 0.184402 132 107 86
-0.482779 0.536390 0.273089 139 112 91
-0.465103 0.536201 0.283170 138 112 90
-0.274430 0.435341 -0.065957 30 32 40
-0.255416 0.438389 -0.066608 33 32 37
-0.264167 0.454553 -0.063741 30 32 38
-0.345674 0.242628 -0.121360 16 7 3
-0.343486 0.252942 -0.131693 18 7 3
-0.342552 0.230069 -0.130514 19 8 4
-0.390503 0.538560 0.048254 97 74 50
-0.375595 0.535000 0.061199 92 70 48
-0.392228 0.539955 0.069285 106 84 61
-0.323726 0.497743 0.018446 124 98 72
-0.330924 0.499252 0.022942 30 16 8
-0.307281 0.502128 0.050946 41 30 14
-0.335519 0.500093 0.015427 97 78 64
0.013394 0.411007 -0.019198 175 163 149
-0.128419 0.509183 0.520667 87 62 34
-0.126590 0.507608 0.545819 60 44 20
-0.130495 0.517468 0.544252 59 43 24
-0.133593 0.509341 0.532938 108 78 43
-0.124172 0.515102 0.520693 58 41 26
-0.123110 0.513392 0.539121 59 43 19
-0.654486 0.537883 0.275946 136 114 92
-0.157989 0.528607 0.408733 134 104 82
-0.149132 0.525731 0.395499 133 104 78
-0.326745 0.534779 0.257295 128 102 79
-0.299948 0.534320 0.260446 126 101 78
-0.207161 0.532471 0.146540 96 70 48
-0.232029 0.537978 0.147735 106 82 58
-0.225705 0.538552 0.132692 98 74 50
-0.212031 0.535508 0.146994 95 72 47
-0.243452 0.535005 0.139010 107 82 60
-0.174464 0.529128 0.406748 130 94 61
-0.457537 0.540173 0.167946 132 107 84
-0.505206 0.540826 0.158221 132 107 85
-0.344200 0.497609 -0.039882 83 62 45
-0.346755 0.495236 -0.050784 75 55 37
-0.246597 0.534505 0.299057 124 98 76
-0.436526 0.536108 0.277878 140 111 87
-0.322928 0.533869 0.275474 126 101 78
-0.333406 0.534498 0.286854 126 101 78
-0.317541 0.532737 0.310564 126 100 76
-0.429238 0.535611 0.359761 137 110 84
-0.149882 0.511022 0.411298 121 93 68
-0.147953 0.512814 0.402322 127 98 72
-0.153616 0.522095 0.409808 125 97 73
-0.120105 0.463715 0.103874 121 102 89
-0.675657 0.454628 0.026752 64 47 22
-0.636995 0.469600 0.025397 69 52 26
-0.657165 0.440785 0.029822 73 56 30
-0.647984 0.455005 0.029254 56 40 15
-0.089420 0.527275 0.241054 84 44 26
-0.105218 0.531231 0.255856 86 46 29
-0.081179 0.529009 0.257023 212 155 119
-0.137049 0.258611 -0.070514 93 53 23
-0.156026 0.529391 0.426798 115 82 51
-0.166128 0.529443 0.440502 112 79 48
-0.331971 0.528284 0.592821 148 117 91
-0.141290 0.423742 0.015815 145 112 87
-0.617295 0.538458 0.273946 139 114 93
-0.601676 0.537709 0.282821 139 114 95
-0.636029 0.537938 0.293389 141 115 98
-0.346160 0.277140 -0.064192 35 23 32
-0.335427 0.251972 -0.063903 40 37 38
-0.172229 0.530455 0.378440 136 105 82
-0.160261 0.530558 0.389889 134 105 82
-0.151048 0.254239 -0.064002 116 91 74
0.026295 0.471476 0.623241 115 78 35
0.029324 0.477342 0.619738 128 94 54
0.017871 0.487282 0.625072 114 76 34
0.021823 0.485925 0.635761 123 85 39
0.032965 0.502220 0.621713 132 99 62
0.034878 0.502571 0.636489 126 91 61
0.026661 0.503712 0.628852 145 114 76
0.019734 0.499094 0.627717 122 85 39
-0.119243 0.321467 -0.055524 68 24 5
-0.104166 0.307187 -0.059748 80 28 9
-0.119727 0.308631 -0.065624 83 40 14
-0.200218 0.521498 0.427122 116 82 50
-0.208262 0.521058 0.443497 116 82 50
-0.192152 0.524328 0.449564 116 83 49
-0.308101 0.504231 0.064446 78 60 38
-0.274717 0.495704 0.051946 41 29 23
-0.282807 0.499738 0.064544 45 35 26
-0.293467 0.499399 0.053446 31 19 10
-0.643883 0.326433 -0.110765 59 43 22
-0.671354 0.311189 -0.148981 56 43 21
-0.651683 0.317013 -0.144811 57 42 21
-0.682862 0.312277 -0.138419 57 43 22
-0.662156 0.316666 -0.136561 60 45 22
-0.678621 0.538467 0.239852 135 110 91
-0.334033 0.398667 -0.059032 35 33 40
-0.320208 0.376402 -0.059077 33 33 42
-0.285569 0.318518 -0.037531 26 27 38
-0.345668 0.530904 -0.196054 18 8 5
-0.345509 0.537917 -0.214054 21 11 9
-0.351253 0.499270 -0.193554 18 8 4
-0.346085 0.533103 -0.173778 18 9 4
-0.342286 0.451814 -0.289019 21 9 6
-0.328729 0.460976 -0.283992 25 12 6
-0.330251 0.465281 -0.268940 25 12 6
-0.324474 0.469749 -0.254556 23 11 5
-0.334064 0.463368 -0.255974 24 13 7
-0.344045 0.463489 -0.266868 23 11 4
-0.324035 0.467632 -0.263752 27 14 8
-0.457752 0.268227 -0.168118 61 49 34
-0.211469 0.512795 -0.029613 69 51 36
-0.225185 0.527744 -0.037690 72 52 37
-0.235950 0.527394 -0.042222 69 51 37
-0.214709 0.514969 -0.043952 60 47 32
-0.235118 0.521470 -0.054476 49 35 23
-0.223839 0.525017 -0.019670 73 53 37
-0.227179 0.514205 -0.056621 52 39 26
-0.228919 0.526437 -0.051979 51 38 26
-0.231448 0.529584 -0.040696 73 53 38
-0.141613 0.527071 0.451481 112 77 43
-0.145271 0.531875 0.454077 114 80 44
-0.139480 0.529712 0.472033 114 79 44
-0.334133 0.527904 0.540457 140 108 80
-0.356639 0.530466 0.505138 138 107 79
-0.348546 0.529301 0.530822 137 107 78
-0.349503 0.507649 -0.164054 17 8 3
-0.402076 0.518311 -0.104493 47 29 29
-0.394201 0.503949 -0.091753 53 30 30
0.012049 0.427810 0.015548 169 150 136
-0.755266 0.371103 -0.027187 78 59 31
-0.744273 0.349887 -0.055920 75 58 32
-0.762052 0.361402 -0.040670 73 54 28
-0.740724 0.365885 -0.031736 70 52 27
0.090141 0.319722 -0.062973 93 52 28
-0.476368 0.531025 0.541506 144 117 94
-0.496351 0.532533 0.531946 144 118 94
-0.722580 0.373648 -0.020936 73 53 28
-0.746920 0.389154 -0.004320 75 55 32
-0.310297 0.259748 -0.039464 33 32 35
-0.072495 0.526488 0.365095 144 116 94
-0.088397 0.525469 0.371457 144 116 93
-0.064720 0.516620 0.368507 146 121 97
-0.054728 0.527522 0.363272 146 120 97
-0.449231 0.535822 0.276252 140 111 89
-0.441415 0.536711 0.289106 139 112 88
-0.146046 0.504347 0.417564 107 81 53
-0.144140 0.505875 0.426400 114 83 56
-0.134478 0.523571 0.398074 130 104 76
-0.502194 0.541094 -0.146664 47 40 18
-0.510308 0.541663 -0.141995 42 33 22
-0.497062 0.526432 -0.141437 46 37 17
-0.503254 0.543725 -0.133209 43 34 24
-0.511655 0.538687 -0.152420 44 36 21
-0.506516 0.335372 -0.126562 69 50 28
-0.350053 0.466406 -0.238102 26 11 6
-0.353537 0.484073 -0.238951 26 13 6
-0.349756 0.474770 -0.217774 26 12 7
-0.351083 0.464230 -0.248913 25 11 5
-0.356959 0.477601 -0.247709 26 11 6
-0.342798 0.464343 -0.253525 25 11 6
-0.353409 0.472543 -0.228745 26 13 6
-0.343490 0.468683 -0.222307 24 10 6
0.010144 0.527458 0.298860 155 133 114
0.037191 0.529793 0.264362 158 132 116
-0.118169 0.532260 -0.046877 82 64 50
-0.135020 0.519207 -0.053923 52 28 14
-0.129608 0.533124 -0.052110 53 34 20
-0.127150 0.540560 -0.047682 60 41 27
-0.121285 0.534981 -0.029951 72 55 41
-0.142612 0.542239 -0.036248 72 53 39
-0.128050 0.543507 -0.037660 71 54 37
-0.624282 0.536841 0.348922 144 118 98
-0.595290 0.537288 0.349073 143 118 97
-0.475236 0.418123 -0.129928 37 25 5
-0.476378 0.430626 -0.124141 39 28 9
-0.485284 0.535364 -0.014029 77 67 49
-0.471154 0.545166 -0.027054 99 80 60
-0.476577 0.543664 0.000335 97 79 59
-0.490047 0.535504 -0.003258 95 80 55
-0.488399 0.523898 -0.011366 70 57 40
-0.481856 0.541680 -0.005692 99 81 58
-0.448869 0.546599 -0.056663 82 65 45
-0.429470 0.544505 -0.081650 71 53 30
-0.430094 0.545778 -0.069106 79 63 41
-0.419499 0.355145 -0.082626 37 29 39
-0.406206 0.335291 -0.082786 37 28 50
-0.394122 0.360074 -0.080112 34 25 43
-0.417593 0.338645 -0.060766 96 102 21
-0.416368 0.329697 -0.084209 38 30 46
-0.386083 0.329589 -0.081884 33 24 46
-0.405670 0.344177 -0.060891 31 26 38
-0.359862 0.482049 -0.094243 55 31 14
-0.348897 0.494312 -0.114555 19 10 6
0.071842 0.479821 -0.058775 80 47 28
-0.313166 0.525985 0.652215 156 128 103
-0.087120 0.385784 -0.074116 106 40 16
-0.084699 0.386935 -0.065482 106 37 12
-0.064949 0.383279 -0.060306 170 86 51
-0.080239 0.384080 -0.082366 104 41 15
-0.079039 0.359006 -0.072854 111 51 24
-0.105959 0.365975 -0.074704 104 42 15
-0.072644 0.385030 -0.062339 134 57 22
-0.087584 0.357959 -0.069461 107 40 14
-0.148639 0.516045 0.703528 161 134 108
-0.350966 0.530429 0.491576 134 100 67
-0.007928 0.518560 -0.054909 66 45 29
-0.413876 0.528643 0.588446 144 116 92
-0.436463 0.528723 0.554367 141 114 90
-0.353436 0.494981 -0.230373 17 7 4
-0.308384 0.309280 -0.026724 34 33 36
-0.165456 0.530630 0.116167 120 93 71
-0.170107 0.537496 0.097638 111 85 62
-0.160931 0.533977 0.116351 94 67 47
-0.157218 0.528996 0.115490 118 90 71
-0.711482 0.540602 0.107414 126 102 81
-0.704192 0.540110 0.126393 127 102 80
-0.135327 0.503926 0.512998 105 75 41
-0.134091 0.502655 0.506468 56 41 22
-0.134324 0.521428 0.514520 114 79 45
-0.128204 0.507426 0.509058 85 60 33
-0.137086 0.516540 0.501239 113 79 45
-0.125084 0.516001 0.498798 56 40 24
-0.131955 0.513130 0.488252 114 80 45
-0.229970 0.531895 0.022720 80 59 44
-0.231966 0.480893 -0.062720 31 32 39
-0.228656 0.498443 -0.060513 36 32 34
-0.248422 0.501930 -0.018054 76 57 41
-0.240593 0.520831 -0.010471 73 54 39
-0.653336 0.542430 0.088946 127 103 81
-0.440505 0.542801 -0.121237 32 26 38
-0.435103 0.543112 -0.121457 38 27 40
-0.456706 0.546473 -0.104035 94 90 38
-0.435264 0.542099 -0.109890 37 25 36
-0.465863 0.546212 -0.092916 85 78 23
0.067270 0.529598 0.236623 160 136 121
0.081523 0.528800 0.251947 161 136 120
-0.115111 0.326487 -0.053449 81 32 10
-0.474367 0.365586 -0.135956 40 26 9
-0.138283 0.533925 0.233785 130 105 79
-0.134023 0.530411 0.223708 148 118 95
-0.120102 0.528232 0.224410 138 113 98
-0.023204 0.515184 0.687728 168 144 123
-0.043925 0.515058 0.710275 170 144 123
-0.529647 0.537025 0.250696 137 110 90
-0.513093 0.537737 0.224333 136 110 89
-0.505230 0.537174 0.248196 136 111 89
-0.240644 0.525331 0.434926 120 88 59
-0.223461 0.525606 0.428824 114 83 49
-0.225126 0.523948 0.447563 118 86 55
0.054813 0.340842 -0.063818 94 52 26
0.024637 0.366429 -0.063032 95 53 29
-0.514685 0.500304 0.010657 82 67 42
-0.500773 0.513647 0.002248 86 70 45
-0.674169 0.280155 -0.250913 102 78 47
-0.663081 0.284888 -0.263800 41 23 6
-0.654450 0.290949 -0.253531 40 23 8
-0.676030 0.276727 -0.298220 40 24 7
-0.235546 0.529400 0.047760 81 60 44
-0.209353 0.512185 0.045925 94 68 50
-0.219968 0.526069 0.048593 96 69 50
-0.016283 0.458466 0.619642 156 121 83
-0.028087 0.468604 0.626512 154 120 79
-0.037232 0.464930 0.617938 167 140 111
-0.564459 0.401677 0.020961 84 64 35
-0.532568 0.412586 0.028921 88 67 38
-0.532066 0.418167 0.032240 89 67 38
-0.531612 0.429101 0.034386 90 69 39
-0.555658 0.420418 0.031985 85 64 37
-0.571392 0.411036 0.027121 87 66 37
-0.663890 0.294371 -0.199233 90 68 38
-0.655728 0.296275 -0.209220 99 76 42
-0.650098 0.298472 -0.188331 85 64 36
-0.643867 0.303993 -0.194655 93 69 39
-0.782515 0.411817 0.010356 79 61 29
-0.798376 0.389484 -0.008843 81 62 34
-0.346712 0.528301 0.572571 141 112 82
-0.314935 0.527800 0.575608 140 112 83
-0.306548 0.528576 0.554885 143 111 83
-0.318621 0.528124 0.544946 140 109 81
0.081171 0.515756 0.692881 159 136 114
0.052284 0.514235 0.674828 161 137 119
0.055957 0.514998 0.699600 159 136 117
0.046813 0.515141 0.717475 160 138 118
-0.170757 0.538343 0.046050 87 64 48
-0.140748 0.541715 0.039924 92 67 48
-0.175556 0.533794 0.043333 113 88 67
-0.162693 0.538471 0.045658 92 68 48
-0.172408 0.536187 0.069513 130 103 81
-0.141815 0.530035 0.061090 108 81 61
-0.162955 0.536522 0.062938 95 70 49
-0.144152 0.536702 0.060315 92 67 46
-0.156615 0.459020 -0.022522 157 127 108
-0.159162 0.451613 -0.038403 119 92 74
-0.173650 0.455619 -0.038993 135 108 91
-0.154526 0.455859 -0.052230 75 37 22
-0.516599 0.532048 0.464817 144 117 95
-0.553014 0.333947 -0.084056 49 36 17
-0.522691 0.335071 -0.084738 59 45 20
-0.545937 0.337169 -0.072683 65 48 26
-0.517256 0.347287 -0.053776 67 51 29
-0.147029 0.453024 0.610757 150 116 63
-0.138792 0.462214 0.604052 148 114 67
-0.141640 0.455697 0.596768 111 86 51
-0.718254 0.286842 -0.213974 51 35 14
-0.153961 0.455435 0.617054 153 119 78
-0.735613 0.284821 -0.220405 51 35 15
-0.716195 0.281911 -0.226916 49 32 14
-0.152900 0.448962 0.064917 148 115 94
-0.137731 0.438022 0.047195 136 99 78
-0.130117 0.432848 0.036759 138 94 76
-0.809591 0.299514 -0.168935 57 41 20
-0.589560 0.538504 0.222196 133 108 88
-0.559713 0.537347 0.211525 134 108 88
-0.706713 0.517705 0.007322 66 48 25
-0.724188 0.523095 0.007603 57 39 17
-0.690470 0.523954 0.006713 61 43 20
-0.693491 0.536769 0.015764 100 77 50
-0.129559 0.391689 -0.083066 106 51 25
-0.115401 0.397695 -0.088627 109 51 24
-0.143320 0.402984 -0.086731 93 42 19
-0.146145 0.396247 -0.058310 65 21 3
-0.119724 0.395054 -0.072353 103 49 29
-0.132974 0.395491 -0.065522 103 49 29
-0.152475 0.401926 -0.083191 113 51 21
-0.150295 0.398549 -0.072405 58 23 7
-0.133328 0.395894 -0.073500 105 51 30
-0.126435 0.396511 -0.079979 109 53 27
-0.155447 0.396513 -0.078095 71 29 11
-0.159785 0.508517 0.187058 147 116 91
-0.178113 0.521072 0.053079 141 114 92
-0.179960 0.513283 0.015158 130 105 83
-0.193340 0.513937 0.015283 124 100 79
-0.189274 0.511108 0.014624 103 78 58
-0.201352 0.505426 0.004868 81 60 43
-0.178879 0.507236 0.030007 142 114 94
-0.205290 0.501757 0.028042 81 60 43
-0.189784 0.503984 0.023242 132 105 85
-0.203634 0.497752 0.017426 80 58 43
-0.610115 0.540203 0.148946 130 105 85
-0.623301 0.539130 0.172865 132 107 86
0.020494 0.441851 0.008046 188 172 161
0.020540 0.435269 -0.010553 188 175 162
0.017224 0.414515 -0.024809 187 174 161
0.016403 0.425562 0.004073 186 173 160
-0.276213 0.509949 0.130999 123 99 79
-0.306024 0.515228 0.125292 103 84 64
-0.289884 0.508799 0.112187 89 69 50
-0.474914 0.538661 0.220715 138 113 86
-0.466777 0.538156 0.257779 138 112 89
-0.478743 0.537880 0.244309 138 112 90
-0.516634 0.522742 0.007498 87 69 46
0.079129 0.283438 -0.065288 94 54 28
0.039162 0.513268 0.695758 163 139 119
0.026638 0.514827 0.709289 165 140 120
0.030070 0.514896 0.672211 164 139 120
-0.305345 0.270843 -0.021275 33 33 33
-0.091280 0.304925 -0.047423 94 35 11
-0.101185 0.321651 -0.051399 96 37 12
-0.082416 0.312752 -0.042429 93 39 10
-0.065828 0.316227 -0.041975 96 39 14
0.031971 0.420260 0.612758 141 115 87
0.038379 0.432376 0.612362 140 117 92
-0.346929 0.358356 -0.154804 17 6 4
-0.345146 0.312276 -0.133554 17 8 3
-0.345156 0.345599 -0.129337 15 6 3
-0.345414 0.326597 -0.122062 16 7 5
-0.346634 0.356381 -0.120904 16 7 3
-0.346260 0.346754 -0.138054 18 7 4
-0.345947 0.436783 -0.171321 17 8 3
-0.014392 0.535073 -0.023631 106 92 83
-0.017761 0.527162 -0.046483 81 69 56
-0.151990 0.528935 0.223638 142 108 82
-0.312846 0.480683 -0.280311 41 31 21
-0.297053 0.503495 -0.272301 39 29 20
-0.313590 0.479275 -0.260703 39 29 20
-0.403713 0.534396 0.338461 137 110 87
-0.474032 0.453457 -0.129384 49 40 7
-0.500011 0.484452 -0.135883 41 33 17
-0.490096 0.482482 -0.134548 38 26 9
-0.477743 0.472140 -0.153434 50 41 7
-0.492374 0.475800 -0.144014 55 48 11
-0.484604 0.483113 -0.145288 65 61 12
-0.487884 0.485777 -0.124939 32 23 5
-0.484614 0.483154 -0.124425 34 24 9
-0.493394 0.474344 -0.132652 30 21 8
-0.479107 0.469783 -0.124794 36 25 9
-0.494319 0.469326 -0.123921 42 32 21
-0.492298 0.463122 0.014588 79 65 42
-0.503031 0.458269 0.025190 88 73 48
-0.046477 0.514565 0.657242 169 142 119
-0.052584 0.515349 0.670691 165 139 112
-0.428056 0.350382 -0.066110 103 103 30
-0.420630 0.380067 -0.079738 122 128 29
-0.425882 0.384701 -0.073080 107 112 25
-0.427100 0.370979 -0.067707 102 108 18
-0.405761 0.380783 -0.063341 102 107 27
-0.470323 0.418745 -0.083677 31 23 9
-0.471374 0.407274 -0.066592 44 35 19
-0.593252 0.323884 -0.132051 86 65 35
-0.609698 0.314393 -0.139653 59 41 22
-0.595059 0.333811 -0.124321 75 55 28
-0.642750 0.540770 0.218080 133 108 88
-0.614254 0.540187 0.210659 134 108 88
-0.002991 0.377757 -0.052752 86 30 8
-0.030583 0.353472 -0.055238 124 65 39
-0.013723 0.363782 -0.054478 115 55 33
-0.003809 0.357600 -0.053812 90 29 10
-0.569561 0.532528 0.434708 140 117 94
-0.544523 0.532222 0.431677 141 116 96
-0.532500 0.532399 0.463946 140 117 95
-0.550807 0.533880 0.018702 81 62 36
-0.533257 0.531991 0.017771 103 83 56
-0.549962 0.541797 0.031057 127 103 78
-0.536703 0.540112 0.027655 122 100 74
-0.689179 0.347563 -0.057730 73 54 31
-0.676561 0.356789 -0.039926 68 52 27
-0.701809 0.359621 -0.035698 71 53 28
-0.595597 0.318810 -0.172623 24 14 7
-0.609103 0.293981 -0.173668 90 68 36
-0.600490 0.308216 -0.166698 91 69 36
-0.601713 0.316080 -0.180443 30 21 9
-0.175233 0.529426 -0.007369 116 90 69
-0.165593 0.531950 0.231655 134 109 91
-0.153156 0.532598 0.236510 139 114 92
-0.169897 0.533862 0.251257 137 111 91
-0.058223 0.468712 0.116319 157 141 128
-0.070853 0.471928 0.125501 136 99 83
-0.052072 0.485468 0.149205 156 134 127
-0.076200 0.460580 0.111704 204 158 125
0.072582 0.501319 0.542829 168 146 129
0.058351 0.493700 0.528037 149 130 111
0.066562 0.507258 0.530698 149 130 111
0.073266 0.501141 0.527968 168 148 129
-0.215323 0.520462 0.537854 132 94 58
-0.205888 0.519510 0.554567 131 96 58
-0.237181 0.523476 0.535680 137 101 63
-0.171729 0.479595 0.119946 145 112 86
-0.157855 0.466338 0.100279 129 98 77
-0.021232 0.421076 0.013459 167 140 128
-0.058321 0.420178 0.019264 142 105 93
-0.046705 0.419035 0.013091 143 101 88
-0.072806 0.504982 0.642214 133 99 59
-0.055479 0.502664 0.641517 124 91 48
-0.067357 0.488500 0.632077 146 112 73
-0.416697 0.527905 -0.241840 48 33 16
-0.417842 0.525405 -0.223659 44 31 13
-0.474846 0.533439 0.378131 143 115 91
-0.497612 0.535329 0.375196 142 115 91
-0.291942 0.257017 -0.047725 91 82 79
-0.294217 0.275681 -0.044775 74 67 63
-0.292018 0.250635 -0.052103 10 11 16
-0.171934 0.466206 0.595766 147 115 69
-0.176165 0.466209 0.602504 156 124 70
-0.167775 0.489242 0.606703 155 123 70
-0.173530 0.469608 0.613971 146 112 71
-0.210215 0.531136 0.089888 96 70 49
-0.213437 0.535391 0.104041 96 71 47
-0.227916 0.538523 0.091594 90 66 49
-0.222539 0.535711 0.079209 99 72 53
0.088236 0.510499 -0.284204 34 30 23
-0.467120 0.366923 -0.143708 107 106 19
-0.465399 0.332417 -0.148410 85 80 16
-0.462699 0.358940 -0.160623 125 127 27
-0.474631 0.330645 -0.137129 62 46 21
-0.149000 0.401247 -0.040633 254 251 141
-0.134574 0.398452 -0.035957 74 32 16
-0.141197 0.399826 -0.050653 168 89 49
-0.154536 0.409165 -0.022764 96 63 44
-0.269777 0.538469 0.184852 128 105 83
-0.236398 0.535942 0.186698 124 102 79
0.009828 0.457324 0.076526 177 159 151
-0.143099 0.466199 0.108008 152 122 101
-0.130429 0.474615 0.124701 121 100 90
-0.135403 0.481753 0.140030 168 135 106
-0.352616 0.487343 -0.187054 23 10 8
-0.351121 0.498503 -0.217838 19 8 6
-0.351774 0.484253 -0.215637 22 8 6
0.040956 0.533909 0.115865 151 131 117
0.024039 0.506980 0.111532 146 129 116
0.031908 0.525547 0.118808 151 132 118
0.026859 0.515218 0.127647 149 129 116
-0.619885 0.519460 0.008456 80 59 31
-0.607429 0.510781 0.011421 81 61 31
-0.605519 0.527386 0.009912 77 57 29
-0.795423 0.307226 -0.146770 58 42 20
-0.777183 0.307015 -0.146210 62 44 24
-0.074463 0.441192 0.069384 161 133 119
-0.082113 0.456634 0.104556 80 33 12
-0.793793 0.318006 -0.121413 63 46 23
-0.282545 0.536450 0.220429 127 102 80
-0.249372 0.462846 -0.064534 34 35 45
-0.225966 0.426960 -0.066592 32 38 46
-0.239423 0.455586 -0.065486 31 37 48
-0.217987 0.446887 -0.066034 30 36 47
-0.568999 0.540590 0.128090 128 105 82
-0.347400 0.388010 -0.159554 16 8 5
-0.343394 0.388564 -0.180256 18 10 5
-0.346390 0.348330 -0.177702 16 8 4
-0.723268 0.411065 0.016129 85 65 35
-0.363901 0.499239 -0.059246 62 33 16
-0.375756 0.508514 -0.086461 69 37 22
-0.378737 0.503127 -0.064031 59 32 15
-0.399567 0.502302 -0.076881 47 28 25
-0.392665 0.489790 -0.072111 48 29 24
-0.396632 0.520691 -0.070411 56 31 18
-0.392654 0.473932 -0.084415 35 26 42
-0.387460 0.489398 -0.086176 47 28 33
-0.397344 0.499379 -0.088990 39 25 37
-0.375871 0.472399 -0.084418 67 36 22
-0.815104 0.292194 -0.185387 57 40 18
-0.423200 0.271796 -0.085485 81 77 16
-0.384461 0.513916 -0.087176 70 36 13
-0.384477 0.529190 -0.060345 53 28 9
-0.407349 0.532624 -0.072857 56 29 13
-0.417459 0.530087 0.515887 139 109 84
-0.413613 0.529847 0.546964 137 109 81
-0.408924 0.287613 -0.085611 38 32 43
-0.411848 0.299007 -0.063941 96 93 32
-0.404892 0.292443 -0.064507 33 29 40
-0.418642 0.268851 -0.063717 103 102 22
-0.159264 0.471466 0.004917 130 89 71
-0.148665 0.471857 0.003061 138 95 76
-0.173757 0.464340 -0.021124 148 115 95
-0.172685 0.475094 -0.000834 134 96 74
-0.155675 0.464763 -0.008017 134 94 75
-0.137758 0.410919 -0.097919 95 42 17
-0.127937 0.405785 -0.096019 94 45 20
-0.473002 0.423133 -0.030934 61 48 29
-0.247511 0.524765 0.080804 103 86 73
-0.265992 0.505355 0.096273 128 102 84
-0.257848 0.514914 0.109290 115 95 81
-0.274061 0.503202 0.091946 107 85 70
-0.270296 0.498370 0.065160 126 100 85
-0.260234 0.507139 0.083380 126 103 87
-0.093754 0.464549 0.117845 80 43 28
-0.084084 0.469038 0.126165 71 29 10
-0.085359 0.471282 0.133635 63 28 10
-0.363829 0.516216 -0.054214 60 41 29
-0.374456 0.520313 -0.059514 65 46 33
0.010608 0.514953 0.676197 167 143 122
0.011863 0.516567 0.659431 168 144 124
0.013581 0.329700 -0.064999 102 54 26
0.012121 0.347329 -0.063645 95 46 20
-0.582717 0.341047 -0.068445 57 42 20
-0.295486 0.537328 0.165639 131 108 87
-0.393836 0.533114 -0.119851 43 31 18
-0.382172 0.540189 -0.123384 51 35 21
-0.365068 0.545416 -0.108821 46 30 19
-0.397688 0.515236 -0.104465 52 32 29
-0.390993 0.525242 -0.099178 47 29 34
-0.389761 0.530868 -0.111511 55 38 22
-0.382503 0.540037 -0.108008 50 33 19
-0.381957 0.530384 -0.091252 49 29 26
-0.599359 0.416421 0.029030 87 65 35
-0.593765 0.401805 0.018825 82 62 33
-0.310580 0.533270 0.338696 125 98 76
-0.324592 0.533940 0.359877 123 97 75
0.045630 0.531194 0.209032 160 135 117
-0.590758 0.298630 -0.229054 22 14 6
-0.592423 0.307206 -0.218694 22 14 7
-0.590285 0.278894 -0.221785 28 17 8
-0.618557 0.296262 -0.226363 26 16 6
-0.252339 0.528725 0.402637 125 95 69
0.021899 0.440563 -0.057119 80 48 28
0.024658 0.457219 -0.057137 83 50 29
-0.348589 0.310325 -0.115677 15 6 3
-0.345044 0.302290 -0.125873 18 7 3
-0.791272 0.325404 -0.104948 63 48 24
-0.777706 0.327690 -0.100496 60 43 20
0.008521 0.503575 0.077651 174 159 148
0.013911 0.511105 0.087801 171 156 145
-0.366656 0.427508 -0.060784 30 21 35
-0.367157 0.447693 -0.063428 31 20 34
-0.349680 0.420351 -0.062363 30 20 35
-0.465668 0.543521 -0.166029 44 33 17
-0.472575 0.541158 -0.177222 37 27 15
-0.477049 0.537877 -0.164160 127 129 35
-0.478979 0.540082 -0.153263 86 81 27
-0.493437 0.525448 -0.160228 55 49 15
-0.485611 0.530231 -0.164946 44 33 19
-0.487583 0.528859 -0.155941 84 81 25
-0.480796 0.524471 -0.175577 36 25 13
-0.422716 0.530864 0.484821 135 105 81
0.070560 0.509510 0.477425 150 133 116
0.076304 0.510458 0.485844 157 139 121
0.074955 0.510568 0.466163 155 137 119
-0.500557 0.522747 -0.074852 61 50 36
-0.499679 0.526687 -0.088853 66 54 38
-0.496738 0.534257 -0.077706 68 55 39
-0.677719 0.542339 0.044028 124 100 75
-0.391098 0.530286 0.518761 134 106 78
-0.395642 0.531095 0.493345 134 105 79
-0.381082 0.529942 0.498105 132 104 77
-0.749311 0.477832 0.015631 73 54 30
-0.544079 0.533480 0.394480 146 119 99
-0.539113 0.533758 0.417818 146 119 98
-0.568717 0.534355 0.394946 146 119 100
-0.563017 0.534191 0.419326 145 119 98
-0.169730 0.519069 0.202860 133 86 50
-0.331635 0.243188 -0.200470 20 9 3
-0.589194 0.276054 -0.167864 70 48 25
-0.615119 0.282918 -0.155809 88 63 37
-0.589477 0.267167 -0.179530 68 47 24
-0.590938 0.313540 -0.178415 68 47 24
-0.606068 0.309445 -0.176149 91 66 36
-0.595774 0.273617 -0.163526 90 66 36
-0.607177 0.281075 -0.168103 88 63 35
-0.592366 0.304893 -0.168798 83 58 33
-0.595861 0.301698 -0.164590 91 67 36
-0.203575 0.521962 0.093195 80 56 40
-0.467952 0.546487 -0.047040 76 62 45
-0.483217 0.531025 -0.028976 71 60 43
-0.481592 0.537754 -0.035944 76 65 47
-0.478844 0.543200 -0.039226 85 69 48
-0.497567 0.527212 -0.046363 67 53 34
-0.545892 0.531575 0.463223 141 118 98
-0.011513 0.506599 -0.016888 165 147 136
-0.006721 0.491062 -0.009115 167 149 139
0.020564 0.537975 0.001187 140 119 102
0.049249 0.539362 -0.009714 136 116 99
0.025258 0.537515 -0.028406 135 114 95
0.041746 0.538305 -0.034138 130 111 93
0.026161 0.535222 -0.000618 176 162 149
0.033878 0.538413 -0.000156 135 118 102
0.040314 0.537584 -0.004653 137 118 102
0.070864 0.527844 0.326285 160 138 120
0.082831 0.526225 0.317378 163 138 119
-0.627451 0.535757 0.364468 144 120 99
-0.610449 0.537533 0.352316 143 119 101
-0.612460 0.536641 0.370004 143 118 99
-0.586006 0.533967 0.409294 146 121 100
-0.000752 0.514900 0.704303 166 141 120
0.001871 0.515664 0.684905 165 141 122
-0.016490 0.513912 0.700348 169 144 123
0.009791 0.513916 0.702783 166 142 119
-0.132578 0.533398 0.358724 137 108 86
-0.123912 0.532150 0.368484 138 110 86
-0.145645 0.532033 0.377442 135 105 80
-0.141652 0.526346 0.389387 130 101 77
-0.111380 0.528192 0.379597 132 106 80
0.004381 0.533116 0.342101 157 133 112
0.017940 0.531585 0.350896 158 134 115
0.004225 0.529557 0.357689 165 143 127
-0.298213 0.534173 0.157061 130 105 82
-0.289752 0.529671 0.151847 137 111 92
-0.155464 0.367742 -0.070518 89 39 17
-0.178600 0.385390 -0.063773 76 46 35
-0.165212 0.364642 -0.057205 107 49 23
-0.178399 0.368640 -0.059512 64 41 26
-0.161813 0.370956 -0.063168 118 54 28
-0.179440 0.398001 -0.068450 41 36 41
-0.170499 0.391414 -0.066847 53 37 38
-0.301159 0.531586 0.403596 130 102 75
-0.317326 0.531820 0.415960 136 106 78
-0.370333 0.527267 0.587288 146 118 92
-0.376318 0.527669 0.609196 150 119 95
-0.385304 0.528081 0.583917 146 118 91
-0.213218 0.519299 0.589873 138 106 73
-0.231476 0.520869 0.594477 146 113 84
-0.212561 0.521212 0.605066 145 113 82
-0.498014 0.521847 0.001379 76 61 41
-0.491603 0.506436 -0.003578 72 59 40
-0.496370 0.495094 0.004321 83 68 44
-0.487774 0.478212 0.003404 76 62 41
-0.427764 0.537382 0.182063 131 107 84
-0.430886 0.539307 0.161321 130 105 82
-0.543435 0.534354 0.367774 146 120 99
-0.378018 0.391066 -0.084179 20 14 2
-0.380748 0.403569 -0.082311 28 20 37
-0.351065 0.376428 -0.057419 28 21 33
-0.346111 0.388250 -0.058253 29 20 34
-0.381185 0.392983 -0.055338 31 24 37
-0.361266 0.395822 -0.056479 30 23 36
-0.470189 0.435145 -0.043296 50 40 23
-0.215938 0.523916 0.400144 119 89 60
-0.240388 0.526256 0.418447 128 95 65
-0.486736 0.522353 -0.075393 49 38 24
-0.480193 0.540338 -0.070071 58 49 37
-0.473292 0.544979 -0.071734 61 52 37
-0.479280 0.543727 -0.085736 52 45 30
-0.496697 0.530440 -0.059529 61 50 32
-0.490968 0.522665 -0.050745 52 42 23
-0.489348 0.522866 -0.062461 65 54 37
-0.483273 0.534195 -0.076002 43 35 20
-0.485093 0.524701 -0.061976 51 42 27
-0.168510 0.524277 0.496306 115 81 47
-0.140445 0.523646 0.492907 117 82 48
-0.163423 0.520566 0.518165 128 94 59
-0.154120 0.522860 0.508191 116 82 48
-0.495364 0.446517 0.021374 87 70 46
-0.029660 0.529430 0.362439 146 123 100
0.052231 0.539754 -0.029134 128 109 92
0.069073 0.537930 -0.045530 103 87 70
-0.194079 0.533152 0.277533 134 107 88
-0.173944 0.532370 0.275006 135 109 89
-0.135875 0.458010 0.611708 147 118 83
-0.129702 0.458884 0.600947 146 117 81
