ply
format ascii 1.0
element vertex 1199
property float x
property float y
property float z
property uchar red
property uchar green
property uchar blue
end_header
-1.602762 -3.265202 -0.042958 255 125 0
-1.583368 -3.250922 -0.042687 255 125 0
-1.542965 -3.267689 -0.113591 255 125 0
-1.580561 -3.343529 -0.114502 255 125 0
-1.535926 -3.220113 -0.108980 255 125 0
-1.555318 -3.234393 -0.043025 255 125 0
-1.530330 -3.309223 -0.114476 255 125 0
-1.606721 -3.235735 -0.042975 255 125 0
-1.561603 -3.235101 -0.048590 255 125 0
-1.574816 -3.354974 -0.114532 255 125 0
-1.603589 -3.317196 -0.085591 255 125 0
-1.563781 -3.308247 -0.109591 255 125 0
-1.567283 -3.348396 -0.108792 255 125 0
-1.547530 -3.289210 -0.105591 255 125 0
-1.578406 -3.294915 -0.048517 255 125 0
-1.552162 -3.200304 -0.114501 255 125 0
-1.564030 -3.361955 -0.111591 255 125 0
-1.652944 -3.328144 -0.108519 255 125 0
-1.583472 -3.357223 -0.109124 255 125 0
-1.559048 -3.305164 -0.097591 255 125 0
-1.520181 -3.280710 -0.114455 255 125 0
-1.542948 -3.267692 -0.049591 255 125 0
-1.553485 -3.245006 -0.048550 255 125 0
-1.623974 -3.316907 -0.059591 255 125 0
-1.636585 -3.337755 -0.108602 255 125 0
-1.571640 -3.205367 -0.047591 255 125 0
-1.567420 -3.214371 -0.093591 255 125 0
-1.607751 -3.288678 -0.048497 255 125 0
-1.584956 -3.219914 -0.048582 255 125 0
-1.535198 -3.322501 -0.109054 255 125 0
-1.578882 -3.316393 -0.091591 255 125 0
-1.592242 -3.206097 -0.048561 255 125 0
-1.572583 -3.315618 -0.107591 255 125 0
-1.537035 -3.287351 -0.047591 255 125 0
-1.576376 -3.213559 -0.099591 255 125 0
-1.554780 -3.222239 -0.114537 255 125 0
-1.533875 -3.277800 -0.114494 255 125 0
-1.534508 -3.232682 -0.109107 255 125 0
-1.650279 -3.334844 -0.114500 255 125 0
-1.596694 -3.217419 -0.042788 255 125 0
-1.505485 -3.298147 -0.114431 255 125 0
-1.626033 -3.259254 -0.047591 255 125 0
-1.642021 -3.297751 -0.099591 255 125 0
-1.554710 -3.312220 -0.057591 255 125 0
-1.575250 -3.260826 -0.048566 255 125 0
-1.562973 -3.251168 -0.043111 255 125 0
-1.586326 -3.235980 -0.043094 255 125 0
-1.528531 -3.334142 -0.113591 255 125 0
-1.612051 -3.222334 -0.042718 255 125 0
-1.554581 -3.221306 -0.079591 255 125 0
-1.579168 -3.211923 -0.073591 255 125 0
-1.642576 -3.346705 -0.109178 255 125 0
-1.565193 -3.319327 -0.103591 255 125 0
-1.634354 -3.308021 -0.097591 255 125 0
-1.574163 -3.323051 -0.095591 255 125 0
-1.630073 -3.220548 -0.043087 255 125 0
-1.607245 -3.324778 -0.057591 255 125 0
-1.506902 -3.285577 -0.109542 255 125 0
-1.546274 -3.297655 -0.043125 255 125 0
-1.632474 -3.289557 -0.042824 255 125 0
-1.516391 -3.291739 -0.109430 255 125 0
-1.528129 -3.289244 -0.108915 255 125 0
-1.552483 -3.259531 -0.048563 255 125 0
-1.584738 -3.266988 -0.042856 255 125 0
-1.541375 -3.236132 -0.067591 255 125 0
-1.575987 -3.322010 -0.114543 255 125 0
-1.640374 -3.326726 -0.114533 255 125 0
-1.622957 -3.215926 -0.048568 255 125 0
-1.642548 -3.279236 -0.048551 255 125 0
-1.586307 -3.332085 -0.114505 255 125 0
-1.555961 -3.352848 -0.114565 255 125 0
-1.539527 -3.241838 -0.103591 255 125 0
-1.535571 -3.252903 -0.065591 255 125 0
-1.524433 -3.243002 -0.108943 255 125 0
-1.557241 -3.219671 -0.071591 255 125 0
-1.543826 -3.257282 -0.048552 255 125 0
-1.541544 -3.236926 -0.095591 255 125 0
-1.615774 -3.336044 -0.109305 255 125 0
-1.559968 -3.294745 -0.048514 255 125 0
-1.618090 -3.202648 -0.114579 255 125 0
-1.607497 -3.316337 -0.109591 255 125 0
-1.556231 -3.229068 -0.051591 255 125 0
-1.550069 -3.238554 -0.059591 255 125 0
-1.650449 -3.316406 -0.114511 255 125 0
-1.627398 -3.309038 -0.047591 255 125 0
-1.537982 -3.246256 -0.081591 255 125 0
-1.533436 -3.269714 -0.043591 255 125 0
-1.556289 -3.301661 -0.081591 255 125 0
-1.522600 -3.253615 -0.109058 255 125 0
-1.538468 -3.203215 -0.109098 255 125 0
-1.590900 -3.257500 -0.043079 255 125 0
-1.534461 -3.261318 -0.114485 255 125 0
-1.592804 -3.232559 -0.047591 255 125 0
-1.599775 -3.212675 -0.048530 255 125 0
-1.607802 -3.211964 -0.047591 255 125 0
-1.528715 -3.272762 -0.108886 255 125 0
-1.526711 -3.301814 -0.114540 255 125 0
-1.558692 -3.221407 -0.042598 255 125 0
-1.547956 -3.228613 -0.049591 255 125 0
-1.554605 -3.312242 -0.105591 255 125 0
-1.617437 -3.343870 -0.114526 255 125 0
-1.601256 -3.325457 -0.107591 255 125 0
-1.579093 -3.192535 -0.109591 255 125 0
-1.498954 -3.277043 -0.109223 255 125 0
-1.550801 -3.347810 -0.109275 255 125 0
-1.666392 -3.304838 -0.114510 255 125 0
-1.603565 -3.201646 -0.112487 255 125 0
-1.655779 -3.303005 -0.114526 255 125 0
-1.508244 -3.234175 -0.114503 255 125 0
-1.592734 -3.246887 -0.042943 255 125 0
-1.673679 -3.291022 -0.109330 255 125 0
-1.549194 -3.307258 -0.107591 255 125 0
-1.671600 -3.281240 -0.114515 255 125 0
-1.615207 -3.256422 -0.048580 255 125 0
-1.646924 -3.251725 -0.042225 255 125 0
-1.613302 -3.276317 -0.047591 255 125 0
-1.600580 -3.324961 -0.085591 255 125 0
-1.616468 -3.320072 -0.107591 255 125 0
-1.551757 -3.224926 -0.069591 255 125 0
-1.548617 -3.227638 -0.087591 255 125 0
-1.617193 -3.323475 -0.114430 255 125 0
-1.632118 -3.307124 -0.061591 255 125 0
-1.592120 -3.195900 -0.114558 255 125 0
-1.578451 -3.314364 -0.083591 255 125 0
-1.599689 -3.318088 -0.063591 255 125 0
-1.546688 -3.285299 -0.073591 255 125 0
-1.548898 -3.194568 -0.109591 255 125 0
-1.543864 -3.281810 -0.057591 255 125 0
-1.621955 -3.230452 -0.042579 255 125 0
-1.549275 -3.239766 -0.085591 255 125 0
-1.574122 -3.313238 -0.059591 255 125 0
-1.576499 -3.314800 -0.067591 255 125 0
-1.561235 -3.216777 -0.087591 255 125 0
-1.650373 -3.277573 -0.048584 255 125 0
-1.652623 -3.268916 -0.048577 255 125 0
-1.565358 -3.320101 -0.067591 255 125 0
-1.545518 -3.332576 -0.114584 255 125 0
-1.593832 -3.319392 -0.101591 255 125 0
-1.506534 -3.254985 -0.108812 255 125 0
-1.544098 -3.300163 -0.077591 255 125 0
-1.547692 -3.242148 -0.053591 255 125 0
-1.570553 -3.229110 -0.043410 255 125 0
-1.580601 -3.324477 -0.071591 255 125 0
-1.627499 -3.314248 -0.071591 255 125 0
-1.556582 -3.219811 -0.059591 255 125 0
-1.543198 -3.254325 -0.057591 255 125 0
-1.565522 -3.219956 -0.101591 255 125 0
-1.556234 -3.229079 -0.091591 255 125 0
-1.524481 -3.214366 -0.108702 255 125 0
-1.540393 -3.294816 -0.099591 255 125 0
-1.580705 -3.324968 -0.083591 255 125 0
-1.539857 -3.227456 -0.109591 255 125 0
-1.576715 -3.219621 -0.048557 255 125 0
-1.542102 -3.263783 -0.105591 255 125 0
-1.635725 -3.266374 -0.048588 255 125 0
-1.666688 -3.314999 -0.109591 255 125 0
-1.534881 -3.253677 -0.049591 255 125 0
-1.581071 -3.288214 -0.042793 255 125 0
-1.562293 -3.324921 -0.108765 255 125 0
-1.576144 -3.324021 -0.047591 255 125 0
-1.554052 -3.324628 -0.108813 255 125 0
-1.679401 -3.260226 -0.113591 255 125 0
-1.576497 -3.266695 -0.042868 255 125 0
-1.610784 -3.312569 -0.042664 255 125 0
-1.541016 -3.296728 -0.089591 255 125 0
-1.576458 -3.324224 -0.063591 255 125 0
-1.608610 -3.360059 -0.114566 255 125 0
-1.671429 -3.299678 -0.108772 255 125 0
-1.635649 -3.227541 -0.048568 255 125 0
-1.538023 -3.246248 -0.057591 255 125 0
-1.607240 -3.343992 -0.108836 255 125 0
-1.535039 -3.281641 -0.063591 255 125 0
-1.554931 -3.299905 -0.043308 255 125 0
-1.580873 -3.239184 -0.048542 255 125 0
-1.614546 -3.320647 -0.091591 255 125 0
-1.549299 -3.239761 -0.101591 255 125 0
-1.575741 -3.301615 -0.042942 255 125 0
-1.579776 -3.310981 -0.042896 255 125 0
-1.590853 -3.286135 -0.042420 255 125 0
-1.533675 -3.273753 -0.083591 255 125 0
-1.630272 -3.269578 -0.042450 255 125 0
-1.617901 -3.317190 -0.042911 255 125 0
-1.548816 -3.280758 -0.042630 255 125 0
-1.516608 -3.244665 -0.109295 255 125 0
-1.599633 -3.298582 -0.042927 255 125 0
-1.521088 -3.323456 -0.109135 255 125 0
-1.595011 -3.305698 -0.042565 255 125 0
-1.582073 -3.273689 -0.042640 255 125 0
-1.565203 -3.338615 -0.108840 255 125 0
-1.535831 -3.277384 -0.042841 255 125 0
-1.509104 -3.305556 -0.109494 255 125 0
-1.543703 -3.247085 -0.042779 255 125 0
-1.609877 -3.269823 -0.042799 255 125 0
-1.587261 -3.346194 -0.108849 255 125 0
-1.533040 -3.267754 -0.071591 255 125 0
-1.573048 -3.240847 -0.043014 255 125 0
-1.518593 -3.311718 -0.109337 255 125 0
-1.568086 -3.284840 -0.042706 255 125 0
-1.607212 -3.324623 -0.071591 255 125 0
-1.564759 -3.269190 -0.042766 255 125 0
-1.564023 -3.208006 -0.108897 255 125 0
-1.573029 -3.336952 -0.114470 255 125 0
-1.563417 -3.320592 -0.114545 255 125 0
-1.553929 -3.314431 -0.114504 255 125 0
-1.618751 -3.224999 -0.048591 255 125 0
-1.597874 -3.348028 -0.114531 255 125 0
-1.521428 -3.286579 -0.109366 255 125 0
-1.547690 -3.236983 -0.113591 255 125 0
-1.601438 -3.220500 -0.048540 255 125 0
-1.611077 -3.323566 -0.051591 255 125 0
-1.611276 -3.353358 -0.114505 255 125 0
-1.509567 -3.278877 -0.109145 255 125 0
-1.584493 -3.246594 -0.048575 255 125 0
-1.539035 -3.282837 -0.114514 255 125 0
-1.628222 -3.327265 -0.114501 255 125 0
-1.539007 -3.215368 -0.114529 255 125 0
-1.538128 -3.240091 -0.114531 255 125 0
-1.576620 -3.276892 -0.048563 255 125 0
-1.548373 -3.211333 -0.114563 255 125 0
-1.594085 -3.359057 -0.108869 255 125 0
-1.570997 -3.211958 -0.083591 255 125 0
-1.560043 -3.333578 -0.108869 255 125 0
-1.615714 -3.249188 -0.047591 255 125 0
-1.528913 -3.321793 -0.114492 255 125 0
-1.595030 -3.209594 -0.042957 255 125 0
-1.517270 -3.267016 -0.114519 255 125 0
-1.630470 -3.318608 -0.108885 255 125 0
-1.601957 -3.328758 -0.114527 255 125 0
-1.628855 -3.282147 -0.048531 255 125 0
-1.533431 -3.208375 -0.114532 255 125 0
-1.550454 -3.309035 -0.051591 255 125 0
-1.576838 -3.229818 -0.048568 255 125 0
-1.591514 -3.308486 -0.048513 255 125 0
-1.556254 -3.344607 -0.114471 255 125 0
-1.563021 -3.222532 -0.048537 255 125 0
-1.637879 -3.314988 -0.108903 255 125 0
-1.660571 -3.277450 -0.108776 255 125 0
-1.569362 -3.358178 -0.108792 255 125 0
-1.617750 -3.239525 -0.048573 255 125 0
-1.555980 -3.256743 -0.042981 255 125 0
-1.525435 -3.228476 -0.114526 255 125 0
-1.545424 -3.245561 -0.091591 255 125 0
-1.621889 -3.355192 -0.109015 255 125 0
-1.550895 -3.290539 -0.048573 255 125 0
-1.636707 -3.347952 -0.114491 255 125 0
-1.660693 -3.287648 -0.114479 255 125 0
-1.563465 -3.291957 -0.042990 255 125 0
-1.527514 -3.238258 -0.114515 255 125 0
-1.625698 -3.248059 -0.042595 255 125 0
-1.655854 -3.341838 -0.114542 255 125 0
-1.600662 -3.351525 -0.108993 255 125 0
-1.564835 -3.308023 -0.048535 255 125 0
-1.639637 -3.265542 -0.042757 255 125 0
-1.533780 -3.335071 -0.108947 255 125 0
-1.596920 -3.333918 -0.109010 255 125 0
-1.518272 -3.252491 -0.114528 255 125 0
-1.586185 -3.321887 -0.114407 255 125 0
-1.521551 -3.296776 -0.109022 255 125 0
-1.502914 -3.247576 -0.109090 255 125 0
-1.555144 -3.300908 -0.113591 255 125 0
-1.624233 -3.289264 -0.048585 255 125 0
-1.617884 -3.365208 -0.113591 255 125 0
-1.625803 -3.315511 -0.051591 255 125 0
-1.627947 -3.239402 -0.042621 255 125 0
-1.602392 -3.234610 -0.048569 255 125 0
-1.566265 -3.218558 -0.071591 255 125 0
-1.552727 -3.231815 -0.071591 255 125 0
-1.626113 -3.201915 -0.113591 255 125 0
-1.561754 -3.312767 -0.114544 255 125 0
-1.566517 -3.219744 -0.042690 255 125 0
-1.632170 -3.307368 -0.089591 255 125 0
-1.531455 -3.304895 -0.109100 255 125 0
-1.573020 -3.211858 -0.061591 255 125 0
-1.531966 -3.249580 -0.108957 255 125 0
-1.519859 -3.221483 -0.114541 255 125 0
-1.498070 -3.260874 -0.109591 255 125 0
-1.669520 -3.271459 -0.114479 255 125 0
-1.644334 -3.297259 -0.109080 255 125 0
-1.575836 -3.244344 -0.048548 255 125 0
-1.572755 -3.249088 -0.042738 255 125 0
-1.599264 -3.267990 -0.048580 255 125 0
-1.599690 -3.318089 -0.111591 255 125 0
-1.625795 -3.315853 -0.101591 255 125 0
-1.534530 -3.277660 -0.107591 255 125 0
-1.563956 -3.332746 -0.114532 255 125 0
-1.562954 -3.347272 -0.114579 255 125 0
-1.515606 -3.259191 -0.109148 255 125 0
-1.565933 -3.236226 -0.042924 255 125 0
-1.641253 -3.302003 -0.046425 255 125 0
-1.518933 -3.274841 -0.109229 255 125 0
-1.556273 -3.248502 -0.042881 255 125 0
-1.589019 -3.296748 -0.048590 255 125 0
-1.598801 -3.294669 -0.048542 255 125 0
-1.637001 -3.291619 -0.047591 255 125 0
-1.617280 -3.314270 -0.103591 255 125 0
-1.501619 -3.270343 -0.114521 255 125 0
-1.512280 -3.243541 -0.114516 255 125 0
-1.604887 -3.246348 -0.042840 255 125 0
-1.529348 -3.227645 -0.108943 255 125 0
-1.608658 -3.331423 -0.114508 255 125 0
-1.571309 -3.194189 -0.114536 255 125 0
-1.641273 -3.248837 -0.047591 255 125 0
-1.582877 -3.210133 -0.048580 255 125 0
-1.578564 -3.324517 -0.107591 255 125 0
-1.540329 -3.260070 -0.042919 255 125 0
-1.617277 -3.314257 -0.079591 255 125 0
-1.538033 -3.297362 -0.108691 255 125 0
-1.615009 -3.207392 -0.044746 255 125 0
-1.569560 -3.321331 -0.075591 255 125 0
-1.553948 -3.218326 -0.109033 255 125 0
-1.543391 -3.351430 -0.109403 255 125 0
-1.558115 -3.314887 -0.079591 255 125 0
-1.568578 -3.311317 -0.083591 255 125 0
-1.659106 -3.318655 -0.114520 255 125 0
-1.584414 -3.255845 -0.047591 255 125 0
-1.546991 -3.243312 -0.077591 255 125 0
-1.547748 -3.305521 -0.079591 255 125 0
-1.647510 -3.235243 -0.048551 255 125 0
-1.567302 -3.252292 -0.048505 255 125 0
-1.628980 -3.312791 -0.063591 255 125 0
-1.596797 -3.323721 -0.114500 255 125 0
-1.553515 -3.298161 -0.073591 255 125 0
-1.565486 -3.209740 -0.047591 255 125 0
-1.649542 -3.273661 -0.042231 255 125 0
-1.527297 -3.285332 -0.114500 255 125 0
-1.534138 -3.259801 -0.103591 255 125 0
-1.568209 -3.295038 -0.048489 255 125 0
-1.553860 -3.300132 -0.055591 255 125 0
-1.543410 -3.255326 -0.072571 255 125 0
-1.592420 -3.204015 -0.109591 255 125 0
-1.567816 -3.216232 -0.107591 255 125 0
-1.656412 -3.257887 -0.044724 255 125 0
-1.668934 -3.287941 -0.114420 255 125 0
-1.625743 -3.315606 -0.093591 255 125 0
-1.582763 -3.363508 -0.112057 255 125 0
-1.562142 -3.247255 -0.048528 255 125 0
-1.644873 -3.309413 -0.109007 255 125 0
-1.553466 -3.341110 -0.109119 255 125 0
-1.640516 -3.240819 -0.048535 255 125 0
-1.609263 -3.218837 -0.048574 255 125 0
-1.640299 -3.287893 -0.043099 255 125 0
-1.609897 -3.318015 -0.057591 255 125 0
-1.503406 -3.288365 -0.114486 255 125 0
-1.510399 -3.282789 -0.114483 255 125 0
-1.644259 -3.258426 -0.042833 255 125 0
-1.543009 -3.277903 -0.067591 255 125 0
-1.664776 -3.268378 -0.109245 255 125 0
-1.585156 -3.317050 -0.067591 255 125 0
-1.557770 -3.226686 -0.083591 255 125 0
-1.614990 -3.303496 -0.043253 255 125 0
-1.594860 -3.228032 -0.042562 255 125 0
-1.547921 -3.291171 -0.063591 255 125 0
-1.637388 -3.274199 -0.048546 255 125 0
-1.618454 -3.319790 -0.049591 255 125 0
-1.543242 -3.259451 -0.063591 255 125 0
-1.506609 -3.293818 -0.109530 255 125 0
-1.547759 -3.242134 -0.107591 255 125 0
-1.534257 -3.261361 -0.089591 255 125 0
-1.591444 -3.317774 -0.049591 255 125 0
-1.636897 -3.233410 -0.042405 255 125 0
-1.587106 -3.316600 -0.059591 255 125 0
-1.538231 -3.346393 -0.114477 255 125 0
-1.618316 -3.319147 -0.065480 255 125 0
-1.550357 -3.278386 -0.048571 255 125 0
-1.647415 -3.292515 -0.043046 255 125 0
-1.617532 -3.286598 -0.043293 255 125 0
-1.635646 -3.304482 -0.111591 255 125 0
-1.592722 -3.326632 -0.079591 255 125 0
-1.550388 -3.309049 -0.071591 255 125 0
-1.543088 -3.234570 -0.077591 255 125 0
-1.567641 -3.321222 -0.089591 255 125 0
-1.620227 -3.193465 -0.109591 255 125 0
-1.574220 -3.207883 -0.108650 255 125 0
-1.678203 -3.293070 -0.113591 255 125 0
-1.589006 -3.325543 -0.059591 255 125 0
-1.590219 -3.331253 -0.109332 255 125 0
-1.556346 -3.239225 -0.047591 255 125 0
-1.597062 -3.248011 -0.048537 255 125 0
-1.522505 -3.310886 -0.114466 255 125 0
-1.590021 -3.282223 -0.048541 255 125 0
-1.582394 -3.332916 -0.109382 255 125 0
-1.583054 -3.210966 -0.085591 255 125 0
-1.618258 -3.232298 -0.047591 255 125 0
-1.560705 -3.355929 -0.108921 255 125 0
-1.543455 -3.279852 -0.085591 255 125 0
-1.606598 -3.225537 -0.048571 255 125 0
-1.517515 -3.287411 -0.114475 255 125 0
-1.589097 -3.325972 -0.097591 255 125 0
-1.543864 -3.281810 -0.109591 255 125 0
-1.570411 -3.315016 -0.043076 255 125 0
-1.608674 -3.317107 -0.081591 255 125 0
-1.630863 -3.301217 -0.047591 255 125 0
-1.611370 -3.296087 -0.048503 255 125 0
-1.663311 -3.309583 -0.108609 255 125 0
-1.580752 -3.209757 -0.095591 255 125 0
-1.572564 -3.214369 -0.113591 255 125 0
-1.565249 -3.319591 -0.055591 255 125 0
-1.534622 -3.253104 -0.081591 255 125 0
-1.517135 -3.332475 -0.109591 255 125 0
-1.643039 -3.320026 -0.114478 255 125 0
-1.573151 -3.347149 -0.114532 255 125 0
-1.560403 -3.200597 -0.108311 255 125 0
-1.614064 -3.356855 -0.108794 255 125 0
-1.670059 -3.283612 -0.108755 255 125 0
-1.548495 -3.221530 -0.112268 255 125 0
-1.597922 -3.319392 -0.042673 255 125 0
-1.586477 -3.313646 -0.046342 255 125 0
-1.626770 -3.214626 -0.043591 255 125 0
-1.613810 -3.317187 -0.069591 255 125 0
-1.595058 -3.277063 -0.048552 255 125 0
-1.633646 -3.256593 -0.048530 255 125 0
-1.537484 -3.246682 -0.107591 255 125 0
-1.567425 -3.262490 -0.042737 255 125 0
-1.554004 -3.353263 -0.108454 255 125 0
-1.535443 -3.342896 -0.108938 255 125 0
-1.540089 -3.239674 -0.083591 255 125 0
-1.539668 -3.237719 -0.108828 255 125 0
-1.620811 -3.330884 -0.109235 255 125 0
-1.572320 -3.343236 -0.109485 255 125 0
-1.536440 -3.285433 -0.087591 255 125 0
-1.662356 -3.295469 -0.109591 255 125 0
-1.574153 -3.332623 -0.109429 255 125 0
-1.561972 -3.265693 -0.048579 255 125 0
-1.531332 -3.294697 -0.114496 255 125 0
-1.533634 -3.269672 -0.059591 255 125 0
-1.563438 -3.306275 -0.067591 255 125 0
-1.615302 -3.199151 -0.108658 255 125 0
-1.563432 -3.306276 -0.055591 255 125 0
-1.589993 -3.214754 -0.042471 255 125 0
-1.611841 -3.317543 -0.103591 255 125 0
-1.593271 -3.326372 -0.067591 255 125 0
-1.549034 -3.233684 -0.043532 255 125 0
-1.599339 -3.306823 -0.048567 255 125 0
-1.558182 -3.276722 -0.043306 255 125 0
-1.586033 -3.244221 -0.042436 255 125 0
-1.612126 -3.261167 -0.042995 255 125 0
-1.619120 -3.255591 -0.042985 255 125 0
-1.599141 -3.257793 -0.042359 255 125 0
-1.651744 -3.293639 -0.108952 255 125 0
-1.611007 -3.323239 -0.097591 255 125 0
-1.627342 -3.351988 -0.109373 255 125 0
-1.604036 -3.338539 -0.109308 255 125 0
-1.567746 -3.321717 -0.109110 255 125 0
-1.643871 -3.323938 -0.109061 255 125 0
-1.535244 -3.281598 -0.095591 255 125 0
-1.610539 -3.292174 -0.042394 255 125 0
-1.622154 -3.279482 -0.042649 255 125 0
-1.642418 -3.226103 -0.045591 255 125 0
-1.533118 -3.312720 -0.108971 255 125 0
-1.566375 -3.305651 -0.042766 255 125 0
-1.582687 -3.324675 -0.043295 255 125 0
-1.599094 -3.286428 -0.042931 255 125 0
-1.528327 -3.338274 -0.108702 255 125 0
-1.588358 -3.274397 -0.042853 255 125 0
-1.516363 -3.224271 -0.109231 255 125 0
-1.548599 -3.327832 -0.108621 255 125 0
-1.605331 -3.315773 -0.042844 255 125 0
-1.568256 -3.218302 -0.077591 255 125 0
-1.562265 -3.257452 -0.042835 255 125 0
-1.601280 -3.325573 -0.059591 255 125 0
-1.617655 -3.296796 -0.043022 255 125 0
-1.591807 -3.300245 -0.042815 255 125 0
-1.621198 -3.313464 -0.113591 255 125 0
-1.545584 -3.207836 -0.108974 255 125 0
-1.607165 -3.305160 -0.043040 255 125 0
-1.611082 -3.323587 -0.077591 255 125 0
-1.659862 -3.283735 -0.108849 255 125 0
-1.610907 -3.322766 -0.114534 255 125 0
-1.515266 -3.296068 -0.114431 255 125 0
-1.647122 -3.300756 -0.114499 255 125 0
-1.635044 -3.340127 -0.114437 255 125 0
-1.615255 -3.227787 -0.042620 255 125 0
-1.621209 -3.313518 -0.097591 255 125 0
-1.645241 -3.340004 -0.108985 255 125 0
-1.547910 -3.291174 -0.075591 255 125 0
-1.533090 -3.245251 -0.114543 255 125 0
-1.568179 -3.309357 -0.059591 255 125 0
-1.544516 -3.347102 -0.114583 255 125 0
-1.550731 -3.294663 -0.103591 255 125 0
-1.628051 -3.345703 -0.114450 255 125 0
-1.525388 -3.257112 -0.114559 255 125 0
-1.542853 -3.339276 -0.114440 255 125 0
-1.595778 -3.318928 -0.073591 255 125 0
-1.599897 -3.222872 -0.042688 255 125 0
-1.650080 -3.285814 -0.048520 255 125 0
-1.541775 -3.314969 -0.108868 255 125 0
-1.542380 -3.202383 -0.114566 255 125 0
-1.637293 -3.331470 -0.109125 255 125 0
-1.580240 -3.284302 -0.048581 255 125 0
-1.583215 -3.317540 -0.079591 255 125 0
-1.527591 -3.277091 -0.114512 255 125 0
-1.564807 -3.240554 -0.048560 255 125 0
-1.593423 -3.336706 -0.114484 255 125 0
-1.553315 -3.263444 -0.042775 255 125 0
-1.539764 -3.292905 -0.079591 255 125 0
-1.541223 -3.259880 -0.093591 255 125 0
-1.552020 -3.286211 -0.042984 255 125 0
-1.546321 -3.269020 -0.043064 255 125 0
-1.584710 -3.199520 -0.114537 255 125 0
-1.626161 -3.221379 -0.048524 255 125 0
-1.573388 -3.203971 -0.114525 255 125 0
-1.575032 -3.307900 -0.048560 255 125 0
-1.518442 -3.234052 -0.109315 255 125 0
-1.604499 -3.311860 -0.048553 255 125 0
-1.641008 -3.281609 -0.042790 255 125 0
-1.621691 -3.306161 -0.048484 255 125 0
-1.581115 -3.211465 -0.109591 255 125 0
-1.545272 -3.312181 -0.114545 255 125 0
-1.547920 -3.291172 -0.111591 255 125 0
-1.547108 -3.287255 -0.057591 255 125 0
-1.534608 -3.279688 -0.071591 255 125 0
-1.602912 -3.342868 -0.114443 255 125 0
-1.591241 -3.220623 -0.048568 255 125 0
-1.559750 -3.341819 -0.109209 255 125 0
-1.530841 -3.253908 -0.114533 255 125 0
-1.543494 -3.251219 -0.097591 255 125 0
-1.546690 -3.299612 -0.114486 255 125 0
-1.654463 -3.243989 -0.047591 255 125 0
-1.504993 -3.257358 -0.114516 255 125 0
-1.529008 -3.264521 -0.114516 255 125 0
-1.631595 -3.314280 -0.114432 255 125 0
-1.537759 -3.209499 -0.109164 255 125 0
-1.509445 -3.268680 -0.114526 255 125 0
-1.542184 -3.273989 -0.079591 255 125 0
-1.605085 -3.295378 -0.048579 255 125 0
-1.614942 -3.332132 -0.114525 255 125 0
-1.622862 -3.273197 -0.048534 255 125 0
-1.598404 -3.196609 -0.114571 255 125 0
-1.653331 -3.262632 -0.048547 255 125 0
-1.509960 -3.313553 -0.113591 255 125 0
-1.604540 -3.201439 -0.047591 255 125 0
-1.551168 -3.234103 -0.091591 255 125 0
-1.562776 -3.221379 -0.083591 255 125 0
-1.607212 -3.276524 -0.042849 255 125 0
-1.647613 -3.341545 -0.114580 255 125 0
-1.608044 -3.280437 -0.048589 255 125 0
-1.537279 -3.245721 -0.071591 255 125 0
-1.552969 -3.223338 -0.063591 255 125 0
-1.663188 -3.299385 -0.114538 255 125 0
-1.609093 -3.237275 -0.048547 255 125 0
-1.561654 -3.216102 -0.059591 255 125 0
-1.614897 -3.312677 -0.047591 255 125 0
-1.601901 -3.193821 -0.108595 255 125 0
-1.623987 -3.268869 -0.042638 255 125 0
-1.559164 -3.358301 -0.114471 255 125 0
-1.630395 -3.279775 -0.042984 255 125 0
-1.540505 -3.237541 -0.061591 255 125 0
-1.635665 -3.304571 -0.067591 255 125 0
-1.577915 -3.254126 -0.042638 255 125 0
-1.327996 -3.396215 -0.081591 255 125 0
-1.291837 -3.351151 -0.053591 255 125 0
-1.290183 -3.352993 -0.097591 255 125 0
-1.326283 -3.354640 -0.077591 255 125 0
-1.296237 -3.381473 -0.076165 255 125 0
-1.320544 -3.380396 -0.056679 255 125 0
-1.344863 -3.375226 -0.075591 255 125 0
-1.309808 -3.368365 -0.092590 255 125 0
-1.308014 -3.393282 -0.093591 255 125 0
-1.308342 -3.399946 -0.071591 255 125 0
-1.291159 -3.351882 -0.075591 255 125 0
-1.309214 -3.365573 -0.069591 255 125 0
-1.325189 -3.377363 -0.075591 255 125 0
-1.344809 -3.393640 -0.077591 255 125 0
-1.330864 -3.390470 -0.066319 255 125 0
-1.339105 -3.390763 -0.092557 255 125 0
-1.315445 -3.404505 -0.085591 255 125 0
-1.333699 -3.365331 -0.069222 255 125 0
-1.308390 -3.380934 -0.066231 255 125 0
-1.299449 -3.367726 -0.081591 255 125 0
-1.311462 -3.356908 -0.083591 255 125 0
-1.301528 -3.380348 -0.091591 255 125 0
-1.299706 -3.395048 -0.081591 255 125 0
-1.317298 -3.389264 -0.073591 255 125 0
-1.321914 -3.396462 -0.094539 255 125 0
-1.322872 -3.400969 -0.069591 255 125 0
-1.322377 -3.369782 -0.065916 255 125 0
-1.336610 -3.379025 -0.067128 255 125 0
-1.307348 -3.376033 -0.077591 255 125 0
-1.302209 -3.390332 -0.069591 255 125 0
-1.317926 -3.358460 -0.071023 255 125 0
-1.311301 -3.394628 -0.082590 255 125 0
-1.343946 -3.384676 -0.083591 255 125 0
-1.335521 -3.402762 -0.085591 255 125 0
-1.336522 -3.397851 -0.071591 255 125 0
-1.303816 -3.359415 -0.076670 255 125 0
-1.316508 -3.371030 -0.074573 255 125 0
-1.336317 -3.387266 -0.074491 255 125 0
-1.291806 -3.351008 -0.087591 255 125 0
-1.323823 -3.405443 -0.079591 255 125 0
-1.305309 -3.385678 -0.080569 255 125 0
-1.290159 -3.352876 -0.063591 255 125 0
-1.300442 -3.372400 -0.070947 255 125 0
-1.323332 -3.383892 -0.065596 255 125 0
-1.309592 -3.367351 -0.081591 255 125 0
-1.331489 -3.396471 -0.091591 255 125 0
-1.315629 -3.395753 -0.066687 255 125 0
-1.334408 -3.359046 -0.076584 255 125 0
-1.326535 -3.389345 -0.074571 255 125 0
-1.315506 -3.404793 -0.075591 255 125 0
-1.297068 -3.385385 -0.085299 255 125 0
-1.325118 -3.401915 -0.088056 255 125 0
-1.345064 -3.385407 -0.073591 255 125 0
-1.337815 -3.394313 -0.083591 255 125 0
-1.296984 -3.375369 -0.085591 255 125 0
-1.315384 -3.375358 -0.066683 255 125 0
-1.325458 -3.365038 -0.072494 255 125 0
-1.340400 -3.367996 -0.074482 255 125 0
-1.327953 -3.376776 -0.066395 255 125 0
-1.308858 -3.378790 -0.095591 255 125 0
-1.319755 -3.395922 -0.079591 255 125 0
-1.306764 -3.401727 -0.083591 255 125 0
-1.330997 -3.402710 -0.075591 255 125 0
-1.314249 -3.398880 -0.091591 255 125 0
-1.333406 -3.373572 -0.072519 255 125 0
-1.312010 -3.388343 -0.066356 255 125 0
-1.311739 -3.382267 -0.073591 255 125 0
-1.312473 -3.361664 -0.076471 255 125 0
-1.305709 -3.373325 -0.085591 255 125 0
-1.323039 -3.392133 -0.065989 255 125 0
-1.300565 -3.382597 -0.068935 255 125 0
-1.301746 -3.390525 -0.089591 255 125 0
-1.304947 -3.364736 -0.087591 255 125 0
-1.296624 -3.373677 -0.077591 255 125 0
-1.306727 -3.373109 -0.066718 255 125 0
-1.297657 -3.389350 -0.075591 255 125 0
-1.331157 -3.382229 -0.076585 255 125 0
-1.317510 -3.356504 -0.078400 255 125 0
-1.317217 -3.364745 -0.067361 255 125 0
-1.303858 -3.373719 -0.093591 255 125 0
-1.302305 -3.365870 -0.073591 255 125 0
-1.315012 -3.392850 -0.095591 255 125 0
-1.310469 -3.390716 -0.076556 255 125 0
-1.306216 -3.385486 -0.093591 255 125 0
-1.320960 -3.382352 -0.072515 255 125 0
-1.338566 -3.378609 -0.074580 255 125 0
-1.333461 -3.393068 -0.077591 255 125 0
-1.328580 -3.397089 -0.067591 255 125 0
-1.302604 -3.396477 -0.073591 255 125 0
-1.337149 -3.391179 -0.068973 255 125 0
-1.304062 -3.379809 -0.084588 255 125 0
-1.317000 -3.397506 -0.085591 255 125 0
-1.336898 -3.399619 -0.079591 255 125 0
-1.309065 -3.403347 -0.077591 255 125 0
-1.316319 -3.401740 -0.069591 255 125 0
-1.309234 -3.394526 -0.067591 255 125 0
-1.339814 -3.384478 -0.068911 255 125 0
-1.326828 -3.381104 -0.060852 255 125 0
-1.321668 -3.376067 -0.068000 255 125 0
-1.314675 -3.381643 -0.067884 255 125 0
-1.331157 -3.382229 -0.065822 255 125 0
-1.326706 -3.370907 -0.074553 255 125 0
-1.339691 -3.374281 -0.070082 255 125 0
-1.303313 -3.396326 -0.087591 255 125 0
-1.329595 -3.403737 -0.083591 255 125 0
-1.326167 -3.358753 -0.072729 255 125 0
-1.328662 -3.370491 -0.066240 255 125 0
-1.312427 -3.375987 -0.073591 255 125 0
-1.339707 -3.388590 -0.079591 255 125 0
-1.312180 -3.369905 -0.066309 255 125 0
-1.290105 -3.352629 -0.081591 255 125 0
-1.307488 -3.391349 -0.087591 255 125 0
-1.319066 -3.376620 -0.073591 255 125 0
-1.341867 -3.390176 -0.085591 255 125 0
-1.292059 -3.351690 -0.069591 255 125 0
-1.317879 -3.387096 -0.067168 255 125 0
-1.585403 -3.087344 -0.039591 255 0 255
-1.619923 -3.192035 -0.114561 255 0 255
-1.663618 -3.157116 0.034409 255 0 255
-1.649212 -3.098960 -0.115591 255 0 255
-1.596453 -3.177810 -0.025591 255 0 255
-1.561915 -3.130756 -0.108496 255 0 255
-1.625103 -3.081731 0.034409 255 0 255
-1.672983 -3.158265 -0.051591 255 0 255
-1.584428 -3.140476 0.034409 255 0 255
-1.560280 -3.190400 -0.109380 255 0 255
-1.569863 -3.139290 -0.053892 255 0 255
-1.602752 -3.101629 -0.088423 255 0 255
-1.665524 -3.117985 -0.001591 255 0 255
-1.655674 -3.153766 -0.115591 255 0 255
-1.629936 -3.181422 -0.065591 255 0 255
-1.644401 -3.172519 -0.009781 255 0 255
-1.627260 -3.078018 -0.015591 255 0 255
-1.604018 -3.150433 -0.093591 255 0 255
-1.587348 -3.125351 -0.010582 255 0 255
-1.619555 -3.171061 0.034409 255 0 255
-1.662459 -3.099162 0.034409 255 0 255
-1.590466 -3.101544 0.034409 255 0 255
-1.615104 -3.150121 0.001494 255 0 255
-1.592999 -3.171177 -0.063237 255 0 255
-1.614716 -3.105220 0.006409 255 0 255
-1.597129 -3.123271 -0.116495 255 0 255
-1.560509 -3.095283 -0.105591 255 0 255
-1.615914 -3.072251 -0.049591 255 0 255
-1.670195 -3.149578 -0.015591 255 0 255
-1.577513 -3.107945 -0.065591 255 0 255
-1.646210 -3.142554 0.010409 255 0 255
-1.574799 -3.152892 -0.023591 255 0 255
-1.627060 -3.187134 -0.033591 255 0 255
-1.617571 -3.094390 -0.116475 255 0 255
-1.623468 -3.160611 -0.116489 255 0 255
-1.568677 -3.115006 -0.033591 255 0 255
-1.590040 -3.186119 -0.114543 255 0 255
-1.672624 -3.127671 0.032409 255 0 255
-1.644035 -3.098988 0.010409 255 0 255
-1.594388 -3.091139 -0.011012 255 0 255
-1.585807 -3.127723 -0.086897 255 0 255
-1.655119 -3.178420 -0.037591 255 0 255
-1.596813 -3.086534 -0.065591 255 0 255
-1.641197 -3.167066 -0.086557 255 0 255
-1.602289 -3.128309 0.017359 255 0 255
-1.617128 -3.176272 -0.007591 255 0 255
-1.560266 -3.120883 -0.083591 255 0 255
-1.588840 -3.151614 -0.001039 255 0 255
-1.583117 -3.150786 -0.075591 255 0 255
-1.654404 -3.171484 -0.063591 255 0 255
-1.611437 -3.171347 -0.080967 255 0 255
-1.602681 -3.154806 0.024409 255 0 255
-1.651141 -3.119969 0.022409 255 0 255
-1.576810 -3.162350 -0.046685 255 0 255
-1.608224 -3.185093 -0.049591 255 0 255
-1.640637 -3.161051 0.026409 255 0 255
-1.602316 -3.147674 -0.117591 255 0 255
-1.605984 -3.078360 -0.027591 255 0 255
-1.613488 -3.113660 -0.104603 255 0 255
-1.612386 -3.098856 0.028409 255 0 255
-1.631586 -3.150707 -0.098613 255 0 255
-1.640628 -3.097668 0.032409 255 0 255
-1.585562 -3.107328 -0.022579 255 0 255
-1.633665 -3.160488 0.004839 255 0 255
-1.594218 -3.109577 0.001677 255 0 255
-1.668296 -3.163351 -0.031591 255 0 255
-1.603285 -3.161853 -0.013591 255 0 255
-1.567424 -3.135719 -0.033591 255 0 255
-1.623553 -3.151394 0.020409 255 0 255
-1.603467 -3.130103 -0.097591 255 0 255
-1.655959 -3.157794 -0.001591 255 0 255
-1.655770 -3.139432 0.028007 255 0 255
-1.588028 -3.121117 0.030409 255 0 255
-1.575015 -3.127972 -0.069591 255 0 255
-1.595501 -3.168600 -0.043591 255 0 255
-1.599060 -3.103501 -0.115591 255 0 255
-1.637206 -3.177148 -0.047591 255 0 255
-1.629484 -3.092723 -0.001591 255 0 255
-1.663595 -3.137769 -0.001154 255 0 255
-1.579102 -3.131192 -0.117591 255 0 255
-1.581023 -3.105218 -0.045591 255 0 255
-1.627352 -3.092311 0.017413 255 0 255
-1.600971 -3.136768 0.000409 255 0 255
-1.569618 -3.118896 -0.052144 255 0 255
-1.611995 -3.087397 -0.005683 255 0 255
-1.663392 -3.136812 -0.115591 255 0 255
-1.615976 -3.173464 -0.027591 255 0 255
-1.618746 -3.143213 -0.109591 255 0 255
-1.560333 -3.113692 -0.101591 255 0 255
-1.587306 -3.109002 -0.081591 255 0 255
-1.631807 -3.103650 -0.109591 255 0 255
-1.573487 -3.136475 -0.015591 255 0 255
-1.590716 -3.160441 -0.027591 255 0 255
-1.602114 -3.109944 0.018409 255 0 255
-1.638757 -3.174823 -0.027591 255 0 255
-1.595395 -3.163211 -0.079591 255 0 255
-1.613131 -3.175076 -0.063591 255 0 255
-1.600294 -3.080445 -0.047591 255 0 255
-1.656847 -3.163740 -0.018577 255 0 255
-1.619555 -3.161443 -0.092551 255 0 255
-1.639951 -3.161197 -0.111991 255 0 255
-1.582556 -3.150905 -0.058637 255 0 255
-1.573647 -3.118611 -0.017591 255 0 255
-1.660978 -3.115834 0.035512 255 0 255
-1.583830 -3.093383 -0.057591 255 0 255
-1.579768 -3.147408 -0.038572 255 0 255
-1.660182 -3.131329 0.014409 255 0 255
-1.609528 -3.143127 0.015391 255 0 255
-1.587593 -3.145745 -0.016590 255 0 255
-1.627919 -3.171933 -0.078662 255 0 255
-1.604982 -3.189077 -0.109176 255 0 255
-1.591090 -3.142957 -0.087395 255 0 255
-1.606126 -3.088644 -0.078530 255 0 255
-1.642767 -3.145596 -0.109591 255 0 255
-1.663018 -3.170607 -0.049591 255 0 255
-1.624961 -3.186875 -0.050853 255 0 255
-1.575453 -3.099253 -0.031591 255 0 255
-1.629459 -3.169561 -0.014571 255 0 255
-1.584635 -3.160687 -0.013090 255 0 255
-1.641548 -3.082143 0.032409 255 0 255
-1.574542 -3.185324 -0.113591 255 0 255
-1.677633 -3.151143 -0.033591 255 0 255
-1.654154 -3.102972 0.021416 255 0 255
-1.609156 -3.165698 0.000409 255 0 255
-1.592388 -3.085430 -0.025591 255 0 255
-1.583557 -3.136380 -0.000456 255 0 255
-1.663248 -3.160334 -0.069591 255 0 255
-1.603964 -3.121819 0.002409 255 0 255
-1.582064 -3.110116 -0.007607 255 0 255
-1.597363 -3.139579 0.026409 255 0 255
-1.609057 -3.160152 -0.111591 255 0 255
-1.591523 -3.138776 -0.111591 255 0 255
-1.610435 -3.185873 -0.034361 255 0 255
-1.591446 -3.155150 0.034409 255 0 255
-1.624129 -3.182962 -0.019047 255 0 255
-1.607449 -3.133346 -0.112516 255 0 255
-1.652396 -3.152418 0.021453 255 0 255
-1.669676 -3.142611 0.032409 255 0 255
-1.607468 -3.085341 0.032409 255 0 255
-1.604478 -3.100132 -0.003591 255 0 255
-1.599750 -3.116365 -0.093591 255 0 255
-1.589960 -3.099167 -0.069591 255 0 255
-1.605861 -3.164354 0.034990 255 0 255
-1.578942 -3.129182 -0.027591 255 0 255
-1.635314 -3.104931 0.020409 255 0 255
-1.650945 -3.179307 -0.051591 255 0 255
-1.582450 -3.169647 -0.035591 255 0 255
-1.560670 -3.144136 -0.113591 255 0 255
-1.575395 -3.126836 -0.041591 255 0 255
-1.633788 -3.170686 0.035719 255 0 255
-1.601693 -3.150927 0.006409 255 0 255
-1.652252 -3.176985 -0.023591 255 0 255
-1.604272 -3.176119 -0.013591 255 0 255
-1.618766 -3.176971 -0.041591 255 0 255
-1.650979 -3.164987 0.035229 255 0 255
-1.641888 -3.175098 -0.069591 255 0 255
-1.621720 -3.162009 -0.005591 255 0 255
-1.575728 -3.142133 -0.067591 255 0 255
-1.573776 -3.124146 -0.105591 255 0 255
-1.642889 -3.184644 -0.037591 255 0 255
-1.643739 -3.150168 -0.000559 255 0 255
-1.585013 -3.119713 -0.073591 255 0 255
-1.616767 -3.157946 0.030407 255 0 255
-1.625977 -3.095463 0.030409 255 0 255
-1.637710 -3.150661 0.018409 255 0 255
-1.597194 -3.181297 -0.039591 255 0 255
-1.589561 -3.122835 0.002409 255 0 255
-1.656649 -3.114709 0.011419 255 0 255
-1.588964 -3.161811 -0.054611 255 0 255
-1.603612 -3.173011 -0.054642 255 0 255
-1.584411 -3.136198 -0.075591 255 0 255
-1.614625 -3.157481 0.012409 255 0 255
-1.664181 -3.121287 0.023438 255 0 255
-1.633435 -3.092069 -0.115591 255 0 255
-1.653412 -3.089862 0.032409 255 0 255
-1.615369 -3.074411 -0.036698 255 0 255
-1.596725 -3.162206 -0.001591 255 0 255
-1.596731 -3.139713 0.012409 255 0 255
-1.614505 -3.079967 -0.017591 255 0 255
-1.605615 -3.143959 -0.104800 255 0 255
-1.593177 -3.104680 -0.011591 255 0 255
-1.591020 -3.157285 -0.067591 255 0 255
-1.630155 -3.148966 -0.111591 255 0 255
-1.607821 -3.159848 -0.085591 255 0 255
-1.584957 -3.094867 -0.019591 255 0 255
-1.619365 -3.102826 0.018409 255 0 255
-1.629780 -3.171071 -0.001591 255 0 255
-1.628212 -3.163692 0.025893 255 0 255
-1.617060 -3.149705 -0.098804 255 0 255
-1.571406 -3.151230 -0.049591 255 0 255
-1.603754 -3.087104 -0.018561 255 0 255
-1.596737 -3.111808 0.030409 255 0 255
-1.643815 -3.112044 0.014409 255 0 255
-1.601504 -3.095761 0.036251 255 0 255
-1.604736 -3.168682 -0.070640 255 0 255
-1.605568 -3.172595 -0.034572 255 0 255
-1.592737 -3.169949 -0.015591 255 0 255
-1.639716 -3.092760 0.020409 255 0 255
-1.644694 -3.164278 -0.000400 255 0 255
-1.571700 -3.138313 -0.109591 255 0 255
-1.626258 -3.149795 0.008409 255 0 255
-1.611610 -3.104823 -0.113591 255 0 255
-1.579250 -3.120938 -0.059591 255 0 255
-1.601334 -3.114199 -0.109375 255 0 255
-1.635867 -3.180467 -0.016772 255 0 255
-1.651103 -3.103620 0.034409 255 0 255
-1.579420 -3.141348 -0.027591 255 0 255
-1.573912 -3.158339 -0.035591 255 0 255
-1.655061 -3.145717 0.001983 255 0 255
-1.600013 -3.151284 -0.005591 255 0 255
-1.614934 -3.168559 -0.016582 255 0 255
-1.596087 -3.079893 -0.035591 255 0 255
-1.579399 -3.116817 -0.028580 255 0 255
-1.660360 -3.128233 0.032409 255 0 255
-1.617721 -3.094358 0.002409 255 0 255
-1.640267 -3.181928 -0.059591 255 0 255
-1.591797 -3.088569 -0.049591 255 0 255
-1.592144 -3.176777 -0.051591 255 0 255
-1.589142 -3.095316 -0.031591 255 0 255
-1.579834 -3.145350 -0.007591 255 0 255
-1.594917 -3.151346 -0.079591 255 0 255
-1.607526 -3.181806 -0.023591 255 0 255
-1.656388 -3.142338 0.016409 255 0 255
-1.594095 -3.099380 -0.080636 255 0 255
-1.586386 -3.159306 -0.039591 255 0 255
-1.573407 -3.107867 -0.054155 255 0 255
-1.663767 -3.150001 -0.005591 255 0 255
-1.657903 -3.168705 -0.031591 255 0 255
-1.604533 -3.167724 -0.023591 255 0 255
-1.618765 -3.176965 -0.053591 255 0 255
-1.653196 -3.142024 -0.113591 255 0 255
-1.597440 -3.119116 0.012409 255 0 255
-1.618491 -3.089102 0.024409 255 0 255
-1.568535 -3.145707 -0.039591 255 0 255
-1.576025 -3.129802 -0.052592 255 0 255
-1.652396 -3.152418 0.032817 255 0 255
-1.665088 -3.164033 -0.058593 255 0 255
-1.608572 -3.114705 0.010409 255 0 255
-1.621008 -3.177900 -0.071591 255 0 255
-1.662654 -3.109344 0.026409 255 0 255
-1.640337 -3.095685 -0.000509 255 0 255
-1.600621 -3.101217 0.026409 255 0 255
-1.569769 -3.109988 -0.043591 255 0 255
-1.576685 -3.137840 -0.043591 255 0 255
-1.590551 -3.130804 0.024857 255 0 255
-1.626794 -3.176262 -0.028571 255 0 255
-1.566399 -3.132613 -0.045591 255 0 255
-1.577168 -3.129559 -0.007591 255 0 255
-1.671282 -3.111599 0.034409 255 0 255
-1.616740 -3.090478 0.035967 255 0 255
-1.605408 -3.080618 -0.061591 255 0 255
-1.632252 -3.099449 0.010409 255 0 255
-1.597492 -3.121150 0.024409 255 0 255
-1.574485 -3.107638 -0.023591 255 0 255
-1.623583 -3.084199 -0.005591 255 0 255
-1.667186 -3.159497 -0.019591 255 0 255
-1.621524 -3.107863 -0.109591 255 0 255
-1.664926 -3.134408 0.024409 255 0 255
-1.568577 -3.125251 -0.029591 255 0 255
-1.579022 -3.094405 -0.045591 255 0 255
-1.608565 -3.109741 -0.095591 255 0 255
-1.609282 -3.122733 -0.110549 255 0 255
-1.653376 -3.166646 -0.007591 255 0 255
-1.619043 -3.187894 -0.041591 255 0 255
-1.644789 -3.107007 0.025414 255 0 255
-1.632389 -3.087151 0.027510 255 0 255
-1.593585 -3.154695 -0.014580 255 0 255
-1.594879 -3.131928 -0.091232 255 0 255
-1.633009 -3.186261 -0.043591 255 0 255
-1.587042 -3.170398 -0.025591 255 0 255
-1.636671 -3.165013 -0.007591 255 0 255
-1.661762 -3.148382 0.027437 255 0 255
-1.585514 -3.135964 -0.012551 255 0 255
-1.591553 -3.116278 -0.006561 255 0 255
-1.622970 -3.160717 0.006409 255 0 255
-1.583995 -3.171046 -0.047591 255 0 255
-1.629043 -3.167605 -0.088421 255 0 255
-1.582450 -3.191821 -0.109591 255 0 255
-1.578579 -3.108812 -0.035591 255 0 255
-1.631293 -3.158950 0.016409 255 0 255
-1.589848 -3.117875 -0.087591 255 0 255
-1.581975 -3.153073 -0.047591 255 0 255
-1.592707 -3.131326 -0.003591 255 0 255
-1.565671 -3.105422 -0.105591 255 0 255
-1.615520 -3.152077 -0.114470 255 0 255
-1.598915 -3.141294 -0.095154 255 0 255
-1.593046 -3.142541 -0.004492 255 0 255
-1.583906 -3.152663 -0.029591 255 0 255
-1.581920 -3.128674 0.034409 255 0 255
-1.604616 -3.110400 0.000409 255 0 255
-1.594095 -3.099380 -0.002199 255 0 255
-1.612145 -3.150750 0.022409 255 0 255
-1.618462 -3.185159 -0.027591 255 0 255
-1.594464 -3.129972 0.009313 255 0 255
-1.581248 -3.120513 -0.003591 255 0 255
-1.652151 -3.132023 0.021061 255 0 255
-1.645738 -3.169192 -0.019591 255 0 255
-1.568419 -3.132495 -0.117591 255 0 255
-1.599401 -3.128923 -0.107591 255 0 255
-1.605547 -3.076301 -0.039591 255 0 255
-1.672603 -3.160910 -0.041591 255 0 255
-1.608153 -3.175138 -0.045591 255 0 255
-1.582348 -3.161173 -0.063591 255 0 255
-1.578766 -3.161934 -0.027251 255 0 255
-1.629404 -3.178918 -0.055591 255 0 255
-1.637252 -3.148508 0.008409 255 0 255
-1.633299 -3.178006 -0.037591 255 0 255
-1.590463 -3.175805 -0.033591 255 0 255
-1.569680 -3.114793 -0.105591 255 0 255
-1.609330 -3.094097 -0.086506 255 0 255
-1.596174 -3.109162 -0.086603 255 0 255
-1.583728 -3.117941 -0.016555 255 0 255
-1.667590 -3.127703 -0.003591 255 0 255
-1.570136 -3.145366 -0.029591 255 0 255
-1.664582 -3.170274 -0.039591 255 0 255
-1.632598 -3.184327 -0.025591 255 0 255
-1.579492 -3.141333 -0.057591 255 0 255
-1.596295 -3.167447 -0.033591 255 0 255
-1.564706 -3.182362 -0.113591 255 0 255
-1.674428 -3.140634 -0.017591 255 0 255
-1.571268 -3.132858 -0.061591 255 0 255
-1.597092 -3.092609 -0.073591 255 0 255
-1.600163 -3.147163 0.018391 255 0 255
-1.606910 -3.121192 -0.100650 255 0 255
-1.590135 -3.128847 -0.111736 255 0 255
-1.586859 -3.109097 -0.071591 255 0 255
-1.645028 -3.175468 -0.041591 255 0 255
-1.609730 -3.100146 0.018409 255 0 255
-1.562624 -3.124472 -0.100771 255 0 255
-1.619993 -3.182741 -0.061591 255 0 255
-1.599520 -3.169791 -0.007591 255 0 255
-1.602901 -3.177251 -0.063591 255 0 255
-1.671920 -3.152357 -0.025591 255 0 255
-1.608501 -3.143346 0.004409 255 0 255
-1.607517 -3.157868 -0.005591 255 0 255
-1.567083 -3.121479 -0.041591 255 0 255
-1.626133 -3.153911 -0.000574 255 0 255
-1.661885 -3.158579 -0.009996 255 0 255
-1.648527 -3.172695 -0.031591 255 0 255
-1.648377 -3.095029 0.024409 255 0 255
-1.620603 -3.166371 -0.083591 255 0 255
-1.604050 -3.132024 0.008409 255 0 255
-1.584511 -3.102386 -0.061591 255 0 255
-1.576698 -3.158284 -0.055591 255 0 255
-1.621804 -3.152786 -0.106776 255 0 255
-1.627210 -3.178218 -0.010651 255 0 255
-1.602390 -3.090307 -0.005591 255 0 255
-1.575487 -3.117648 -0.067902 255 0 255
-1.571521 -3.127851 -0.019591 255 0 255
-1.579029 -3.104627 -0.015591 255 0 255
-1.635177 -3.090648 0.036207 255 0 255
-1.617584 -3.147549 0.012409 255 0 255
-1.576446 -3.117444 -0.043591 255 0 255
-1.613290 -3.180066 -0.015591 255 0 255
-1.598650 -3.155663 -0.087591 255 0 255
-1.619246 -3.159991 0.020409 255 0 255
-1.597212 -3.147790 0.032409 255 0 255
-1.639213 -3.100013 -0.114420 255 0 255
-1.631144 -3.158249 -0.109591 255 0 255
-1.581894 -3.128554 -0.018553 255 0 255
-1.582838 -3.099728 -0.037591 255 0 255
-1.665136 -3.135397 0.036649 255 0 255
-1.619262 -3.169684 -0.000568 255 0 255
-1.594804 -3.093095 -0.020553 255 0 255
-1.599869 -3.155404 -0.112673 255 0 255
-1.652134 -3.112708 0.028409 255 0 255
-1.595050 -3.113490 -0.116402 255 0 255
-1.646773 -3.174060 -0.058664 255 0 255
-1.580299 -3.126849 -0.077591 255 0 255
-1.592214 -3.138629 0.004258 255 0 255
-1.652444 -3.123782 0.013968 255 0 255
-1.626179 -3.096407 -0.111591 255 0 255
-1.649935 -3.160078 0.026409 255 0 255
-1.648361 -3.143052 0.021122 255 0 255
-1.595295 -3.133885 -0.118570 255 0 255
-1.598586 -3.163855 -0.065591 255 0 255
-1.578643 -3.151737 -0.014212 255 0 255
-1.591993 -3.166447 -0.071591 255 0 255
-1.611172 -3.136644 -0.103591 255 0 255
-1.584613 -3.146379 -0.067591 255 0 255
-1.585854 -3.099087 -0.010740 255 0 255
-1.588765 -3.112781 0.035003 255 0 255
-1.577273 -3.135671 -0.034572 255 0 255
-1.597204 -3.162104 -0.020555 255 0 255
-1.596298 -3.167458 -0.053591 255 0 255
-1.596865 -3.083552 -0.055591 255 0 255
-1.661762 -3.148382 0.036727 255 0 255
-1.590107 -3.143166 -0.077591 255 0 255
-1.646527 -3.153665 -0.114449 255 0 255
-1.655150 -3.136513 0.002409 255 0 255
-1.654833 -3.173503 -0.045591 255 0 255
-1.608526 -3.157653 0.005511 255 0 255
-1.610464 -3.142928 -0.113591 255 0 255
-1.577832 -3.099821 -0.053591 255 0 255
-1.573056 -3.144746 -0.019591 255 0 255
-1.597346 -3.191631 -0.113591 255 0 255
-1.573694 -3.148700 -0.059591 255 0 255
-1.627430 -3.179253 -0.045591 255 0 255
-1.636746 -3.155744 -0.002591 255 0 255
-1.611715 -3.182277 -0.057591 255 0 255
-1.581185 -3.134839 -0.066607 255 0 255
-1.650657 -3.105760 0.013447 255 0 255
-1.604394 -3.162621 -0.077591 255 0 255
-1.646267 -3.181298 -0.029591 255 0 255
-1.573188 -3.101779 -0.041591 255 0 255
-1.663687 -3.167054 -0.023591 255 0 255
-1.642759 -3.184035 -0.049591 255 0 255
-1.636526 -3.087375 -0.003591 255 0 255
-1.600285 -3.157360 0.033543 255 0 255
-1.642555 -3.168822 0.034409 255 0 255
-1.608768 -3.096261 -0.115591 255 0 255
-1.560622 -3.139210 -0.105591 255 0 255
-1.627059 -3.100552 0.023053 255 0 255
-1.609528 -3.143127 -0.096734 255 0 255
-1.570893 -3.192233 -0.109120 255 0 255
-1.594280 -3.148413 -0.113591 255 0 255
-1.612041 -3.154952 -0.093591 255 0 255
-1.592444 -3.081991 -0.043591 255 0 255
-1.609154 -3.160602 0.026409 255 0 255
-1.590378 -3.134930 -0.083591 255 0 255
-1.588247 -3.153785 -0.021591 255 0 255
-1.616018 -3.082452 0.032409 255 0 255
-1.590643 -3.092761 -0.063591 255 0 255
-1.607768 -3.151680 -0.109591 255 0 255
-1.620975 -3.095711 0.012409 255 0 255
-1.601410 -3.181893 -0.031591 255 0 255
-1.656971 -3.173937 -0.055570 255 0 255
-1.607603 -3.172548 -0.005591 255 0 255
-1.636576 -3.174182 -0.076508 255 0 255
-1.586715 -3.170468 -0.055906 255 0 255
-1.655307 -3.166112 -0.070457 255 0 255
-1.605862 -3.106643 0.008409 255 0 255
-1.588131 -3.157899 -0.076320 255 0 255
-1.632654 -3.155734 0.024409 255 0 255
-1.589393 -3.159675 -0.005591 255 0 255
-1.614533 -3.076634 -0.027591 255 0 255
-1.636903 -3.174113 -0.005591 255 0 255
-1.624007 -3.172765 -0.020545 255 0 255
-1.611951 -3.164148 -0.009591 255 0 255
-1.570232 -3.137167 -0.023591 255 0 255
-1.644258 -3.152609 0.024409 255 0 255
-1.605222 -3.094011 0.028409 255 0 255
-1.604538 -3.119652 0.017302 255 0 255
-1.624403 -3.155390 -0.097591 255 0 255
-1.654400 -3.171464 -0.015591 255 0 255
-1.589918 -3.175921 -0.043293 255 0 255
-1.646235 -3.161906 -0.008573 255 0 255
-1.602932 -3.136351 0.020409 255 0 255
-1.632484 -3.174171 -0.021591 255 0 255
-1.593762 -3.088192 -0.035591 255 0 255
-1.612808 -3.187413 -0.112363 255 0 255
-1.631913 -3.161864 -0.117591 255 0 255
-1.584516 -3.102413 -0.029591 255 0 255
-1.643806 -3.179341 -0.021591 255 0 255
-1.612240 -3.107791 0.015388 255 0 255
-1.609330 -3.094097 0.000126 255 0 255
-1.656222 -3.098443 0.028409 255 0 255
-1.643003 -3.088985 0.027433 255 0 255
-1.600246 -3.181905 -0.047591 255 0 255
-1.613624 -3.172016 -0.071591 255 0 255
-1.597129 -3.123271 -0.002549 255 0 255
-1.638093 -3.152464 -0.113591 255 0 255
-1.579059 -3.153693 -0.066146 255 0 255
-1.591383 -3.134720 0.032409 255 0 255
-1.572699 -3.114151 -0.060627 255 0 255
-1.668835 -3.120298 0.034409 255 0 255
-1.605871 -3.152083 0.014409 255 0 255
-1.641648 -3.156747 0.004409 255 0 255
-1.658190 -3.112337 0.019425 255 0 255
-1.578339 -3.145667 -0.049591 255 0 255
-1.577987 -3.115072 -0.053591 255 0 255
-1.617637 -3.085085 -0.011591 255 0 255
-1.581601 -3.136795 -0.020551 255 0 255
-1.634856 -3.175707 -0.061591 255 0 255
-1.609576 -3.114492 -0.112504 255 0 255
-1.605428 -3.184893 -0.041591 255 0 255
-1.588888 -3.122978 -0.080599 255 0 255
-1.577271 -3.131582 -0.107591 255 0 255
-1.648543 -3.095814 0.036409 255 0 255
-1.637810 -3.106446 0.012409 255 0 255
-1.616646 -3.186234 -0.049591 255 0 255
-1.603009 -3.146558 0.026409 255 0 255
-1.637700 -3.169854 -0.016571 255 0 255
-1.570865 -3.124765 -0.059280 255 0 255
-1.568200 -3.131465 -0.102935 255 0 255
-1.580301 -3.112536 -0.075591 255 0 255
-1.583986 -3.140378 -0.083591 255 0 255
-1.581601 -3.091812 -0.033591 255 0 255
-1.577685 -3.123315 -0.033591 255 0 255
-1.634652 -3.184372 -0.051591 255 0 255
-1.603330 -3.181305 -0.055591 255 0 255
-1.570972 -3.115649 -0.025591 255 0 255
-1.595037 -3.123046 -0.091591 255 0 255
-1.601996 -3.136550 -0.103559 255 0 255
-1.598980 -3.098342 -0.009591 255 0 255
-1.590388 -3.101179 -0.019591 255 0 255
-1.601369 -3.138728 -0.115591 255 0 255
-1.590428 -3.120606 -0.112395 255 0 255
-1.617183 -3.159902 -0.110067 255 0 255
-1.561031 -3.136214 -0.117591 255 0 255
-1.661271 -3.107593 0.034959 255 0 255
-1.598792 -3.131097 0.025409 255 0 255
-1.614102 -3.164647 0.034575 255 0 255
-1.595320 -3.133879 0.018409 255 0 255
-1.635018 -3.186091 -0.035591 255 0 255
-1.583850 -3.128139 -0.000521 255 0 255
-1.571429 -3.153270 -0.041591 255 0 255
-1.602651 -3.144589 -0.001591 255 0 255
-1.635834 -3.149804 -0.105591 255 0 255
-1.583125 -3.153585 -0.007591 255 0 255
-1.607899 -3.154701 -0.117591 255 0 255
-1.629646 -3.175655 -0.071591 255 0 255
-1.622918 -3.100310 0.004409 255 0 255
-1.568149 -3.127387 -0.051591 255 0 255
-1.648572 -3.182525 -0.043591 255 0 255
-1.630713 -3.161116 -0.003591 255 0 255
-1.600121 -3.112412 0.008409 255 0 255
-1.599904 -3.083833 -0.029591 255 0 255
-1.580047 -3.143260 -0.075591 255 0 255
-1.586809 -3.113197 -0.000730 255 0 255
-1.608573 -3.129018 -0.104629 255 0 255
-1.650976 -3.152720 0.002409 255 0 255
-1.655940 -3.120994 0.028860 255 0 255
-1.652836 -3.168682 -0.023591 255 0 255
-1.605294 -3.084732 -0.010698 255 0 255
-1.578936 -3.098513 -0.023591 255 0 255
-1.597672 -3.183543 -0.113591 255 0 255
-1.618818 -3.100259 -0.110143 255 0 255
-1.603757 -3.168890 -0.061591 255 0 255
-1.593879 -3.146454 0.003144 255 0 255
-1.588009 -3.147702 0.034016 255 0 255
-1.644082 -3.150096 0.012409 255 0 255
-1.598206 -3.147579 -0.088773 255 0 255
-1.667045 -3.163617 -0.050610 255 0 255
