ply
format ascii 1.0
element vertex 1196
property float x
property float y
property float z
property uchar red
property uchar green
property uchar blue
end_header
-1.364228 -0.345522 -0.031677 255 255 0
-1.457223 -0.282817 -0.059527 255 255 0
-1.303659 -0.162107 -0.126616 255 255 0
-1.304671 -0.204831 -0.156617 255 255 0
-1.361498 -0.053713 -0.041546 255 255 0
-1.393053 -0.231027 -0.039572 255 255 0
-1.353210 -0.082056 -0.045560 255 255 0
-1.300695 -0.037003 -0.180616 255 255 0
-1.404498 -0.236773 -0.039564 255 255 0
-1.305338 -0.073829 -0.108617 255 255 0
-1.302869 -0.197035 -0.140617 255 255 0
-1.327111 -0.146899 -0.066617 255 255 0
-1.303274 -0.227619 -0.198617 255 255 0
-1.307629 -0.108102 -0.052958 255 255 0
-1.426480 -0.205520 -0.045542 255 255 0
-1.304582 -0.069900 -0.120616 255 255 0
-1.406653 -0.285388 -0.039548 255 255 0
-1.389414 -0.319722 -0.032693 255 255 0
-1.438077 -0.337034 -0.090617 255 255 0
-1.395624 -0.281598 -0.039593 255 255 0
-1.323546 -0.336898 -0.132617 255 255 0
-1.371146 -0.301114 -0.039558 255 255 0
-1.391295 -0.280473 -0.032369 255 255 0
-1.302920 -0.100924 -0.172616 255 255 0
-1.343927 -0.336589 -0.130616 255 255 0
-1.421589 -0.336419 -0.138617 255 255 0
-1.303671 -0.094630 -0.140617 255 255 0
-1.303597 -0.151897 -0.170617 255 255 0
-1.352180 -0.336936 -0.068617 255 255 0
-1.303416 -0.170338 -0.150617 255 255 0
-1.411400 -0.336581 -0.110617 255 255 0
-1.399943 -0.119150 -0.039573 255 255 0
-1.305121 -0.053429 -0.108617 255 255 0
-1.347839 -0.335755 -0.092616 255 255 0
-1.470953 -0.073386 0.025383 255 255 0
-1.446324 -0.337357 -0.136617 255 255 0
-1.304538 -0.194635 -0.126616 255 255 0
-1.303500 -0.113069 -0.124617 255 255 0
-1.303055 -0.111119 -0.202617 255 255 0
-1.472477 -0.181430 -0.099429 255 255 0
-1.421592 -0.336434 -0.066617 255 255 0
-1.413344 -0.336109 -0.054617 255 255 0
-1.394622 -0.296124 -0.039566 255 255 0
-1.302696 -0.041676 -0.130616 255 255 0
-1.305077 -0.043214 -0.108617 255 255 0
-1.392957 -0.336387 -0.072617 255 255 0
-1.469821 -0.077716 0.033383 255 255 0
-1.378866 -0.337431 -0.088616 255 255 0
-1.297624 -0.208373 -0.178617 255 255 0
-1.459264 -0.109646 -0.068617 255 255 0
-1.303945 -0.047544 -0.182617 255 255 0
-1.384860 -0.202099 -0.039595 255 255 0
-1.370409 -0.239930 -0.039542 255 255 0
-1.342051 -0.121232 -0.052617 255 255 0
-1.401219 -0.192487 -0.039548 255 255 0
-1.390123 -0.313437 -0.039550 255 255 0
-1.298261 -0.232774 -0.150617 255 255 0
-1.316942 -0.050916 -0.080617 255 255 0
-1.477827 -0.071925 -0.025563 255 255 0
-1.391636 -0.243597 -0.039590 255 255 0
-1.376203 -0.199849 -0.039559 255 255 0
-1.374975 -0.097876 -0.039557 255 255 0
-1.315803 -0.233135 -0.081604 255 255 0
-1.319317 -0.216030 -0.076617 255 255 0
-1.378140 -0.295538 -0.039559 255 255 0
-1.378840 -0.125680 -0.039587 255 255 0
-1.381296 -0.329626 -0.039563 255 255 0
-1.440029 -0.336596 -0.076617 255 255 0
-1.433748 -0.335906 -0.068617 255 255 0
-1.363993 -0.065451 -0.041592 255 255 0
-1.303814 -0.076198 -0.172616 255 255 0
-1.366658 -0.058751 -0.039546 255 255 0
-1.428650 -0.209148 -0.040617 255 255 0
-1.312898 -0.109027 -0.088616 255 255 0
-1.301392 -0.078757 -0.092301 255 255 0
-1.417671 -0.236018 -0.042616 255 255 0
-1.307482 -0.247171 -0.100617 255 255 0
-1.309363 -0.340827 -0.070616 255 255 0
-1.462799 -0.289811 -0.059601 255 255 0
-1.341462 -0.344228 -0.124058 255 255 0
-1.304311 -0.096539 -0.054617 255 255 0
-1.425940 -0.337650 -0.164617 255 255 0
-1.316021 -0.186061 -0.079533 255 255 0
-1.474959 -0.347018 -0.176616 255 255 0
-1.447342 -0.149969 0.009383 255 255 0
-1.312073 -0.076487 -0.088616 255 255 0
-1.297032 -0.221778 -0.144616 255 255 0
-1.297037 -0.098085 -0.134616 255 255 0
-1.453831 -0.122565 -0.028617 255 255 0
-1.374020 -0.083767 -0.032372 255 255 0
-1.480492 -0.065225 -0.071290 255 255 0
-1.456269 -0.268708 -0.036192 255 255 0
-1.297761 -0.189942 -0.194616 255 255 0
-1.297504 -0.044824 -0.214616 255 255 0
-1.420215 -0.108707 -0.036893 255 255 0
-1.337897 -0.042372 -0.042616 255 255 0
-1.303388 -0.280541 -0.064617 255 255 0
-1.297075 -0.128747 -0.122617 255 255 0
-1.440571 -0.300670 -0.055592 255 255 0
-1.355364 -0.130670 -0.035349 255 255 0
-1.466090 -0.209098 -0.082617 255 255 0
-1.314076 -0.196697 -0.066617 255 255 0
-1.300903 -0.345802 -0.170617 255 255 0
-1.352512 -0.049917 -0.036617 255 255 0
-1.296688 -0.123965 -0.140617 255 255 0
-1.391362 -0.155734 -0.032299 255 255 0
-1.462948 -0.113937 -0.060616 255 255 0
-1.468478 -0.297290 -0.054617 255 255 0
-1.415990 -0.213884 -0.035351 255 255 0
-1.321349 -0.268845 -0.030617 255 255 0
-1.301760 -0.109349 -0.089749 255 255 0
-1.426008 -0.068627 -0.039293 255 255 0
-1.433991 -0.283666 -0.050617 255 255 0
-1.378832 -0.260317 -0.032616 255 255 0
-1.332985 -0.063863 -0.047352 255 255 0
-1.341944 -0.221444 -0.051525 255 255 0
-1.359920 -0.344492 -0.058617 255 255 0
-1.478810 -0.049225 -0.060616 255 255 0
-1.420413 -0.157737 -0.037337 255 255 0
-1.328599 -0.252906 -0.010617 255 255 0
-1.297412 -0.204329 -0.192249 255 255 0
-1.464588 -0.080873 0.017383 255 255 0
-1.361939 -0.344371 -0.134616 255 255 0
-1.469740 -0.077733 -0.012617 255 255 0
-1.392669 -0.344652 -0.122617 255 255 0
-1.475382 -0.339390 -0.114617 255 255 0
-1.356422 -0.251082 -0.034841 255 255 0
-1.431700 -0.294377 -0.042616 255 255 0
-1.346434 -0.040558 -0.047559 255 255 0
-1.323785 -0.112847 -0.054617 255 255 0
-1.410298 -0.343909 -0.088616 255 255 0
-1.446097 -0.238155 0.001384 255 255 0
-1.303116 -0.111106 -0.182617 255 255 0
-1.418536 -0.170404 -0.036617 255 255 0
-1.436550 -0.339467 -0.052617 255 255 0
-1.457830 -0.189477 -0.068617 255 255 0
-1.324262 -0.186354 -0.053645 255 255 0
-1.425470 -0.056473 -0.039207 255 255 0
-1.311789 -0.339300 -0.170617 255 255 0
-1.337688 -0.340940 -0.202617 255 255 0
-1.302491 -0.257081 -0.104617 255 255 0
-1.300076 -0.181271 -0.096617 255 255 0
-1.396427 -0.218042 -0.037445 255 255 0
-1.443296 -0.308269 -0.056616 255 255 0
-1.480145 -0.130928 0.017383 255 255 0
-1.429335 -0.084277 -0.047581 255 255 0
-1.432960 -0.207147 -0.048617 255 255 0
-1.304746 -0.186413 -0.082617 255 255 0
-1.463313 -0.085234 -0.058617 255 255 0
-1.314140 -0.225309 -0.066352 255 255 0
-1.321228 -0.162462 -0.057517 255 255 0
-1.317408 -0.110113 -0.038616 255 255 0
-1.295148 -0.343848 -0.150617 255 255 0
-1.301449 -0.046030 -0.208616 255 255 0
-1.428484 -0.176469 -0.047585 255 255 0
-1.307560 -0.122429 -0.098616 255 255 0
-1.462125 -0.344355 -0.140617 255 255 0
-1.389064 -0.337312 -0.106616 255 255 0
-1.381691 -0.118940 -0.032616 255 255 0
-1.328577 -0.220196 -0.050617 255 255 0
-1.461389 -0.148504 -0.070616 255 255 0
-1.425838 -0.087065 -0.040542 255 255 0
-1.443214 -0.087461 -0.050617 255 255 0
-1.304394 -0.337794 -0.110617 255 255 0
-1.453453 -0.197742 -0.061722 255 255 0
-1.302769 -0.186833 -0.122617 255 255 0
-1.402039 -0.340640 -0.182617 255 255 0
-1.317689 -0.338203 -0.138617 255 255 0
-1.387930 -0.341597 -0.164617 255 255 0
-1.341825 -0.331882 -0.052617 255 255 0
-1.314773 -0.180192 -0.083593 255 255 0
-1.424250 -0.118073 -0.038993 255 255 0
-1.345999 -0.134706 -0.039003 255 255 0
-1.433086 -0.265456 -0.043666 255 255 0
-1.451903 -0.113494 -0.052617 255 255 0
-1.317202 -0.316669 -0.077543 255 255 0
-1.475584 -0.037642 0.029384 255 255 0
-1.345555 -0.065281 -0.039899 255 255 0
-1.342162 -0.174370 -0.051556 255 255 0
-1.297340 -0.322936 -0.156617 255 255 0
-1.367064 -0.320384 -0.039536 255 255 0
-1.422398 -0.224790 -0.043585 255 255 0
-1.446450 -0.039746 -0.057527 255 255 0
-1.338977 -0.072813 -0.043015 255 255 0
-1.413046 -0.310610 -0.040617 255 255 0
-1.468250 -0.344316 -0.150617 255 255 0
-1.476007 -0.107071 0.021384 255 255 0
-1.468439 -0.123955 -0.086617 255 255 0
-1.304015 -0.052621 -0.178617 255 255 0
-1.398607 -0.343730 -0.168617 255 255 0
-1.303877 -0.047559 -0.118617 255 255 0
-1.330998 -0.044895 -0.060616 255 255 0
-1.378432 -0.345008 -0.176616 255 255 0
-1.305347 -0.198553 -0.112616 255 255 0
-1.421482 -0.292459 -0.044617 255 255 0
-1.328620 -0.077059 -0.064617 255 255 0
-1.449412 -0.337640 -0.164617 255 255 0
-1.323893 -0.155762 -0.069597 255 255 0
-1.376103 -0.343672 -0.206617 255 255 0
-1.338863 -0.226188 -0.055584 255 255 0
-1.370063 -0.228680 -0.038616 255 255 0
-1.348350 -0.314138 -0.048617 255 255 0
-1.330868 -0.246290 -0.061606 255 255 0
-1.327295 -0.210245 -0.065578 255 255 0
-1.312880 -0.344435 -0.144616 255 255 0
-1.314106 -0.143529 -0.084616 255 255 0
-1.303176 -0.121316 -0.086617 255 255 0
-1.296283 -0.266354 -0.166616 255 255 0
-1.448132 -0.266348 -0.054617 255 255 0
-1.351041 -0.341199 -0.196617 255 255 0
-1.451390 -0.337219 -0.182617 255 255 0
-1.301524 -0.040903 -0.190616 255 255 0
-1.339159 -0.299734 -0.056616 255 255 0
-1.295785 -0.042761 -0.150617 255 255 0
-1.320595 -0.207580 -0.073596 255 255 0
-1.311834 -0.099029 -0.059574 255 255 0
-1.457971 -0.103564 -0.052617 255 255 0
-1.301936 -0.042840 -0.178617 255 255 0
-1.327976 -0.136492 -0.007120 255 255 0
-1.406946 -0.344486 -0.134616 255 255 0
-1.317239 -0.336086 -0.150617 255 255 0
-1.475279 -0.074511 -0.004616 255 255 0
-1.457299 -0.321650 -0.065558 255 255 0
-1.324404 -0.100447 -0.061612 255 255 0
-1.302992 -0.168383 -0.134616 255 255 0
-1.416782 -0.260743 -0.042616 255 255 0
-1.409346 -0.346156 -0.035941 255 255 0
-1.415359 -0.340788 -0.172616 255 255 0
-1.466138 -0.098946 -0.058617 255 255 0
-1.303675 -0.089499 -0.210617 255 255 0
-1.360600 -0.174540 -0.043593 255 255 0
-1.359919 -0.248294 -0.043577 255 255 0
-1.345262 -0.073522 -0.049564 255 255 0
-1.378849 -0.289253 -0.032675 255 255 0
-1.303180 -0.048693 -0.168617 255 255 0
-1.303744 -0.176402 -0.149617 255 255 0
-1.328586 -0.336741 -0.100617 255 255 0
-1.398644 -0.228472 -0.032616 255 255 0
-1.302807 -0.225674 -0.172616 255 255 0
-1.305835 -0.239343 -0.110617 255 255 0
-1.331116 -0.228218 0.015383 255 255 0
-1.350553 -0.252329 -0.047611 255 255 0
-1.303706 -0.237750 -0.084616 255 255 0
-1.349552 -0.266855 -0.047567 255 255 0
-1.297208 -0.190059 -0.132617 255 255 0
-1.302994 -0.326784 -0.128617 255 255 0
-1.331405 -0.148031 -0.060616 255 255 0
-1.303498 -0.107906 -0.144616 255 255 0
-1.317740 -0.328823 -0.062948 255 255 0
-1.348871 -0.340608 -0.207621 255 255 0
-1.378257 -0.089000 -0.038616 255 255 0
-1.403658 -0.069288 -0.032184 255 255 0
-1.346395 -0.232766 -0.049604 255 255 0
-1.361867 -0.084305 -0.031664 255 255 0
-1.297888 -0.271702 -0.178617 255 255 0
-1.303418 -0.237812 -0.170617 255 255 0
-1.318582 -0.073059 -0.060880 255 255 0
-1.376866 -0.179262 -0.038616 255 255 0
-1.374528 -0.336264 -0.118617 255 255 0
-1.450693 -0.261714 -0.061283 255 255 0
-1.433668 -0.167188 -0.048617 255 255 0
-1.360589 -0.222587 -0.042616 255 255 0
-1.408577 -0.174566 -0.038616 255 255 0
-1.296430 -0.122750 -0.171543 255 255 0
-1.328476 -0.340854 -0.199663 255 255 0
-1.296649 -0.123782 -0.200616 255 255 0
-1.306882 -0.306595 -0.087534 255 255 0
-1.472792 -0.169095 -0.096617 255 255 0
-1.459662 -0.159618 -0.069421 255 255 0
-1.322485 -0.331904 -0.071555 255 255 0
-1.356015 -0.201067 -0.044617 255 255 0
-1.298900 -0.150851 -0.102616 255 255 0
-1.418952 -0.068082 -0.036617 255 255 0
-1.467914 -0.337796 -0.212617 255 255 0
-1.310825 -0.344387 -0.138617 255 255 0
-1.477445 -0.104721 -0.034617 255 255 0
-1.443850 -0.344956 -0.130368 255 255 0
-1.464822 -0.164655 -0.079566 255 255 0
-1.303404 -0.213279 -0.189574 255 255 0
-1.326823 -0.073352 -0.051781 255 255 0
-1.358086 -0.258907 -0.034189 255 255 0
-1.325046 -0.218902 -0.069610 255 255 0
-1.462261 -0.277657 -0.045448 255 255 0
-1.356814 -0.334830 -0.044617 255 255 0
-1.297834 -0.062022 -0.118617 255 255 0
-1.347655 -0.344505 -0.112616 255 255 0
-1.364090 -0.344871 -0.164617 255 255 0
-1.299678 -0.070943 -0.100617 255 255 0
-1.455397 -0.225954 -0.062617 255 255 0
-1.304557 -0.228323 -0.116616 255 255 0
-1.370258 -0.162264 -0.032467 255 255 0
-1.311220 -0.048043 -0.070129 255 255 0
-1.337058 -0.304270 -0.045058 255 255 0
-1.419709 -0.110859 -0.042616 255 255 0
-1.452253 -0.163238 -0.060010 255 255 0
-1.418306 -0.080487 -0.035794 255 255 0
-1.301732 -0.041881 -0.171615 255 255 0
-1.304766 -0.264106 -0.092616 255 255 0
-1.374417 -0.181827 -0.032534 255 255 0
-1.327411 -0.177506 -0.064617 255 255 0
-1.297761 -0.311783 -0.144616 255 255 0
-1.427280 -0.343952 -0.068617 255 255 0
-1.456892 -0.271638 -0.030617 255 255 0
-1.298485 -0.118224 -0.106616 255 255 0
-1.413563 -0.187819 -0.040617 255 255 0
-1.455009 -0.339735 -0.072617 255 255 0
-1.343135 -0.092376 -0.040752 255 255 0
-1.323702 -0.039426 -0.062617 255 255 0
-1.462042 -0.343964 -0.162616 255 255 0
-1.298276 -0.310469 -0.202617 255 255 0
-1.315784 -0.329239 -0.079548 255 255 0
-1.463519 -0.064743 0.029384 255 255 0
-1.441536 -0.055103 -0.049991 255 255 0
-1.438852 -0.157907 0.014895 255 255 0
-1.296801 -0.105259 -0.148616 255 255 0
-1.469406 -0.092117 -0.002617 255 255 0
-1.297729 -0.215439 -0.142617 255 255 0
-1.435051 -0.344781 -0.176616 255 255 0
-1.468206 -0.302974 -0.062617 255 255 0
-1.329240 -0.324334 -0.050617 255 255 0
-1.297974 -0.097886 -0.178617 255 255 0
-1.342414 -0.247925 -0.052617 255 255 0
-1.297549 -0.142959 -0.110617 255 255 0
-1.308142 -0.259299 -0.074616 255 255 0
-1.425363 -0.344555 -0.096617 255 255 0
-1.298604 -0.075261 -0.211083 255 255 0
-1.466711 -0.053841 0.023383 255 255 0
-1.435128 -0.044197 -0.049581 255 255 0
-1.372173 -0.344423 -0.088616 255 255 0
-1.473146 -0.044295 -0.004616 255 255 0
-1.456594 -0.260617 -0.030617 255 255 0
-1.299920 -0.326477 -0.098616 255 255 0
-1.363605 -0.130963 -0.031654 255 255 0
-1.302078 -0.221739 -0.088616 255 255 0
-1.467021 -0.102848 0.029384 255 255 0
-1.384259 -0.343565 -0.110617 255 255 0
-1.318393 -0.187601 -0.061607 255 255 0
-1.428959 -0.337897 -0.122617 255 255 0
-1.296988 -0.038800 -0.117633 255 255 0
-1.478339 -0.098397 -0.048617 255 255 0
-1.342918 -0.084243 -0.040617 255 255 0
-1.297671 -0.065235 -0.192617 255 255 0
-1.303699 -0.317495 -0.086617 255 255 0
-1.296913 -0.076925 -0.136617 255 255 0
-1.404479 -0.332878 -0.032879 255 255 0
-1.376330 -0.344741 -0.166616 255 255 0
-1.444323 -0.158789 -0.056616 255 255 0
-1.459378 -0.090946 -0.052617 255 255 0
-1.316497 -0.265257 -0.026616 255 255 0
-1.394714 -0.344656 -0.134616 255 255 0
-1.440903 -0.100220 -0.050099 255 255 0
-1.454928 -0.127726 -0.022617 255 255 0
-1.325494 -0.284236 -0.060616 255 255 0
-1.296418 -0.064978 -0.128617 255 255 0
-1.413148 -0.344805 -0.100617 255 255 0
-1.395076 -0.343055 -0.186616 255 255 0
-1.467576 -0.117042 -0.070616 255 255 0
-1.377696 -0.226113 -0.032456 255 255 0
-1.325687 -0.241257 -0.052617 255 255 0
-1.296647 -0.296924 -0.144616 255 255 0
-1.372857 -0.280303 -0.032384 255 255 0
-1.302447 -0.330029 -0.148616 255 255 0
-1.374968 -0.338334 -0.140617 255 255 0
-1.337590 -0.338916 -0.044617 255 255 0
-1.387953 -0.341706 -0.172616 255 255 0
-1.376479 -0.172293 -0.032616 255 255 0
-1.328394 -0.269307 -0.050617 255 255 0
-1.451100 -0.100098 -0.053239 255 255 0
-1.436186 -0.164608 0.022607 255 255 0
-1.390622 -0.344643 -0.142617 255 255 0
-1.394516 -0.343721 -0.100617 255 255 0
-1.346543 -0.103920 -0.048617 255 255 0
-1.458149 -0.277551 -0.038616 255 255 0
-1.404512 -0.044449 -0.030617 255 255 0
-1.441592 -0.343952 -0.164617 255 255 0
-1.391453 -0.296797 -0.032616 255 255 0
-1.342463 -0.329702 -0.040631 255 255 0
-1.419241 -0.190701 -0.036729 255 255 0
-1.477795 -0.123049 0.007383 255 255 0
-1.429279 -0.059753 -0.046616 255 255 0
-1.473203 -0.109712 0.001384 255 255 0
-1.398912 -0.345165 -0.174617 255 255 0
-1.466705 -0.337046 -0.152617 255 255 0
-1.335084 -0.110445 -0.046616 255 255 0
-1.470018 -0.179908 -0.092616 255 255 0
-1.454584 -0.337737 -0.154617 255 255 0
-1.296921 -0.163540 -0.133534 255 255 0
-1.301485 -0.193240 -0.092616 255 255 0
-1.368684 -0.337627 -0.064617 255 255 0
-1.444393 -0.337891 -0.072617 255 255 0
-1.359943 -0.344601 -0.090617 255 255 0
-1.407512 -0.337528 -0.104617 255 255 0
-1.299765 -0.301973 -0.106978 255 255 0
-1.479603 -0.122665 -0.004616 255 255 0
-1.296281 -0.222971 -0.202617 255 255 0
-1.476938 -0.127321 0.025383 255 255 0
-1.466097 -0.047838 0.031384 255 255 0
-1.459908 -0.282247 -0.048617 255 255 0
-1.310984 -0.191221 -0.070904 255 255 0
-1.418429 -0.090685 -0.043612 255 255 0
-1.296489 -0.248083 -0.160617 255 255 0
-1.345881 -0.336159 -0.080617 255 255 0
-1.297740 -0.225108 -0.118617 255 255 0
-1.304780 -0.344805 -0.206617 255 255 0
-1.330357 -0.301605 -0.049177 255 255 0
-1.398790 -0.056010 -0.037467 255 255 0
-1.296781 -0.110408 -0.200616 255 255 0
-1.297559 -0.122510 -0.156617 255 255 0
-1.400943 -0.345101 -0.156617 255 255 0
-1.305713 -0.081928 -0.080617 255 255 0
-1.370032 -0.045765 -0.037526 255 255 0
-1.451468 -0.130690 -0.063574 255 255 0
-1.475406 -0.094931 0.001384 255 255 0
-1.296961 -0.173347 -0.126616 255 255 0
-1.367309 -0.340778 -0.151511 255 255 0
-1.398771 -0.152114 -0.037446 255 255 0
-1.395360 -0.338074 -0.124617 255 255 0
-1.438880 -0.225376 0.016300 255 255 0
-1.382552 -0.345153 -0.158616 255 255 0
-1.299865 -0.220165 -0.094617 255 255 0
-1.377301 -0.339688 -0.196617 255 255 0
-1.478367 -0.339664 -0.136617 255 255 0
-1.417700 -0.337363 -0.098616 255 255 0
-1.425197 -0.343774 -0.140617 255 255 0
-1.297677 -0.050921 -0.184617 255 255 0
-1.426291 -0.320062 -0.039891 255 255 0
-1.297907 -0.198090 -0.108617 255 255 0
-1.444382 -0.337838 -0.160617 255 255 0
-1.296686 -0.247422 -0.188617 255 255 0
-1.302716 -0.215470 -0.164617 255 255 0
-1.406738 -0.064544 -0.039590 255 255 0
-1.414762 -0.111911 -0.034756 255 255 0
-1.388404 -0.170675 -0.032119 255 255 0
-1.303402 -0.237815 -0.130616 255 255 0
-1.475060 -0.054111 0.007383 255 255 0
-1.370828 -0.241900 -0.032616 255 255 0
-1.398194 -0.332169 -0.039526 255 255 0
-1.317958 -0.281749 -0.051813 255 255 0
-1.333533 -0.239589 -0.047459 255 255 0
-1.296483 -0.103760 -0.202617 255 255 0
-1.297738 -0.239019 -0.168617 255 255 0
-1.323797 -0.261121 -0.020617 255 255 0
-1.297678 -0.253678 -0.196617 255 255 0
-1.469868 -0.087930 0.031384 255 255 0
-1.370620 -0.337115 -0.084616 255 255 0
-1.320972 -0.344025 -0.106616 255 255 0
-1.297250 -0.331134 -0.158616 255 255 0
-1.377810 -0.072738 -0.033059 255 255 0
-1.334213 -0.165836 -0.047069 255 255 0
-1.367017 -0.332662 -0.032616 255 255 0
-1.339326 -0.199509 -0.053533 255 255 0
-1.342753 -0.184468 0.025383 255 255 0
-1.296938 -0.198296 -0.122617 255 255 0
-1.310830 -0.344408 -0.126616 255 255 0
-1.296892 -0.269218 -0.154617 255 255 0
-1.318533 -0.316386 -0.060616 255 255 0
-1.297720 -0.042245 -0.104617 255 255 0
-1.296597 -0.071598 -0.200616 255 255 0
-1.432328 -0.247215 -0.048617 255 255 0
-1.421304 -0.344700 -0.060616 255 255 0
-1.472110 -0.067006 -0.028617 255 255 0
-1.462743 -0.154874 -0.074082 255 255 0
-1.319326 -0.345901 -0.064617 255 255 0
-1.448371 -0.149750 -0.060616 255 255 0
-1.329831 -0.337609 -0.112616 255 255 0
-1.454983 -0.310755 -0.064617 255 255 0
-1.298803 -0.220491 -0.106616 255 255 0
-1.362509 -0.202760 -0.031088 255 255 0
-1.362373 -0.336797 -0.066617 255 255 0
-1.303607 -0.219369 -0.134616 255 255 0
-1.336512 -0.340183 -0.166616 255 255 0
-1.409442 -0.336988 -0.064617 255 255 0
-1.297325 -0.053041 -0.112616 255 255 0
-1.350355 -0.203299 -0.037449 255 255 0
-1.427775 -0.182753 -0.040030 255 255 0
-1.304394 -0.116968 -0.162616 255 255 0
-1.296217 -0.214806 -0.184617 255 255 0
-1.939694 -0.330566 -0.142617 0 255 255
-1.733836 -0.093162 -0.171650 0 255 255
-1.746443 -0.325621 -0.171656 0 255 255
-1.904519 -0.150937 -0.138617 0 255 255
-1.786590 -0.206674 -0.135414 0 255 255
-1.838784 -0.384893 -0.140617 0 255 255
-1.877732 -0.250687 -0.135216 0 255 255
-1.816908 -0.118443 -0.137748 0 255 255
-1.817994 -0.306323 -0.135318 0 255 255
-1.725623 -0.160337 -0.135234 0 255 255
-1.775273 -0.264286 -0.170617 0 255 255
-1.850316 -0.189040 -0.141582 0 255 255
-1.940286 -0.266016 -0.134883 0 255 255
-1.889608 -0.358575 -0.170617 0 255 255
-1.878978 -0.093023 -0.140617 0 255 255
-1.784841 -0.386978 -0.170617 0 255 255
-1.923899 -0.208159 -0.141589 0 255 255
-1.878469 -0.311870 -0.134238 0 255 255
-1.822417 -0.250176 -0.141479 0 255 255
-1.745678 -0.196968 -0.171539 0 255 255
-1.777318 -0.153439 -0.141595 0 255 255
-1.802296 -0.338285 -0.171426 0 255 255
-1.857246 -0.142583 -0.134616 0 255 255
-1.776011 -0.092376 -0.154617 0 255 255
-1.757198 -0.241547 -0.135608 0 255 255
-1.845873 -0.341290 -0.141528 0 255 255
-1.972965 -0.323562 -0.170617 0 255 255
-1.777791 -0.290332 -0.135338 0 255 255
-1.818231 -0.163145 -0.135065 0 255 255
-1.804996 -0.360610 -0.136617 0 255 255
-1.849465 -0.281231 -0.141557 0 255 255
-1.902020 -0.345713 -0.134439 0 255 255
-1.916347 -0.297685 -0.141563 0 255 255
-1.883526 -0.210606 -0.135522 0 255 255
-1.964715 -0.299672 -0.138617 0 255 255
-1.738902 -0.155470 -0.171611 0 255 255
-1.787560 -0.302568 -0.170617 0 255 255
-1.755146 -0.184732 -0.134616 0 255 255
-1.746406 -0.094580 -0.131752 0 255 255
-1.872090 -0.368433 -0.135854 0 255 255
-1.849975 -0.225916 -0.135333 0 255 255
-1.759869 -0.230756 -0.170617 0 255 255
-1.820810 -0.377288 -0.171614 0 255 255
-1.912945 -0.243202 -0.141591 0 255 255
-1.856618 -0.372602 -0.170617 0 255 255
-1.922415 -0.345468 -0.169456 0 255 255
-1.789160 -0.257245 -0.134899 0 255 255
-1.791634 -0.328283 -0.136617 0 255 255
-1.821510 -0.207431 -0.141558 0 255 255
-1.849749 -0.109418 -0.134778 0 255 255
-1.882325 -0.176102 -0.135247 0 255 255
-1.888298 -0.281156 -0.141523 0 255 255
-1.885624 -0.124284 -0.136128 0 255 255
-1.971369 -0.330973 -0.138617 0 255 255
-1.745659 -0.213330 -0.144616 0 255 255
-1.913749 -0.179646 -0.141541 0 255 255
-1.847877 -0.312239 -0.135076 0 255 255
-1.809800 -0.277394 -0.141510 0 255 255
-1.792922 -0.178748 -0.141566 0 255 255
-1.748778 -0.144218 -0.140617 0 255 255
-1.801777 -0.230027 -0.141589 0 255 255
-1.790351 -0.128177 -0.139399 0 255 255
-1.874093 -0.339381 -0.141580 0 255 255
-1.731390 -0.179558 -0.154617 0 255 255
-1.818938 -0.334747 -0.142617 0 255 255
-1.912482 -0.269881 -0.134565 0 255 255
-1.947628 -0.333974 -0.168617 0 255 255
-1.849928 -0.254552 -0.135388 0 255 255
-1.786476 -0.360050 -0.171638 0 255 255
-1.766100 -0.264191 -0.145752 0 255 255
-1.775078 -0.325668 -0.171672 0 255 255
-1.831679 -0.139839 -0.141557 0 255 255
-1.902691 -0.320010 -0.142617 0 255 255
-1.813801 -0.382792 -0.146617 0 255 255
-1.842954 -0.164024 -0.141568 0 255 255
-1.752200 -0.102601 -0.156617 0 255 255
-1.940361 -0.304849 -0.134950 0 255 255
-1.829637 -0.361099 -0.141545 0 255 255
-1.879292 -0.152210 -0.141474 0 255 255
-1.777054 -0.229148 -0.141604 0 255 255
-1.812540 -0.357619 -0.160617 0 255 255
-1.792269 -0.305657 -0.146617 0 255 255
-1.774587 -0.284879 -0.158529 0 255 255
-1.925148 -0.348709 -0.138617 0 255 255
-1.827102 -0.185643 -0.134616 0 255 255
-1.904042 -0.220558 -0.141461 0 255 255
-1.809328 -0.140501 -0.135051 0 255 255
-1.890821 -0.360362 -0.147406 0 255 255
-1.871202 -0.229583 -0.141551 0 255 255
-1.826084 -0.228950 -0.135297 0 255 255
-1.868026 -0.291599 -0.134799 0 255 255
-1.903381 -0.198207 -0.134786 0 255 255
-1.830904 -0.270864 -0.135163 0 255 255
-1.854298 -0.371307 -0.148616 0 255 255
-1.933807 -0.244901 -0.134616 0 255 255
-1.765363 -0.203007 -0.141573 0 255 255
-1.862715 -0.208896 -0.141539 0 255 255
-1.769596 -0.247091 -0.158616 0 255 255
-1.759003 -0.163466 -0.134732 0 255 255
-1.922878 -0.318788 -0.135195 0 255 255
-1.867365 -0.269248 -0.141600 0 255 255
-1.723613 -0.158720 -0.156617 0 255 255
-1.872402 -0.364277 -0.158616 0 255 255
-1.798022 -0.343283 -0.150617 0 255 255
-1.796882 -0.158900 -0.134616 0 255 255
-1.769047 -0.133766 -0.140617 0 255 255
-1.863764 -0.165734 -0.134925 0 255 255
-1.896369 -0.299887 -0.134776 0 255 255
-1.865025 -0.123567 -0.140617 0 255 255
-1.908003 -0.350576 -0.154617 0 255 255
-1.797532 -0.320895 -0.160617 0 255 255
-1.806446 -0.194275 -0.135189 0 255 255
-1.895877 -0.259098 -0.141571 0 255 255
-1.831149 -0.291258 -0.141515 0 255 255
-1.734526 -0.182981 -0.134497 0 255 255
-1.838216 -0.377678 -0.160617 0 255 255
-1.893260 -0.237163 -0.135056 0 255 255
-1.948559 -0.284704 -0.134616 0 255 255
-1.746802 -0.192640 -0.151618 0 255 255
-1.841905 -0.207185 -0.135006 0 255 255
-1.763512 -0.092988 -0.170617 0 255 255
-1.955426 -0.318004 -0.141557 0 255 255
-1.869170 -0.191166 -0.134807 0 255 255
-1.774068 -0.176621 -0.134471 0 255 255
-1.759140 -0.226821 -0.150617 0 255 255
-1.735793 -0.092746 -0.151201 0 255 255
-1.923619 -0.226620 -0.134616 0 255 255
-1.927547 -0.283036 -0.134800 0 255 255
-1.859445 -0.328182 -0.135000 0 255 255
-1.746150 -0.215270 -0.164617 0 255 255
-1.860522 -0.352489 -0.135091 0 255 255
-1.788990 -0.275683 -0.141591 0 255 255
-1.831102 -0.319894 -0.141539 0 255 255
-1.962393 -0.331543 -0.156617 0 255 255
-1.835762 -0.120569 -0.141527 0 255 255
-1.800973 -0.293583 -0.135210 0 255 255
-1.899318 -0.168400 -0.134616 0 255 255
-1.821930 -0.392178 -0.160617 0 255 255
-1.736775 -0.174324 -0.171567 0 255 255
-1.924513 -0.259145 -0.143604 0 255 255
-1.935969 -0.341901 -0.156617 0 255 255
-1.888080 -0.328230 -0.135190 0 255 255
-1.741397 -0.167208 -0.141517 0 255 255
-1.838776 -0.240565 -0.141508 0 255 255
-1.804319 -0.213129 -0.135069 0 255 255
-1.805519 -0.247634 -0.135373 0 255 255
-1.886068 -0.193708 -0.141550 0 255 255
-1.806379 -0.319015 -0.141560 0 255 255
-1.869728 -0.107216 -0.134432 0 255 255
-1.774927 -0.248002 -0.141521 0 255 255
-1.857215 -0.240735 -0.143610 0 255 255
-1.914051 -0.334977 -0.141523 0 255 255
-1.779351 -0.191856 -0.141548 0 255 255
-1.844994 -0.366013 -0.134521 0 255 255
-1.760449 -0.218365 -0.134892 0 255 255
-1.863111 -0.306956 -0.141524 0 255 255
-1.955045 -0.336487 -0.136617 0 255 255
-1.811360 -0.178918 -0.141505 0 255 255
-1.785078 -0.339900 -0.170617 0 255 255
-1.881232 -0.353728 -0.134616 0 255 255
-1.905796 -0.285615 -0.134616 0 255 255
-1.743695 -0.107423 -0.170617 0 255 255
-1.743721 -0.197384 -0.135116 0 255 255
-1.824723 -0.376456 -0.135199 0 255 255
-1.874009 -0.136976 -0.135264 0 255 255
-1.896360 -0.136314 -0.141526 0 255 255
-1.758183 -0.092269 -0.144616 0 255 255
-1.805500 -0.343738 -0.135453 0 255 255
-1.830223 -0.344617 -0.134876 0 255 255
-1.888378 -0.108382 -0.140617 0 255 255
-1.802561 -0.262575 -0.143611 0 255 255
-1.971994 -0.314482 -0.140617 0 255 255
-1.849579 -0.127856 -0.134928 0 255 255
-1.789330 -0.238807 -0.135032 0 255 255
-1.846923 -0.298129 -0.143582 0 255 255
-1.790860 -0.144426 -0.140617 0 255 255
-1.774360 -0.274191 -0.134616 0 255 255
-1.763918 -0.148108 -0.134539 0 255 255
-1.898099 -0.182972 -0.141504 0 255 255
-1.883015 -0.265921 -0.134952 0 255 255
-1.816624 -0.290256 -0.134948 0 255 255
-1.809957 -0.373461 -0.160617 0 255 255
-1.881427 -0.296929 -0.141532 0 255 255
-1.872723 -0.323315 -0.143583 0 255 255
-1.783244 -0.287128 -0.171602 0 255 255
-1.780658 -0.299946 -0.156617 0 255 255
-1.841999 -0.149914 -0.134561 0 255 255
-1.817087 -0.263577 -0.135145 0 255 255
-1.842963 -0.327596 -0.134679 0 255 255
-1.777544 -0.269937 -0.155663 0 255 255
-1.789916 -0.222325 -0.135271 0 255 255
-1.815303 -0.366190 -0.146617 0 255 255
-1.817361 -0.351440 -0.141550 0 255 255
-1.888393 -0.223884 -0.141587 0 255 255
-1.834059 -0.304952 -0.135154 0 255 255
-1.756124 -0.239731 -0.158616 0 255 255
-1.836234 -0.257463 -0.141558 0 255 255
-1.922523 -0.192094 -0.140617 0 255 255
-1.905640 -0.353123 -0.169461 0 255 255
-1.889035 -0.342339 -0.141499 0 255 255
-1.736114 -0.151974 -0.143615 0 255 255
-1.931998 -0.294358 -0.143589 0 255 255
-1.830507 -0.172803 -0.141513 0 255 255
-1.824944 -0.390722 -0.140617 0 255 255
-1.814432 -0.222228 -0.142617 0 255 255
-1.828721 -0.154781 -0.141545 0 255 255
-1.851318 -0.174514 -0.135140 0 255 255
-1.836574 -0.220586 -0.141536 0 255 255
-1.949175 -0.336693 -0.152617 0 255 255
-1.792978 -0.313685 -0.134293 0 255 255
-1.864038 -0.253597 -0.141613 0 255 255
-1.788293 -0.320501 -0.148616 0 255 255
-1.934616 -0.316293 -0.143613 0 255 255
-1.910353 -0.356059 -0.140617 0 255 255
-1.910602 -0.309135 -0.134616 0 255 255
-1.855400 -0.155244 -0.141568 0 255 255
-1.922234 -0.344616 -0.152617 0 255 255
-1.786098 -0.165885 -0.141537 0 255 255
-1.815593 -0.237314 -0.141528 0 255 255
-1.786967 -0.290426 -0.146617 0 255 255
-1.833541 -0.196695 -0.141511 0 255 255
-1.736058 -0.190834 -0.162616 0 255 255
-1.764418 -0.260459 -0.160617 0 255 255
-1.792020 -0.193252 -0.134616 0 255 255
-1.927818 -0.332411 -0.134616 0 255 255
-1.821774 -0.131721 -0.135008 0 255 255
-1.764021 -0.254410 -0.134723 0 255 255
-1.804363 -0.126764 -0.136617 0 255 255
-1.773935 -0.214474 -0.142617 0 255 255
-1.852633 -0.267278 -0.142617 0 255 255
-1.800539 -0.350926 -0.164617 0 255 255
-1.909986 -0.258143 -0.143598 0 255 255
-1.827733 -0.380997 -0.150617 0 255 255
-1.807911 -0.153070 -0.141533 0 255 255
-1.735112 -0.166499 -0.159648 0 255 255
-1.818665 -0.320493 -0.134616 0 255 255
-1.890623 -0.311332 -0.141491 0 255 255
-1.856855 -0.373716 -0.134890 0 255 255
-1.875728 -0.279738 -0.134627 0 255 255
-1.782658 -0.303610 -0.135480 0 255 255
-1.751669 -0.205918 -0.155631 0 255 255
-1.763898 -0.244212 -0.171485 0 255 255
-1.938460 -0.344001 -0.138617 0 255 255
-1.898787 -0.272792 -0.135457 0 255 255
-1.727412 -0.168754 -0.146617 0 255 255
-1.751458 -0.228455 -0.138617 0 255 255
-1.935877 -0.341465 -0.170617 0 255 255
-1.834013 -0.333588 -0.143582 0 255 255
-1.951684 -0.300398 -0.143605 0 255 255
-1.760676 -0.251032 -0.148616 0 255 255
-1.868631 -0.179012 -0.141578 0 255 255
-1.785987 -0.313126 -0.160617 0 255 255
-1.911860 -0.209238 -0.134616 0 255 255
-1.861591 -0.097794 -0.140617 0 255 255
-1.777285 -0.092105 -0.170617 0 255 255
-1.972985 -0.323658 -0.152617 0 255 255
-1.809781 -0.373498 -0.135817 0 255 255
-1.888071 -0.164657 -0.141605 0 255 255
-1.859982 -0.340336 -0.141487 0 255 255
-1.805425 -0.304905 -0.141558 0 255 255
-1.841477 -0.352448 -0.134616 0 255 255
-1.890614 -0.147759 -0.135197 0 255 255
-1.854738 -0.200223 -0.134616 0 255 255
-1.908494 -0.231880 -0.135237 0 255 255
-1.867412 -0.240612 -0.134430 0 255 255
-1.818599 -0.193736 -0.141599 0 255 255
-1.801537 -0.330267 -0.148616 0 255 255
-1.803442 -0.356443 -0.150617 0 255 255
-1.943688 -0.320499 -0.134443 0 255 255
-1.863254 -0.221049 -0.134658 0 255 255
-1.851572 -0.358481 -0.143584 0 255 255
-1.895666 -0.354297 -0.158616 0 255 255
-1.794061 -0.333901 -0.160617 0 255 255
-1.725555 -0.154218 -0.170617 0 255 255
-1.895262 -0.208111 -0.141577 0 255 255
-1.780277 -0.138497 -0.134847 0 255 255
-1.845788 -0.138885 -0.141590 0 255 255
-1.867138 -0.152749 -0.135390 0 255 255
-1.901066 -0.331603 -0.135385 0 255 255
-1.766365 -0.188482 -0.141568 0 255 255
-1.926252 -0.305803 -0.135189 0 255 255
-1.901623 -0.247653 -0.134982 0 255 255
-1.761497 -0.175203 -0.141589 0 255 255
-1.778814 -0.261489 -0.142617 0 255 255
-1.877127 -0.363273 -0.171517 0 255 255
-1.738648 -0.104407 -0.158616 0 255 255
-1.764836 -0.098841 -0.158616 0 255 255
-1.960872 -0.329115 -0.170617 0 255 255
-1.803602 -0.170343 -0.134616 0 255 255
-1.881522 -0.239658 -0.141539 0 255 255
-1.808874 -0.330753 -0.135017 0 255 255
-1.772144 -0.279264 -0.146617 0 255 255
-1.926592 -0.268927 -0.135051 0 255 255
-1.875576 -0.202072 -0.141532 0 255 255
-1.787430 -0.374160 -0.171650 0 255 255
-1.822786 -0.280768 -0.141531 0 255 255
-1.820862 -0.146667 -0.134616 0 255 255
-1.745186 -0.156179 -0.135239 0 255 255
-1.812030 -0.364841 -0.171462 0 255 255
-1.794934 -0.313269 -0.171593 0 255 255
-1.840827 -0.182878 -0.135144 0 255 255
-1.894318 -0.357574 -0.135188 0 255 255
-1.876949 -0.362437 -0.146617 0 255 255
-1.795738 -0.249713 -0.143605 0 255 255
-1.764822 -0.238938 -0.146617 0 255 255
-1.770339 -0.275558 -0.166616 0 255 255
-1.856699 -0.298096 -0.134616 0 255 255
-1.735494 -0.188909 -0.146617 0 255 255
-1.875720 -0.116165 -0.141536 0 255 255
-1.885368 -0.363566 -0.158623 0 255 255
-1.750964 -0.226515 -0.160617 0 255 255
-1.765316 -0.231643 -0.135280 0 255 255
-1.797912 -0.202223 -0.141608 0 255 255
-1.836045 -0.372005 -0.143560 0 255 255
-1.753626 -0.205502 -0.135113 0 255 255
-1.771573 -0.164883 -0.141506 0 255 255
-1.861202 -0.278736 -0.135625 0 255 255
-1.745425 -0.094788 -0.166616 0 255 255
-1.916933 -0.281203 -0.141530 0 255 255
-1.837311 -0.281770 -0.134932 0 255 255
-1.798710 -0.271573 -0.134616 0 255 255
-1.817899 -0.363594 -0.134522 0 255 255
-1.747236 -0.098492 -0.145590 0 255 255
-1.877458 -0.162823 -0.135001 0 255 255
-1.827605 -0.111059 -0.140617 0 255 255
-1.909403 -0.164212 -0.140617 0 255 255
-1.851402 -0.376919 -0.159348 0 255 255
-1.916981 -0.252567 -0.134472 0 255 255
-1.860362 -0.111251 -0.141544 0 255 255
-1.851809 -0.215303 -0.141514 0 255 255
-1.741004 -0.202051 -0.160617 0 255 255
-1.874576 -0.216598 -0.141568 0 255 255
-1.923851 -0.236794 -0.141571 0 255 255
-1.866433 -0.370681 -0.146617 0 255 255
-1.835885 -0.130767 -0.134398 0 255 255
-1.755459 -0.194889 -0.141508 0 255 255
-1.731980 -0.171003 -0.134616 0 255 255
-1.897207 -0.289485 -0.142617 0 255 255
-1.862503 -0.371428 -0.158616 0 255 255
-1.744307 -0.180902 -0.141504 0 255 255
-1.871722 -0.352153 -0.142617 0 255 255
-1.740925 -0.202068 -0.146617 0 255 255
-1.756330 -0.218230 -0.170617 0 255 255
-1.845312 -0.377125 -0.170617 0 255 255
-1.843057 -0.270325 -0.134960 0 255 255
-1.797845 -0.326963 -0.171521 0 255 255
-1.891426 -0.247776 -0.141559 0 255 255
-1.829041 -0.214008 -0.134682 0 255 255
-1.916196 -0.220019 -0.141535 0 255 255
-1.798684 -0.282812 -0.142617 0 255 255
-1.744150 -0.185025 -0.170617 0 255 255
-1.854993 -0.316860 -0.143611 0 255 255
-1.848558 -0.238486 -0.134817 0 255 255
-1.911556 -0.323240 -0.135154 0 255 255
-1.867146 -0.316322 -0.135145 0 255 255
-1.789529 -0.287837 -0.135069 0 255 255
-1.884206 -0.136853 -0.141481 0 255 255
-1.828579 -0.240688 -0.135302 0 255 255
-1.808089 -0.346302 -0.156617 0 255 255
-1.839377 -0.108716 -0.140617 0 255 255
-1.820726 -0.174882 -0.135019 0 255 255
-1.964483 -0.322135 -0.134616 0 255 255
-1.914174 -0.345175 -0.135428 0 255 255
-1.838653 -0.230367 -0.135122 0 255 255
-1.907623 -0.187082 -0.134616 0 255 255
-1.839636 -0.311946 -0.143609 0 255 255
-1.830299 -0.383450 -0.167257 0 255 255
-1.775145 -0.200928 -0.135220 0 255 255
-1.756657 -0.215081 -0.148616 0 255 255
-1.750885 -0.173370 -0.135202 0 255 255
-1.826896 -0.328966 -0.134979 0 255 255
-1.845527 -0.290247 -0.134616 0 255 255
-1.939823 -0.292695 -0.134928 0 255 255
-1.961650 -0.328048 -0.144616 0 255 255
-1.953346 -0.308223 -0.134951 0 255 255
-1.801994 -0.182953 -0.135329 0 255 255
-1.754968 -0.154100 -0.141577 0 255 255
-1.772470 -0.255680 -0.150617 0 255 255
-1.913995 -0.200040 -0.141510 0 255 255
-1.785829 -0.289671 -0.158616 0 255 255
-1.798299 -0.136711 -0.135419 0 255 255
-1.859266 -0.183048 -0.134853 0 255 255
-1.794122 -0.213252 -0.141544 0 255 255
-1.816189 -0.384404 -0.135237 0 255 255
-1.810481 -0.203641 -0.141567 0 255 255
-1.811095 -0.254627 -0.143609 0 255 255
-1.843799 -0.379630 -0.150617 0 255 255
-1.809535 -0.353104 -0.171584 0 255 255
-1.754002 -0.101457 -0.170617 0 255 255
-1.752601 -0.205720 -0.168617 0 255 255
-1.770801 -0.252969 -0.168617 0 255 255
-1.742558 -0.182297 -0.154617 0 255 255
-1.825819 -0.304659 -0.143575 0 255 255
-1.867741 -0.369357 -0.168617 0 255 255
-1.859832 -0.262670 -0.134992 0 255 255
-1.774839 -0.237965 -0.134616 0 255 255
-1.728827 -0.165790 -0.169155 0 255 255
-1.899615 -0.353639 -0.144616 0 255 255
-1.881299 -0.229482 -0.134616 0 255 255
-1.814165 -0.384834 -0.164617 0 255 255
-1.903069 -0.302552 -0.143607 0 255 255
-1.861325 -0.288933 -0.143610 0 255 255
-1.883826 -0.365938 -0.138251 0 255 255
-1.826313 -0.263661 -0.142617 0 255 255
-1.859464 -0.232078 -0.134817 0 255 255
-1.871570 -0.260175 -0.134827 0 255 255
-1.783556 -0.182783 -0.134839 0 255 255
-1.785976 -0.155688 -0.134708 0 255 255
-1.800673 -0.147880 -0.134616 0 255 255
-1.834297 -0.161774 -0.134694 0 255 255
-1.858845 -0.132970 -0.140617 0 255 255
-1.944950 -0.312052 -0.142617 0 255 255
-1.820607 -0.376331 -0.158616 0 255 255
-1.835383 -0.349654 -0.143582 0 255 255
-1.924541 -0.326614 -0.143597 0 255 255
-1.770899 -0.263171 -0.134616 0 255 255
-1.725539 -0.154221 -0.146617 0 255 255
-1.791454 -0.301741 -0.158616 0 255 255
-1.745990 -0.092623 -0.155559 0 255 255
-1.804807 -0.335707 -0.158616 0 255 255
-1.771478 -0.222155 -0.135044 0 255 255
-1.779486 -0.298308 -0.144616 0 255 255
-1.888421 -0.291353 -0.135078 0 255 255
-1.876343 -0.330725 -0.135128 0 255 255
-1.876055 -0.127365 -0.140617 0 255 255
-1.846491 -0.118289 -0.140617 0 255 255
-1.931591 -0.340540 -0.146617 0 255 255
-1.875020 -0.286023 -0.143615 0 255 255
-1.848409 -0.379600 -0.140617 0 255 255
-1.808014 -0.341159 -0.146617 0 255 255
-1.872572 -0.245649 -0.143613 0 255 255
-1.918633 -0.308439 -0.142617 0 255 255
-1.897049 -0.226134 -0.135141 0 255 255
-1.867015 -0.142552 -0.141573 0 255 255
-1.849247 -0.328305 -0.143609 0 255 255
-1.888638 -0.184983 -0.134616 0 255 255
-1.907935 -0.297428 -0.134616 0 255 255
-1.843322 -0.194615 -0.135333 0 255 255
-1.795395 -0.337707 -0.140617 0 255 255
-1.915421 -0.351044 -0.163217 0 255 255
-1.954618 -0.294963 -0.134616 0 255 255
-1.782559 -0.279095 -0.152617 0 255 255
-1.826131 -0.200314 -0.134421 0 255 255
-1.785684 -0.245716 -0.142617 0 255 255
-1.936114 -0.256008 -0.134616 0 255 255
-1.783138 -0.267391 -0.134616 0 255 255
-1.779038 -0.296201 -0.166653 0 255 255
-1.872477 -0.302921 -0.135409 0 255 255
-1.878334 -0.186181 -0.140617 0 255 255
-1.754393 -0.236009 -0.146617 0 255 255
-1.760298 -0.140699 -0.141557 0 255 255
-1.749068 -0.222828 -0.150617 0 255 255
-1.926346 -0.248532 -0.141566 0 255 255
-1.794811 -0.303071 -0.135302 0 255 255
-1.817701 -0.314564 -0.143604 0 255 255
-1.807353 -0.237021 -0.134506 0 255 255
-1.897021 -0.158665 -0.139340 0 255 255
-1.827480 -0.120285 -0.134616 0 255 255
-1.862176 -0.196742 -0.141604 0 255 255
-1.755705 -0.215284 -0.159624 0 255 255
-1.819610 -0.342783 -0.135271 0 255 255
-1.749835 -0.216531 -0.135077 0 255 255
-1.853151 -0.163901 -0.135337 0 255 255
-1.858689 -0.363103 -0.135140 0 255 255
-1.877137 -0.103596 -0.141527 0 255 255
-1.771327 -0.144489 -0.141575 0 255 255
-1.885264 -0.257264 -0.141598 0 255 255
-1.890131 -0.270543 -0.141562 0 255 255
-1.836527 -0.249222 -0.134699 0 255 255
-1.925713 -0.293650 -0.134933 0 255 255
-1.810338 -0.289548 -0.143595 0 255 255
-1.816889 -0.214547 -0.135054 0 255 255
-1.794934 -0.313269 -0.153616 0 255 255
-1.904534 -0.261347 -0.135023 0 255 255
-1.866346 -0.331790 -0.142617 0 255 255
-1.855741 -0.118367 -0.135163 0 255 255
-1.898864 -0.311625 -0.134835 0 255 255
-1.765581 -0.155934 -0.141487 0 255 255
-1.792487 -0.170661 -0.134616 0 255 255
-1.813534 -0.131428 -0.141581 0 255 255
-1.858462 -0.246604 -0.134959 0 255 255
-1.840814 -0.360768 -0.142617 0 255 255
-1.760102 -0.249109 -0.162616 0 255 255
-1.789834 -0.265280 -0.142617 0 255 255
-1.738732 -0.173909 -0.149625 0 255 255
-1.901501 -0.237456 -0.141523 0 255 255
-1.841120 -0.174637 -0.141590 0 255 255
-1.870956 -0.209189 -0.135104 0 255 255
-1.810821 -0.166764 -0.141497 0 255 255
-1.891644 -0.200702 -0.135158 0 255 255
-1.765565 -0.237724 -0.162616 0 255 255
-1.814980 -0.186327 -0.135096 0 255 255
-1.731972 -0.156943 -0.162616 0 255 255
-1.905904 -0.277413 -0.141541 0 255 255
-1.784969 -0.350146 -0.168617 0 255 255
-1.898400 -0.338304 -0.143606 0 255 255
-1.818750 -0.271402 -0.143614 0 255 255
-1.884461 -0.320820 -0.141539 0 255 255
-1.784756 -0.217287 -0.143606 0 255 255
-1.814790 -0.300870 -0.143584 0 255 255
-1.732840 -0.160848 -0.150617 0 255 255
-1.776168 -0.288632 -0.148616 0 255 255
-1.834958 -0.184125 -0.143615 0 255 255
-1.914589 -0.347131 -0.145612 0 255 255
-1.789623 -0.230566 -0.141564 0 255 255
-1.778939 -0.271686 -0.144616 0 255 255
-1.800786 -0.350426 -0.142617 0 255 255
-1.805809 -0.258614 -0.134616 0 255 255
-1.886490 -0.157217 -0.134616 0 255 255
-1.839976 -0.275069 -0.143597 0 255 255
-1.807412 -0.285396 -0.134616 0 255 255
-1.730734 -0.177653 -0.142617 0 255 255
-1.963960 -0.310056 -0.135935 0 255 255
-1.896840 -0.215530 -0.134616 0 255 255
-1.821424 -0.389798 -0.150617 0 255 255
-1.806854 -0.365942 -0.152617 0 255 255
-1.859143 -0.172851 -0.141555 0 255 255
-1.824836 -0.223081 -0.143606 0 255 255
-1.732716 -0.181321 -0.164617 0 255 255
-1.866513 -0.361439 -0.141509 0 255 255
-1.934323 -0.324535 -0.135158 0 255 255
-1.955132 -0.326245 -0.134992 0 255 255
-1.894932 -0.326773 -0.142617 0 255 255
-1.780147 -0.277563 -0.168617 0 255 255
-1.799942 -0.240640 -0.141562 0 255 255
-1.817296 -0.365767 -0.156617 0 255 255
-1.838927 -0.318231 -0.135041 0 255 255
-1.871721 -0.172222 -0.134616 0 255 255
-1.940409 -0.276213 -0.134618 0 255 255
-1.815886 -0.229073 -0.135080 0 255 255
-1.892107 -0.174023 -0.141604 0 255 255
-1.887003 -0.303922 -0.134705 0 255 255
-1.833664 -0.206892 -0.141582 0 255 255
-1.735821 -0.160215 -0.135297 0 255 255
-1.818524 -0.154904 -0.141578 0 255 255
-1.896265 -0.193586 -0.141578 0 255 255
-1.872600 -0.313118 -0.143606 0 255 255
-1.756186 -0.092500 -0.155581 0 255 255
-1.945960 -0.331186 -0.134616 0 255 255
-1.946229 -0.338361 -0.142617 0 255 255
-1.923606 -0.216400 -0.135666 0 255 255
-1.907048 -0.176981 -0.134431 0 255 255
-1.848265 -0.246727 -0.141573 0 255 255
-1.837005 -0.376521 -0.134616 0 255 255
-1.830828 -0.232031 -0.143615 0 255 255
-1.743479 -0.207659 -0.136617 0 255 255
-1.802935 -0.312430 -0.134616 0 255 255
-1.878394 -0.273037 -0.141599 0 255 255
-1.854720 -0.228997 -0.143615 0 255 255
-1.824571 -0.298787 -0.134616 0 255 255
-1.883875 -0.337302 -0.134495 0 255 255
-1.850495 -0.334174 -0.135247 0 255 255
-1.827482 -0.312484 -0.134744 0 255 255
-1.780087 -0.253039 -0.134565 0 255 255
-1.820394 -0.375332 -0.145621 0 255 255
-1.867100 -0.344957 -0.134769 0 255 255
-1.838757 -0.336669 -0.134983 0 255 255
-1.851449 -0.348284 -0.135343 0 255 255
-1.806398 -0.222911 -0.135229 0 255 255
-1.919070 -0.262347 -0.134616 0 255 255
-1.916640 -0.289444 -0.135081 0 255 255
-1.851912 -0.321604 -0.134847 0 255 255
-1.810045 -0.297789 -0.135029 0 255 255
-1.781996 -0.281259 -0.135157 0 255 255
-1.892286 -0.319157 -0.135258 0 255 255
-1.905045 -0.206032 -0.141600 0 255 255
-1.750762 -0.163173 -0.141542 0 255 255
-1.815301 -0.245555 -0.135375 0 255 255
-1.781893 -0.174958 -0.141582 0 255 255
-1.826017 -0.353689 -0.134777 0 255 255
-1.916319 -0.230216 -0.141586 0 255 255
-1.829184 -0.128101 -0.141569 0 255 255
-1.849730 -0.205522 -0.141558 0 255 255
-1.843984 -0.216966 -0.135031 0 255 255
-1.786883 -0.198433 -0.141590 0 255 255
-1.827993 -0.257170 -0.135201 0 255 255
-1.807395 -0.160263 -0.134616 0 255 255
-1.921185 -0.243495 -0.134667 0 255 255
-1.783329 -0.307557 -0.150617 0 255 255
-1.767027 -0.210833 -0.135617 0 255 255
-1.843842 -0.302873 -0.135379 0 255 255
-1.834797 -0.366136 -0.134673 0 255 255
-1.852213 -0.101770 -0.140617 0 255 255
-1.854625 -0.286268 -0.134449 0 255 255
-1.892040 -0.298762 -0.143615 0 255 255
-1.768227 -0.245337 -0.134566 0 255 255
-1.768093 -0.269902 -0.158616 0 255 255
-1.969659 -0.327247 -0.161794 0 255 255
-1.733836 -0.093162 -0.160897 0 255 255
-1.796710 -0.316981 -0.144616 0 255 255
-1.745290 -0.213408 -0.154617 0 255 255
-1.780428 -0.216163 -0.134803 0 255 255
-1.764843 -0.181322 -0.134616 0 255 255
-1.894998 -0.283821 -0.134799 0 255 255
-1.813299 -0.356393 -0.150617 0 255 255
-1.774190 -0.186818 -0.134840 0 255 255
-1.804809 -0.360242 -0.166616 0 255 255
-1.907274 -0.293479 -0.143592 0 255 255
-1.745780 -0.192857 -0.162616 0 255 255
-1.825895 -0.343492 -0.143610 0 255 255
-1.785716 -0.313184 -0.142617 0 255 255
-1.881039 -0.348128 -0.142617 0 255 255
-1.779397 -0.163220 -0.134964 0 255 255
-1.868801 -0.160574 -0.141487 0 255 255
-1.941486 -0.300520 -0.143611 0 255 255
-1.763700 -0.195182 -0.135024 0 255 255
-1.750211 -0.204183 -0.144616 0 255 255
-1.797892 -0.298327 -0.143611 0 255 255
-1.813910 -0.325593 -0.141513 0 255 255
-1.789941 -0.320464 -0.166616 0 255 255
-1.821482 -0.139962 -0.141566 0 255 255
-1.877808 -0.289519 -0.135042 0 255 255
-1.852914 -0.307079 -0.141515 0 255 255
-1.768434 -0.092400 -0.148616 0 255 255
-1.808392 -0.270768 -0.134616 0 255 255
-1.792392 -0.330167 -0.151720 0 255 255
-1.760787 -0.229576 -0.160617 0 255 255
-1.766536 -0.170043 -0.135091 0 255 255
-1.799745 -0.191610 -0.141595 0 255 255
-1.746386 -0.190684 -0.141522 0 255 255
-1.881541 -0.143553 -0.135087 0 255 255
-1.799143 -0.322598 -0.134616 0 255 255
-1.817626 -0.275731 -0.135104 0 255 255
-1.809913 -0.374118 -0.148616 0 255 255
-1.882416 -0.330444 -0.142617 0 255 255
-1.954840 -0.334486 -0.161707 0 255 255
-1.798252 -0.165346 -0.141551 0 255 255
-1.912680 -0.318911 -0.143606 0 255 255
-1.858074 -0.312116 -0.135257 0 255 255
-1.878242 -0.195372 -0.135292 0 255 255
-1.927694 -0.341446 -0.162616 0 255 255
-1.942909 -0.336077 -0.160617 0 255 255
-1.740100 -0.175662 -0.162616 0 255 255
-1.922918 -0.338217 -0.142617 0 255 255
-1.881761 -0.308120 -0.142617 0 255 255
-1.842786 -0.264249 -0.142617 0 255 255
-1.774466 -0.260368 -0.158616 0 255 255
-1.933784 -0.312381 -0.135017 0 255 255
-1.793148 -0.248219 -0.134616 0 255 255
-1.831386 -0.148080 -0.135406 0 255 255
-1.808806 -0.345080 -0.166616 0 255 255
-1.922235 -0.200333 -0.135967 0 255 255
-1.881384 -0.219770 -0.134616 0 255 255
-1.856846 -0.210143 -0.134260 0 255 255
-1.907473 -0.342510 -0.141530 0 255 255
-1.890169 -0.352322 -0.142617 0 255 255
-1.852130 -0.274531 -0.135566 0 255 255
-1.918766 -0.270590 -0.141483 0 255 255
-1.788716 -0.187820 -0.141491 0 255 255
-1.830714 -0.385406 -0.135531 0 255 255
-1.841753 -0.129519 -0.141550 0 255 255
-1.892970 -0.120677 -0.140617 0 255 255
-1.860682 -0.105049 -0.134616 0 255 255
-1.851564 -0.146815 -0.140617 0 255 255
-1.885094 -0.275703 -0.134730 0 255 255
-1.929449 -0.234271 -0.134616 0 255 255
-1.816490 -0.202364 -0.134616 0 255 255
-1.906729 -0.329391 -0.142617 0 255 255
-1.867316 -0.297883 -0.141564 0 255 255
-1.845354 -0.233033 -0.141573 0 255 255
-1.828758 -0.385822 -0.158446 0 255 255
-1.864679 -0.136914 -0.134616 0 255 255
-1.811908 -0.354644 -0.134808 0 255 255
-1.881588 -0.114918 -0.134508 0 255 255
-1.823305 -0.389026 -0.169542 0 255 255
-1.846037 -0.370916 -0.142617 0 255 255
-1.871580 -0.121135 -0.134616 0 255 255
-1.757166 -0.222158 -0.142617 0 255 255
-1.737337 -0.100013 -0.166616 0 255 255
-1.909912 -0.219310 -0.134497 0 255 255
-1.780807 -0.131370 -0.140617 0 255 255
-1.869444 -0.279029 -0.141542 0 255 255
-1.829779 -0.275192 -0.143605 0 255 255
-1.820536 -0.289425 -0.143588 0 255 255
-1.957675 -0.309347 -0.143613 0 255 255
-1.839759 -0.322143 -0.143586 0 255 255
-1.921929 -0.290365 -0.142617 0 255 255
-1.836002 -0.294847 -0.134616 0 255 255
-1.818122 -0.369681 -0.166616 0 255 255
-1.865614 -0.236905 -0.142617 0 255 255
-1.783339 -0.229857 -0.134934 0 255 255
-1.890074 -0.135606 -0.134558 0 255 255
-1.902304 -0.173900 -0.141598 0 255 255
-1.876749 -0.169108 -0.141578 0 255 255
-1.919088 -0.329817 -0.135162 0 255 255
-1.903825 -0.267632 -0.141584 0 255 255
-1.886611 -0.244361 -0.134616 0 255 255
-1.926077 -0.276122 -0.140617 0 255 255
-1.791845 -0.154440 -0.141562 0 255 255
-1.948848 -0.325536 -0.141545 0 255 255
-1.744572 -0.105193 -0.151748 0 255 255
-1.871867 -0.098041 -0.136617 0 255 255
-1.797063 -0.342522 -0.164617 0 255 255
-1.770972 -0.094725 -0.164617 0 255 255
-1.823929 -0.180335 -0.141554 0 255 255
-1.810604 -0.213838 -0.141602 0 255 255
-1.825989 -0.286221 -0.135006 0 255 255
-1.824524 -0.327426 -0.143610 0 255 255
-1.839920 -0.140132 -0.134772 0 255 255
-1.738370 -0.194432 -0.154617 0 255 255
-1.824515 -0.163853 -0.141566 0 255 255
-1.840515 -0.287223 -0.141542 0 255 255
-1.877297 -0.344834 -0.135053 0 255 255
-1.932745 -0.307491 -0.142617 0 255 255
-1.799906 -0.221231 -0.142617 0 255 255
-1.954840 -0.334486 -0.145425 0 255 255
-1.846162 -0.155163 -0.140617 0 255 255
-1.855031 -0.124652 -0.141608 0 255 255
-1.740688 -0.173493 -0.135087 0 255 255
-1.876220 -0.320527 -0.135388 0 255 255
-1.929824 -0.341848 -0.135101 0 255 255
-1.960218 -0.292449 -0.141564 0 255 255
-1.874339 -0.359776 -0.134842 0 255 255
-1.863424 -0.202611 -0.134898 0 255 255
-1.781524 -0.144366 -0.141551 0 255 255
-1.913872 -0.189843 -0.141590 0 255 255
-1.787832 -0.294331 -0.166616 0 255 255
-1.781289 -0.205756 -0.142617 0 255 255
-1.726842 -0.168257 -0.156617 0 255 255
